# .PCD v0.7 - Point Cloud Data file format
VERSION 0.7
FIELDS x y z
SIZE 4 4 4
TYPE F F F
COUNT 1 1 1
WIDTH 1471
HEIGHT 1
VIEWPOINT 0 0 0 1 0 0 0
POINTS 1471
DATA ascii
1.523043 1.0780753 0.22911437
1.546061 1.0798514 0.23155175
1.5691608 1.0813804 0.23398913
1.5841323 1.0770804 0.23520783
1.5990703 1.072696 0.23642652
1.6222394 1.0737242 0.23886392
1.637253 1.0689541 0.24008261
1.6607202 1.0692486 0.24251999
1.6841751 1.0694158 0.24495737
1.6991805 1.0642288 0.24617606
1.7227116 1.0639814 0.24861346
1.7379323 1.0581471 0.24983215
1.7701286 1.0624446 0.25348824
1.7938535 1.0614103 0.25592563
1.8090205 1.0551879 0.2571443
1.8241279 1.0489069 0.25836301
1.8565366 1.0521966 0.2620191
1.8804424 1.0501901 0.26445648
1.8956996 1.0431393 0.26567516
1.9283937 1.0453987 0.26933125
1.9524347 1.0426124 0.27176863
1.976516 1.0395651 0.27420601
2.0094488 1.0408208 0.2778621
2.0336325 1.0371937 0.28029948
2.0667193 1.0377573 0.28395557
2.0909946 1.0335474 0.28639296
2.115298 1.0290731 0.28883034
2.139627 1.024334 0.29126772
2.1729581 1.0235589 0.29492381
2.206363 1.0224051 0.29857987
2.2397993 1.0209569 0.30223596
2.2732522 1.0192418 0.30589205
2.306808 1.0170628 0.30954814
2.3404734 1.0143901 0.3132042
2.3650639 1.007444 0.31564158
2.4079702 1.0078932 0.32051638
2.4417944 1.0040678 0.32417244
2.4756646 0.99985659 0.32782853
2.5188036 0.998918 0.33270329
2.5527778 0.99387527 0.33635938
2.586787 0.98844457 0.34001547
2.6301212 0.98610979 0.34489024
2.673527 0.98326898 0.349765
2.7169993 0.9799211 0.35463977
2.7511759 0.97275651 0.35829586
2.8041251 0.97170079 0.36438933
4.9154677 0.81504518 0.6117841
5.0674477 0.80801708 0.63006449
5.209743 0.79743546 0.6471262
5.3521371 0.78484732 0.66418791
5.5044017 0.77187884 0.6824683
5.6862226 0.76097685 0.70440477
5.8779626 0.74907428 0.72755998
6.0796237 0.73598421 0.75193381
6.3010659 0.72265047 0.77874511
10.183016 0.46107242 1.2515981
10.850213 0.42298689 1.3332506
11.64627 0.38075048 1.4307461
12.462036 0.32905024 1.5306789
13.41651 0.26990792 1.6476735
14.013084 -2.1919625 1.7415129
13.058687 -2.1261563 1.6245183
12.213239 -2.0673585 1.5209293
11.505938 -2.0220778 1.4344021
10.858302 -1.9786717 1.3551871
10.299472 -1.9437779 1.2869402
9.7220469 -1.89814 1.216256
9.2623768 -1.8688843 1.1601962
9.1241322 -1.9007298 1.1443532
9.112009 -1.9580206 1.1443532
8.2370586 -1.8242267 1.0358894
6.8610392 -1.564497 0.86405361
7.6435971 -1.7928339 0.96398652
7.3814011 -1.7799543 0.93230045
7.1581216 -1.7737767 0.90548921
6.8294783 -1.7376788 0.86527234
6.6841302 -1.7448626 0.84821063
6.4717784 -1.7325947 0.82261807
6.2693343 -1.7206837 0.79824418
6.0864129 -1.7116735 0.7763077
5.9038587 -1.7004335 0.75437123
5.721693 -1.68697 0.73243475
5.5589414 -1.6770197 0.71293563
5.4060307 -1.6680191 0.69465524
5.253458 -1.6571648 0.67637485
5.214602 -1.6810045 0.67271876
5.2133646 -1.71684 0.67393744
5.1649098 -1.7367101 0.66906267
5.1634383 -1.7718998 0.67028135
5.1710272 -1.8106146 0.67271876
5.1688957 -1.8464081 0.67393744
5.1571927 -1.8788487 0.67393744
5.117373 -1.9008467 0.67028135
5.1610231 -1.9540493 0.67759353
5.2134647 -2.0114474 0.68612438
3.0739937 -1.5311297 0.42166793
3.0200307 -1.5280091 0.41557446
2.9662883 -1.5241582 0.40948099
2.9127882 -1.519554 0.40338752
2.876945 -1.5237461 0.39973143
2.8236053 -1.5182894 0.39363798
2.7704494 -1.5122235 0.38754451
2.7261648 -1.5103605 0.38266972
2.6820147 -1.5080016 0.37779495
2.6380029 -1.5051482 0.37292019
2.6027243 -1.5067749 0.3692641
2.5589721 -1.5029912 0.36438933
2.5154285 -1.4986222 0.35951456
2.4891045 -1.5039133 0.35707718
2.4373653 -1.4934728 0.35098371
2.4026425 -1.4930414 0.34732762
2.3680222 -1.4922333 0.34367153
2.333508 -1.4910498 0.34001547
2.2991033 -1.4894919 0.33635938
2.2648113 -1.4875613 0.33270329
2.2306352 -1.4852593 0.32904723
2.2048051 -1.4881399 0.32660982
2.1708927 -1.4850676 0.32295376
2.1453352 -1.4871805 0.32051638
2.1441443 -1.5062311 0.32173505
2.1427238 -1.5254296 0.32295376
2.1491959 -1.5504767 0.32539114
2.1073604 -1.5405198 0.32051638
2.0737708 -1.5359279 0.31686029
2.0483358 -1.5368339 0.31442291
2.0229113 -1.5375612 0.31198552
1.9974825 -1.5381299 0.30954814
1.972127 -1.5384401 0.30711073
1.9390596 -1.5323391 0.30345467
1.9138963 -1.5320866 0.30101728
1.8888133 -1.531579 0.29857987
1.8638716 -1.5307457 0.29614249
1.8314583 -1.5232242 0.29248643
1.8143353 -1.528218 0.29126772
1.7895955 -1.526704 0.28883034
1.7649468 -1.5249399 0.28639296
1.7403915 -1.5229269 0.28395557
1.7159897 -1.5206008 0.28151819
1.6917603 -1.5179464 0.27908078
1.667572 -1.5151145 0.2766434
1.6434113 -1.5121211 0.27420601
1.6266164 -1.5156507 0.27298734
1.6242806 -1.5326525 0.27420601
1.6217947 -1.5496849 0.27542472
1.6262915 -1.5736482 0.2778621
1.6163719 -1.5838354 0.2778621
1.6204797 -1.6079421 0.28029948
1.6174082 -1.6250657 0.28151819
1.6212245 -1.649212 0.28395557
1.6178254 -1.6664083 0.28517425
1.621061 -1.6908698 0.28761163
1.6104702 -1.7009602 0.28761163
1.613459 -1.7254049 0.29004905
1.6161389 -1.7500132 0.29248643
1.6117995 -1.767467 0.29370511
1.6073041 -1.7849351 0.29492381
1.6158432 -1.8172508 0.29857987
1.6043932 -1.8273677 0.29857987
1.6188861 -1.8674108 0.30345467
1.5877581 -1.8549246 0.29979858
1.5696651 -1.8572834 0.29857987
1.5516763 -1.8594292 0.2973612
1.5338138 -1.8613476 0.29614249
1.5096519 -1.8554752 0.29370511
1.4917488 -1.8571854 0.29248643
1.4677166 -1.8509672 0.29004905
1.4560577 -1.8601526 0.29004905
1.4322746 -1.8535018 0.28761163
1.4147429 -1.854449 0.28639296
1.3912128 -1.8473755 0.28395557
1.3736571 -1.8481141 0.28273687
1.3561472 -1.8487055 0.28151819
1.3386844 -1.8491502 0.28029948
1.3212698 -1.8494487 0.27908078
1.3039044 -1.8496016 0.2778621
1.2809217 -1.8414615 0.27542472
1.2637098 -1.84129 0.27420601
1.2465508 -1.840975 0.27298734
1.234959 -1.848771 0.27298734
1.2124666 -1.8398716 0.27054992
1.2010438 -1.8473485 0.27054992
1.1787876 -1.8380902 0.26811254
1.1672153 -1.8454604 0.26811254
1.1503443 -1.8443362 0.26689386
1.1335336 -1.843073 0.26567516
1.1117078 -1.8331425 0.26323777
1.1003287 -1.8399953 0.26323777
1.0837955 -1.8382691 0.2620191
1.0672375 -1.8364606 0.26080039
1.0507445 -1.8345171 0.25958169
1.0343183 -1.8324394 0.25836301
1.01796 -1.830228 0.2571443
1.0064403 -1.8365878 0.2571443
-1.0077345 -1.7102815 0.24373868
-1.0184605 -1.703916 0.24373868
-1.0342268 -1.7060102 0.24495737
-1.0499749 -1.7080252 0.24617606
-1.0606025 -1.7014463 0.24617606
-1.0765754 -1.7031386 0.24739476
-1.0926112 -1.7046971 0.24861346
-1.1033005 -1.6977984 0.24861346
-1.1194068 -1.6991211 0.24983215
-1.1410855 -1.708562 0.25226954
-1.1573623 -1.7095778 0.25348824
-1.168081 -1.7022721 0.25348824
-1.1844207 -1.7030479 0.25470692
-1.200816 -1.703685 0.25592563
-1.2172658 -1.7041832 0.2571443
-1.2279495 -1.6965014 0.2571443
-1.2444547 -1.696756 0.25836301
-1.2610114 -1.69687 0.25958169
-1.2776184 -1.6968426 0.26080039
-1.2942741 -1.6966734 0.2620191
-1.3109137 -1.6964113 0.26323777
-1.3275168 -1.6960725 0.26445648
-1.3442308 -1.6955413 0.26567516
-1.3548576 -1.6870618 0.26567516
-1.3779578 -1.693915 0.26811254
-1.3948854 -1.6928837 0.26933125
-1.4118543 -1.6917063 0.27054992
-1.4224557 -1.6828021 0.27054992
-1.4394559 -1.6813711 0.27176863
-1.4629961 -1.6872917 0.27420601
-1.4735044 -1.6781228 0.27420601
-1.4904685 -1.6763786 0.27542472
-1.5141726 -1.6818068 0.2778621
-1.531397 -1.6795944 0.27908078
-1.5486531 -1.6772316 0.28029948
-1.5659399 -1.6747178 0.28151819
-1.5408264 -1.6709481 -0.27908078
-1.5580695 -1.6684878 -0.28029948
-1.5684493 -1.6587342 -0.28029948
-1.5924245 -1.6633232 -0.28273687
-1.6096798 -1.6604818 -0.28395557
-1.6339879 -1.6645007 -0.28639296
-1.6444135 -1.6542017 -0.28639296
-1.6758999 -1.6648216 -0.29004905
-1.6863267 -1.6542593 -0.29004905
-1.7180747 -1.6643488 -0.29370511
-1.7284976 -1.6535214 -0.29370511
-1.7244229 -1.6289961 -0.29126772
-1.720108 -1.6045889 -0.28883034
-1.7228562 -1.5870243 -0.28761163
-1.7180407 -1.5628858 -0.28517425
-1.7203078 -1.5455776 -0.28395557
-1.7224938 -1.5282261 -0.28273687
-1.7096641 -1.4977525 -0.27908078
-1.719041 -1.4869809 -0.27908078
-1.7132552 -1.4632584 -0.2766434
-1.7148272 -1.4460667 -0.27542472
-1.7162517 -1.4289125 -0.27420601
-1.717528 -1.4117986 -0.27298734
-1.7186581 -1.3947245 -0.27176863
-1.7118948 -1.3714871 -0.26933125
-1.7126937 -1.3545464 -0.26811254
-1.7133468 -1.3376511 -0.26689386
-1.7138562 -1.3208003 -0.26567516
-1.7141646 -1.3040714 -0.26445648
-1.714275 -1.2874653 -0.26323777
-1.7143017 -1.2708328 -0.2620191
-1.7142419 -1.2541763 -0.26080039
-1.7220885 -1.2433802 -0.26080039
-1.7379501 -1.2382954 -0.2620191
-1.7619351 -1.2387685 -0.26445648
-1.7859942 -1.2389884 -0.26689386
-1.8101246 -1.238955 -0.26933125
-1.8343251 -1.2386659 -0.27176863
-1.8585922 -1.2381221 -0.27420601
-1.8746299 -1.2318702 -0.27542472
-1.898937 -1.2309473 -0.2778621
-1.9316131 -1.2351997 -0.28151819
-1.9560732 -1.2337127 -0.28395557
-1.9722141 -1.2266406 -0.28517425
-1.9968047 -1.2246021 -0.28761163
-2.0214462 -1.2223037 -0.29004905
-2.0546634 -1.2248248 -0.29370511
-2.079433 -1.2219486 -0.29614249
-2.1128361 -1.2237827 -0.29979858
-2.137723 -1.2203251 -0.30223596
-2.1539989 -1.2117358 -0.30345467
-2.1702509 -1.2029899 -0.30467334
-2.1690552 -1.1845734 -0.30345467
-2.1589742 -1.161516 -0.30101728
-2.1661794 -1.1480225 -0.30101728
-2.1644521 -1.1299858 -0.29979858
-2.1538067 -1.1073813 -0.2973612
-2.1607218 -1.0938272 -0.2973612
-2.1586685 -1.0758018 -0.29614249
-2.1564741 -1.0578467 -0.29492381
-2.15414 -1.0399605 -0.29370511
-2.1516662 -1.0221468 -0.29248643
-2.1580462 -1.0086068 -0.29248643
-2.1553226 -0.99088222 -0.29126772
-2.1615062 -0.97731984 -0.29126772
-2.1585345 -0.95968777 -0.29004905
-2.155427 -0.94213116 -0.28883034
-2.1521847 -0.92465168 -0.28761163
-2.1487684 -0.90734416 -0.28639296
-2.1543489 -0.89401335 -0.28639296
-2.1506944 -0.87680632 -0.28517425
-2.1469464 -0.85958725 -0.28395557
-2.1523051 -0.84608012 -0.28395557
-2.1483185 -0.82896757 -0.28273687
-2.1442027 -0.81193757 -0.28151819
-2.1492617 -0.79844975 -0.28151819
-2.1449106 -0.78153127 -0.28029948
-2.1497784 -0.76803964 -0.28029948
-2.1451943 -0.75123602 -0.27908078
-2.1498718 -0.73774314 -0.27908078
-2.1450253 -0.72115123 -0.2778621
-2.149452 -0.70784777 -0.2778621
-2.1443803 -0.69137627 -0.2766434
-2.1486819 -0.6778897 -0.2766434
-2.1434147 -0.66144848 -0.27542472
-2.138026 -0.64510149 -0.27420601
-2.1420372 -0.63165462 -0.27420601
-2.1459637 -0.61818397 -0.27420601
-2.1402509 -0.6020003 -0.27298734
-2.143991 -0.58854145 -0.27298734
-2.1380589 -0.57249099 -0.27176863
-2.13201 -0.5565396 -0.27054992
-2.1354411 -0.54322553 -0.27054992
-2.1387661 -0.52998376 -0.27054992
-2.1323822 -0.51430207 -0.26933125
-2.1355717 -0.50089329 -0.26933125
-2.1289995 -0.4852601 -0.26811254
-2.1320064 -0.47187313 -0.26811254
-2.1252248 -0.45638472 -0.26689386
-2.1377678 -0.44504493 -0.26811254
-2.1307919 -0.42964298 -0.26689386
-2.1237078 -0.41434515 -0.26567516
-2.1360228 -0.40283337 -0.26689386
-2.1385114 -0.38940504 -0.26689386
-2.1311235 -0.37433767 -0.26567516
-2.1334023 -0.36112478 -0.26567516
-2.1356139 -0.34780699 -0.26567516
-2.1279509 -0.3328473 -0.26445648
-2.1300004 -0.31947106 -0.26445648
-2.1319656 -0.30608106 -0.26445648
-2.1338465 -0.29268011 -0.26445648
-2.1258018 -0.27797955 -0.26323777
-2.1275063 -0.26461789 -0.26323777
-2.129127 -0.25124463 -0.26323777
-2.1207993 -0.23676141 -0.2620191
-2.1222451 -0.22343086 -0.2620191
-2.1236072 -0.2100926 -0.2620191
-2.1248853 -0.19674495 -0.2620191
-2.1161907 -0.18253766 -0.26080039
-2.1172957 -0.16923827 -0.26080039
-2.1183174 -0.1559322 -0.26080039
-2.1192553 -0.14261885 -0.26080039
-2.1201038 -0.12939245 -0.26080039
-2.1208649 -0.11625478 -0.26080039
-2.1215491 -0.10301886 -0.26080039
-2.1122379 -0.08926715 -0.25958169
-2.112757 -0.075994432 -0.25958169
-2.1231139 -0.063012041 -0.26080039
-2.1135452 -0.0494394 -0.25958169
-2.1237381 -0.036327887 -0.26080039
-2.1139996 -0.022876559 -0.25958169
-2.1141016 -0.0095929587 -0.25958169
-2.1240456 0.003707218 -0.26080039
-2.1140552 0.016973728 -0.25958169
-2.1139069 0.030255765 -0.25958169
-2.1136749 0.043536607 -0.25958169
-2.1034403 0.056457121 -0.25836301
-2.1129701 0.069818005 -0.25958169
-2.1025755 0.08261025 -0.25836301
-2.1119301 0.096271969 -0.25958169
-2.1013715 0.10902482 -0.25836301
-2.1006451 0.12222647 -0.25836301
-2.0998356 0.13542217 -0.25836301
-2.0989432 0.14861365 -0.25836301
-2.1078641 0.16256134 -0.25958169
-2.106801 0.17580274 -0.25958169
-2.1056633 0.18894409 -0.25958169
-2.0945721 0.201039 -0.25836301
-2.1031508 0.21511349 -0.25958169
-2.1017578 0.22832423 -0.25958169
-2.1002817 0.24152483 -0.25958169
-2.0987227 0.25471702 -0.25958169
-2.0970807 0.26789802 -0.25958169
-2.0953562 0.28106958 -0.25958169
-2.0935488 0.29422891 -0.25958169
-2.0916588 0.30737776 -0.25958169
-2.0995109 0.32192641 -0.26080039
-2.0876749 0.33336386 -0.25958169
-2.0953302 0.34810054 -0.26080039
-2.09307 0.36144236 -0.26080039
-2.0907416 0.37467706 -0.26080039
-2.088346 0.38780668 -0.26080039
-2.0858684 0.40091985 -0.26080039
-2.083308 0.41401833 -0.26080039
-2.0903883 0.42909515 -0.2620191
-2.0876508 0.44222146 -0.2620191
-2.084851 0.45523816 -0.2620191
-2.0819905 0.46814731 -0.2620191
-2.0790081 0.48121896 -0.2620191
-2.0855558 0.49675277 -0.26323777
-2.0823932 0.5098474 -0.26323777
-2.0791945 0.52273917 -0.26323777
-2.0758688 0.5357933 -0.26323777
-2.0724137 0.54900616 -0.26323777
-2.0688987 0.56210649 -0.26323777
-2.0748878 0.5777576 -0.26445648
-2.0712426 0.59069204 -0.26445648
-2.0675426 0.60351533 -0.26445648
-2.0732472 0.61924404 -0.26567516
-2.0693152 0.63225889 -0.26567516
-2.0747757 0.64820755 -0.26689386
-2.0706618 0.6612314 -0.26689386
-2.0759025 0.67730677 -0.26811254
-2.0716062 0.69033605 -0.26811254
-2.0672278 0.70333809 -0.26811254
-2.0627677 0.71631348 -0.26811254
-2.0676136 0.73248512 -0.26933125
-2.0630357 0.74528104 -0.26933125
-2.0583453 0.75813931 -0.26933125
-2.0628331 0.77454674 -0.27054992
-2.0579259 0.78749204 -0.27054992
-2.0621846 0.80401272 -0.27176863
-2.0663171 0.82061678 -0.27298734
-2.06112 0.83358413 -0.27298734
-2.0558789 0.84642768 -0.27298734
-2.0597494 0.86298531 -0.27420601
-2.0542867 0.87590945 -0.27420601
-2.05777 0.89293009 -0.27542472
-2.0520797 0.90593082 -0.27542472
-2.0554018 0.92287141 -0.2766434
-2.0585918 0.93988943 -0.2778621
-2.0526454 0.95280588 -0.2778621
-2.0556369 0.96983033 -0.27908078
-2.0406387 0.97825694 -0.2778621
-2.0523412 0.99966365 -0.28029948
-2.0460196 1.0125396 -0.28029948
-2.0396173 1.0253745 -0.28029948
-2.0419741 1.0426838 -0.28151819
-2.0441475 1.0601513 -0.28273687
-2.0373526 1.0731515 -0.28273687
-2.0392747 1.0907006 -0.28395557
-2.0411038 1.1082287 -0.28517425
-2.0341005 1.1210308 -0.28517425
-2.0356791 1.1386352 -0.28639296
-2.0371673 1.1562132 -0.28761163
-2.0385659 1.173766 -0.28883034
-2.0312028 1.1864622 -0.28883034
-2.0322464 1.2042617 -0.29004905
-2.0331469 1.2221197 -0.29126772
-2.0339024 1.2400376 -0.29248643
-2.0345132 1.2580118 -0.29370511
-2.0517952 1.2865894 -0.2973612
-2.0352957 1.2941295 -0.29614249
-2.0104396 1.2961363 -0.29370511
-1.9773322 1.2924507 -0.29004905
-1.9526246 1.2938845 -0.28761163
-1.919739 1.2895237 -0.28395557
-1.8951899 1.2903886 -0.28151819
-1.870707 1.2909954 -0.27908078
-1.8462914 1.2913468 -0.2766434
-1.813849 1.2857021 -0.27298734
-1.7896119 1.2854929 -0.27054992
-1.7654504 1.2850294 -0.26811254
-1.7413653 1.2843144 -0.26567516
-1.7173603 1.283347 -0.26323777
-1.693436 1.28213 -0.26080039
-1.6695963 1.2806627 -0.25836301
-1.6458417 1.2789477 -0.25592563
-1.6221758 1.2769845 -0.25348824
-1.6063598 1.2809638 -0.25226954
-1.5828935 1.2784882 -0.24983215
-1.5595762 1.2757028 -0.24739476
-1.5438874 1.2791439 -0.24617606
-1.5205019 1.2761918 -0.24373868
-1.4972736 1.272928 -0.2413013
-1.4742028 1.2693583 -0.23886392
-1.4512372 1.2655486 -0.23642652
-1.4358171 1.268072 -0.23520783
-1.4130255 1.2638341 -0.23277044
-1.3977001 1.2660246 -0.23155175
-1.3751447 1.2613024 -0.22911437
-1.3673033 1.2697986 -0.22911437
-1.3448929 1.2647058 -0.22667697
-1.3297318 1.2662866 -0.22545828
-1.3074605 1.2608365 -0.2230209
-1.2924112 1.2620924 -0.2218022
-1.2773986 1.2632085 -0.22058351
-1.2624227 1.2641867 -0.21936481
-1.2474859 1.2650262 -0.21814612
-1.2395124 1.2728398 -0.21814612
-1.2108514 1.2591398 -0.21449004
-1.2029158 1.2667232 -0.21449004
-1.188144 1.2670158 -0.21327135
-1.1734155 1.2671739 -0.21205266
-1.158733 1.2671964 -0.21083397
-1.1440961 1.2670854 -0.20961526
-1.1295073 1.2668402 -0.20839657
-1.1149663 1.2664627 -0.20717788
-1.1004755 1.265952 -0.20595919
-1.0795703 1.2577785 -0.2035218
-1.0716465 1.2645365 -0.2035218
-1.0573103 1.2636329 -0.20230311
-1.0430288 1.2625989 -0.20108442
-1.0288017 1.261436 -0.19986571
-1.0146312 1.260144 -0.19864702
-1.0005171 1.2587246 -0.19742833
1.0262833 5.5535564 -0.69343656
1.4619691 5.5372443 -0.70318609
1.4967316 5.5279493 -0.70318609
1.531435 5.518436 -0.70318609
1.5687921 5.5182519 -0.70440477
1.603433 5.508286 -0.70440477
1.1080661 3.7193048 -0.47650912
1.1140512 3.6553035 -0.46919698
1.1310897 3.6292799 -0.46675956
1.1267562 3.5369866 -0.45579132
1.3242271 2.8103056 -0.38145104
1.316136 2.7482188 -0.37413889
1.3073181 2.6863465 -0.36682671
1.3241709 2.6780794 -0.36682671
1.3409716 2.6697066 -0.36682671
1.3971263 2.69677 -0.37292019
1.4415302 2.7407689 -0.38023233
1.4866533 2.7842541 -0.38754451
1.5088477 2.7835844 -0.38876319
1.6328127 2.6429751 -0.38145104
1.6333503 2.6075733 -0.37779495
1.6602311 2.6140881 -0.38023233
1.6175112 2.5118113 -0.36682671
1.6115569 2.4683547 -0.36195195
1.6215558 2.4499037 -0.36073324
1.636917 2.4396667 -0.36073324
1.5963955 2.3472617 -0.34854633
1.0243621 1.1610935 -0.19011617
1.0316372 1.1546344 -0.19011617
1.0388715 1.1481297 -0.19011617
1.0326538 1.1269439 -0.18767878
1.0667198 1.1495355 -0.19255356
1.0807184 1.1500435 -0.19377226
1.0879229 1.1432306 -0.19377226
1.1019719 1.1435194 -0.19499095
1.109135 1.136573 -0.19499095
1.1232309 1.1366415 -0.19620964
1.1303505 1.1295617 -0.19620964
1.1444901 1.1294088 -0.19742833
1.1515638 1.1221956 -0.19742833
1.1728956 1.1287026 -0.19986571
1.1871591 1.1281482 -0.20108442
1.194224 1.1206669 -0.20108442
1.208522 1.1198875 -0.20230311
1.2228571 1.1189725 -0.2035218
1.237228 1.1179214 -0.20474049
1.25904 1.1233413 -0.20717788
1.2660731 1.1154085 -0.20717788
1.280545 1.1139458 -0.20839657
1.2950481 1.1123451 -0.20961526
1.3171513 1.1170255 -0.21205266
1.3317537 1.1150997 -0.21327135
1.3463837 1.113034 -0.21449004
1.36104 1.1108285 -0.21570873
1.3756729 1.1085424 -0.21692742
1.3980489 1.1123571 -0.21936481
1.4049622 1.1036124 -0.21936481
1.427556 1.106927 -0.2218022
1.4423647 1.1039683 -0.2230209
1.4571921 1.1008668 -0.22423959
1.4799942 1.1035556 -0.22667697
1.4948928 1.1001177 -0.22789566
1.5098064 1.0965359 -0.22911437
1.532801 1.0985922 -0.23155175
1.5477769 1.094671 -0.23277044
1.5709032 1.0962849 -0.23520783
1.5941101 1.097651 -0.23764521
1.6009754 1.0876133 -0.23764521
1.6242199 1.0886551 -0.24008261
1.6392127 1.0840458 -0.2413013
1.6626178 1.0845706 -0.24373868
1.6778407 1.0793269 -0.24495737
1.7013512 1.079398 -0.24739476
1.7164202 1.0741011 -0.24861346
1.7400285 1.0737199 -0.25105083
1.7637928 1.07293 -0.25348824
1.7875701 1.0719585 -0.25592563
1.8113585 1.0708078 -0.25836301
1.8351555 1.0694799 -0.26080039
1.8589592 1.0679779 -0.26323777
1.8742236 1.0612485 -0.26445648
1.9068573 1.0639602 -0.26811254
1.9395978 1.0663029 -0.27176863
1.9549869 1.058822 -0.27298734
1.9878725 1.0605335 -0.2766434
2.003283 1.0526394 -0.2778621
2.0363028 1.0537163 -0.28151819
2.0605707 1.0499133 -0.28395557
2.0848703 1.0458465 -0.28639296
2.1180992 1.04591 -0.29004905
2.1514099 1.0455967 -0.29370511
2.1758454 1.0406232 -0.29614249
2.2092834 1.0396097 -0.29979858
2.2427931 1.0382168 -0.30345467
2.2672937 1.032429 -0.30589205
2.300822 1.0305331 -0.30954814
2.3344576 1.0281587 -0.3132042
2.368197 1.0253013 -0.31686029
2.4019914 1.0220598 -0.32051638
2.4449949 1.0222623 -0.32539114
2.4789133 1.0181931 -0.32904723
2.5128758 1.0137377 -0.33270329
2.5561068 1.0125505 -0.33757809
2.5994208 1.0108596 -0.34245285
2.642813 1.0086638 -0.34732762
2.6769838 1.0024811 -0.35098371
2.7204967 0.99933088 -0.35585847
2.7734125 0.99903667 -0.36195195
2.817071 0.99481124 -0.36682671
4.969306 0.85388309 -0.61909628
5.1116309 0.84553784 -0.63615799
5.254003 0.83567768 -0.65321964
5.4161034 0.82684571 -0.67271876
5.5783277 0.81577885 -0.69221789
5.7602801 0.80545413 -0.71415436
5.9521542 0.79418695 -0.73730952
6.173646 0.78429198 -0.76412076
6.3459697 0.76569909 -0.78483856
6.5787225 -1.4163619 -0.82627416
6.3758974 -1.41467 -0.80190027
6.3379178 -1.4477936 -0.79824418
6.3095007 -1.4824946 -0.79580683
6.300128 -1.5218338 -0.79580683
6.290442 -1.5613884 -0.79580683
6.290195 -1.6030582 -0.7970255
6.2993474 -1.6470225 -0.79946285
6.2314272 -1.6708716 -0.79215074
6.0293965 -1.6573765 -0.76777685
5.8373427 -1.6441016 -0.74462169
5.6647744 -1.6339815 -0.72390389
5.4925699 -1.6217604 -0.70318609
5.3397517 -1.6131825 -0.68490571
5.1967468 -1.6056802 -0.667844
5.1960196 -1.6412901 -0.66906267
5.1950502 -1.676954 -0.67028135
5.1655588 -1.7033457 -0.667844
5.1548305 -1.7355429 -0.667844
5.1627517 -1.7738992 -0.67028135
5.7978725 -2.0326581 -0.75437123
5.1307878 -1.8350675 -0.66906267
5.1284809 -1.87067 -0.67028135
5.1817465 -1.9270743 -0.67881221
5.2252226 -1.9807026 -0.68612438
2.9934485 -1.4924783 -0.41069967
2.9397388 -1.4888349 -0.40460622
2.8862596 -1.4844503 -0.39851275
2.841814 -1.4839281 -0.39363798
2.7974224 -1.4830346 -0.38876319
2.7530892 -1.4817659 -0.38388842
2.7001734 -1.4752406 -0.37779495
2.6561303 -1.4729232 -0.37292019
2.6208739 -1.4749792 -0.3692641
2.5770788 -1.4717288 -0.36438933
2.5334291 -1.4679869 -0.35951456
2.4984865 -1.4687853 -0.35585847
2.4636986 -1.4690958 -0.35220239
2.429069 -1.4689243 -0.34854633
2.3860123 -1.4632958 -0.34367153
2.3514864 -1.4625325 -0.34001547
2.3254604 -1.4666885 -0.33757809
2.282752 -1.4598806 -0.33270329
2.2485504 -1.4579948 -0.32904723
2.2144637 -1.4557374 -0.32539114
2.180495 -1.4531099 -0.32173505
2.1466477 -1.4501135 -0.31807899
2.1457479 -1.4690865 -0.31929767
2.1447592 -1.4880111 -0.32051638
2.1435525 -1.5070729 -0.32173505
2.150208 -1.5320305 -0.32417244
2.1003039 -1.5164593 -0.31807899
2.0747135 -1.5179046 -0.31564158
2.0492547 -1.5189992 -0.3132042
2.0159926 -1.5137877 -0.30954814
1.9907089 -1.5143187 -0.30711073
1.9654315 -1.5146793 -0.30467334
1.9324052 -1.5086745 -0.30101728
1.9073181 -1.508472 -0.29857987
1.8823098 -1.508015 -0.29614249
1.857384 -1.5073029 -0.29370511
1.832607 -1.5062585 -0.29126772
1.8079826 -1.5048841 -0.28883034
1.7909684 -1.5097389 -0.28761163
1.7588021 -1.5016273 -0.28395557
1.741824 -1.5061569 -0.28273687
1.7099259 -1.4974536 -0.27908078
1.6931229 -1.5015085 -0.2778621
1.6690173 -1.4987069 -0.27542472
1.6449466 -1.4957368 -0.27298734
1.6282144 -1.4993198 -0.27176863
1.6332803 -1.5230583 -0.27420601
1.6381111 -1.5469197 -0.2766434
1.6283592 -1.5571816 -0.2766434
1.6256737 -1.5742865 -0.2778621
1.6228362 -1.5914196 -0.27908078
1.6198484 -1.6085781 -0.28029948
1.6237777 -1.6327295 -0.28273687
1.6205858 -1.6498396 -0.28395557
1.6171712 -1.6670432 -0.28517425
1.6135305 -1.6843392 -0.28639296
1.6166327 -1.7087936 -0.28883034
1.6127902 -1.7260299 -0.29004905
1.6087209 -1.7433532 -0.29126772
1.6111051 -1.7681 -0.29370511
1.6132421 -1.7929443 -0.29614249
1.6151292 -1.8178855 -0.29857987
1.6036757 -1.8279973 -0.29857987
1.5856594 -1.8305355 -0.2973612
1.5676757 -1.8329191 -0.29614249
1.549724 -1.83515 -0.29492381
1.5318871 -1.8371607 -0.29370511
1.507857 -1.831292 -0.29126772
1.4901402 -1.8329631 -0.29004905
1.4661688 -1.8268083 -0.28761163
1.4484984 -1.8282044 -0.28639296
1.4308677 -1.8294517 -0.28517425
1.4072931 -1.8226316 -0.28273687
1.3959734 -1.831316 -0.28273687
1.3725837 -1.8241289 -0.28029948
1.3551781 -1.8247483 -0.27908078
1.3436856 -1.8332274 -0.27908078
1.3205068 -1.8255494 -0.2766434
1.3032434 -1.8257321 -0.27542472
1.2860311 -1.8257697 -0.27420601
1.268869 -1.825664 -0.27298734
1.2517604 -1.8254144 -0.27176863
1.234704 -1.8250229 -0.27054992
1.2177033 -1.8244888 -0.26933125
1.2008369 -1.8237616 -0.26811254
1.1841078 -1.822843 -0.26689386
1.1673558 -1.821839 -0.26567516
1.1558863 -1.8291373 -0.26567516
1.1338714 -1.8195168 -0.26323777
1.1224173 -1.8266048 -0.26323777
1.1058544 -1.8250841 -0.2620191
1.0894345 -1.8233804 -0.26080039
1.0729988 -1.8215902 -0.25958169
1.0565485 -1.8197125 -0.25836301
1.0401645 -1.8177004 -0.2571443
1.0238481 -1.8155543 -0.25592563
1.0124199 -1.8219516 -0.25592563
-1.0084058 -1.7098857 -0.24373868
-1.0242255 -1.7120333 -0.24495737
-1.040036 -1.7140952 -0.24617606
-1.0506366 -1.7076182 -0.24617606
-1.0612704 -1.7010298 -0.24617606
-1.0772444 -1.7027156 -0.24739476
-1.0932803 -1.7042681 -0.24861346
-1.1093789 -1.7056853 -0.24983215
-1.1200737 -1.6986815 -0.24983215
-1.1362408 -1.6998619 -0.25105083
-1.1524659 -1.7009064 -0.25226954
-1.1687497 -1.7018131 -0.25348824
-1.1850891 -1.7025827 -0.25470692
-1.1957638 -1.6951027 -0.25470692
-1.2121626 -1.6956309 -0.25592563
-1.2286158 -1.6960188 -0.2571443
-1.2451206 -1.6962674 -0.25836301
-1.2616779 -1.6963745 -0.25958169
-1.2782843 -1.6963408 -0.26080039
-1.2889175 -1.6882757 -0.26080039
-1.3054985 -1.6880521 -0.2620191
-1.3220528 -1.6877447 -0.26323777
-1.338727 -1.6872382 -0.26445648
-1.3555201 -1.6865295 -0.26567516
-1.3723562 -1.6856768 -0.26689386
-1.3829209 -1.6770204 -0.26689386
-1.4061555 -1.6835341 -0.26933125
-1.4231166 -1.6822431 -0.27054992
-1.4401157 -1.6808059 -0.27176863
-1.4571537 -1.6792204 -0.27298734
-1.4741541 -1.677552 -0.27420601
-1.4845201 -1.6683859 -0.27420601
-1.5081886 -1.6738386 -0.2766434
-1.5253664 -1.6716608 -0.2778621
-1.5358392 -1.6620442 -0.2778621
-1.5598158 -1.6668553 -0.28029948
-1.547335 -1.6766844 0.36136362
-1.5645833 -1.6741453 0.36292794
-1.5817785 -1.6715329 0.3644923
-1.6057707 -1.6759639 0.36762097
-1.623083 -1.6729925 0.36918533
-1.6404845 -1.669807 0.37074968
-1.6579098 -1.6664685 0.37231401
-1.6823674 -1.6699349 0.37544271
-1.6998801 -1.6662452 0.37700707
-1.7457997 -1.6898788 0.38482878
-1.7349637 -1.6584023 0.38013574
-1.7309843 -1.6339091 0.37700707
-1.7339913 -1.6162664 0.37544271
-1.729578 -1.5919616 0.37231401
-1.7248516 -1.5678613 0.36918533
-1.727183 -1.5505463 0.36762097
-1.7294418 -1.5331776 0.36605665
-1.7241772 -1.5092701 0.36292794
-1.7261536 -1.4919484 0.36136362
-1.7204674 -1.4682505 0.35823491
-1.7221056 -1.4510474 0.35667059
-1.7160029 -1.4275651 0.35354188
-1.7173061 -1.4104862 0.35197753
-1.7184628 -1.3934475 0.3504132
-1.7194735 -1.3764502 0.34884885
-1.7203388 -1.3594955 0.3472845
-1.7132715 -1.3365095 0.34415582
-1.7138096 -1.3196923 0.34259146
-1.7141404 -1.3030055 0.34102714
-1.7142807 -1.2864317 0.33946279
-1.7143444 -1.269822 0.33789843
-1.7143155 -1.2531966 0.33633408
-1.7301657 -1.2481792 0.33789843
-1.7460202 -1.2430118 0.33946279
-1.7699598 -1.2433717 0.34259146
-1.7939719 -1.24348 0.34572017
-1.8180549 -1.2433345 0.34884885
-1.8340187 -1.237411 0.3504132
-1.8582016 -1.2368084 0.35354188
-1.8824487 -1.2359504 0.35667059
-1.9066972 -1.2349293 0.35979927
-1.9226351 -1.2284099 0.36136362
-1.9469813 -1.2269104 0.3644923
-1.9798189 -1.2302923 0.36918533
-2.0043533 -1.2281491 0.37231401
-2.0289383 -1.2257457 0.37544271
-2.0535715 -1.2230815 0.37857139
-2.0782504 -1.2201557 0.3817001
-2.111522 -1.2219148 0.38639313
-2.1363168 -1.21841 0.38952181
-2.1611505 -1.2146416 0.39265051
-2.1860201 -1.2106093 0.39577919
-2.2195942 -1.2110423 0.40047222
-2.2532592 -1.2111005 0.40516526
-2.2116022 0.060218416 0.3504132
-2.2111866 0.073920503 0.3504132
-2.3753338 0.15412715 0.37700707
-2.4137263 0.17185386 0.38326442
-2.4519882 0.19007026 0.38952181
-2.4704304 0.20712245 0.39265051
-2.459254 0.22163227 0.39108616
-2.4578338 0.23686573 0.39108616
-2.4661317 0.25321931 0.39265051
-2.4644921 0.26870874 0.39265051
-2.462755 0.28418887 0.39265051
-2.4609208 0.29965648 0.39265051
-2.4589894 0.31511357 0.39265051
-2.4667497 0.33187386 0.39421484
-2.4548357 0.34598848 0.39265051
-2.4526134 0.36140513 0.39265051
-2.4600749 0.37818816 0.39421484
-2.4576843 0.39342371 0.39421484
-2.4454167 0.40726221 0.39265051
-2.4525049 0.42451641 0.39421484
-2.4497721 0.4400121 0.39421484
-2.4372492 0.45358792 0.39265051
-2.4423528 0.6150493 0.39890787
-2.4384334 0.63040817 0.39890787
-2.4343681 0.6459288 0.39890787
-2.1543453 0.68888634 0.35823491
-2.1781402 0.71161008 0.36292794
-2.1174116 0.70652378 0.35354188
-2.1035812 0.71662945 0.35197753
-2.080379 0.72334445 0.34884885
-2.0665205 0.73299855 0.3472845
-2.0712271 0.74914819 0.34884885
-2.0757749 0.76548588 0.3504132
-2.0801697 0.78198814 0.35197753
-2.0659919 0.79150975 0.3504132
-2.0609782 0.80447453 0.3504132
-2.0558827 0.81740868 0.3504132
-2.0507064 0.83030939 0.3504132
-2.0546222 0.84684086 0.35197753
-2.0584438 0.86337548 0.35354188
-2.0620527 0.88019186 0.35510623
-2.0564039 0.89330977 0.35510623
-2.0507162 0.90629095 0.35510623
-2.0449815 0.91915745 0.35510623
-2.0481486 0.93609446 0.35667059
-2.0511842 0.95310634 0.35823491
-2.0452023 0.96587574 0.35823491
-2.0480831 0.98280245 0.35979927
-2.0419054 0.99557376 0.35979927
-2.0444605 1.0127674 0.36136362
-2.0380564 1.0255936 0.36136362
-2.0403671 1.0428734 0.36292794
-2.0424891 1.0603226 0.3644923
-2.0356929 1.0733123 0.3644923
-2.0375748 1.0908216 0.36605665
-2.0393591 1.1083182 0.36762097
-2.0323548 1.1211104 0.36762097
-2.0338891 1.1386824 0.36918533
-2.0353391 1.1562178 0.37074968
-2.028136 1.1688067 0.37074968
-2.0378504 1.1914198 0.37387836
-2.0303245 1.2041999 0.37387836
-2.0311811 1.2220253 0.37544271
-2.0318944 1.2399076 0.37700707
-2.0240633 1.2526504 0.37700707
-2.0496163 1.2863442 0.38326442
-2.0164952 1.2832888 0.37857139
-1.9917945 1.2852228 0.37544271
-1.9588835 1.2814913 0.37074968
-1.9260999 1.2773966 0.36605665
-1.901642 1.2784526 0.36292794
-1.8772482 1.2792513 0.35979927
-1.8447925 1.2741822 0.35510623
-1.8205677 1.2744195 0.35197753
-1.8044684 1.2801189 0.3504132
-1.7723311 1.274135 0.34572017
-1.7483238 1.273615 0.34259146
-1.7243942 1.272843 0.33946279
-1.7005434 1.2718221 0.33633408
-1.6767747 1.2705513 0.3332054
-1.6530892 1.2690333 0.33007672
-1.6294901 1.2672675 0.32694802
-1.6137369 1.2713689 0.32538369
-1.5825577 1.2629998 0.32069066
-1.5592911 1.2604228 0.31756195
-1.5361663 1.2575471 0.31443328
-1.5206176 1.2608865 0.31286892
-1.4974291 1.2578422 0.30974025
-1.4819249 1.2608831 0.30817589
-1.4590095 1.2572738 0.30504721
-1.4436393 1.2599221 0.30348286
-1.4208939 1.2558854 0.30035415
-1.4056153 1.2582012 0.29878983
-1.383047 1.2537405 0.29566112
-1.3679283 1.255659 0.2940968
-1.3528872 1.2573867 0.29253244
-1.3378158 1.2590419 0.29096809
-1.322729 1.2606083 0.28940377
-1.3005681 1.2551769 0.28627506
-1.2855927 1.2564201 0.28471074
-1.2636323 1.2505779 0.28158203
-1.2487737 1.2515008 0.28001767
-1.2270207 1.245252 0.276889
-1.2122847 1.245858 0.27532464
-1.1975892 1.2463288 0.27376032
-1.1897349 1.2538285 0.27376032
-1.1683265 1.2468648 0.27063161
-1.1537616 1.246931 0.26906729
-1.1392416 1.2468643 0.26750293
-1.124769 1.2466642 0.26593858
-1.1103433 1.2463322 0.26437426
-1.0959673 1.2458678 0.2628099
-1.0816404 1.245273 0.26124555
-1.0673653 1.244547 0.2596812
-1.0531415 1.2436916 0.25811687
-1.0389715 1.2427063 0.25655252
-1.0248551 1.241593 0.25498816
-1.0170341 1.2480075 0.25498816
-1.0029811 1.2466778 0.25342384
1.0227978 5.3351302 0.86038953
1.056299 5.3285985 0.86038953
1.0917399 5.3315325 0.86195391
1.1252172 5.3245678 0.86195391
1.15865 5.3173928 0.86195391
1.1942005 5.3196449 0.86351824
1.2298249 5.3216596 0.86508256
1.2655216 5.3234367 0.86664695
1.2989447 5.3153801 0.86664695
1.3347212 5.3166933 0.86821127
1.3631704 5.2890735 0.86508256
1.4064758 5.3185987 0.87133998
1.4424505 5.3191891 0.8729043
1.4731984 5.3005052 0.87133998
1.5091778 5.3006434 0.8729043
1.545217 5.3005385 0.87446862
1.5784905 5.2907252 0.87446862
1.6145849 5.2901497 0.87603301
1.6507344 5.2893286 0.87759733
1.6869371 5.2882624 0.87916166
1.7201307 5.2775588 0.87916166
1.756376 5.2760177 0.88072604
1.7958483 5.2835813 0.88385469
1.8290104 5.2721934 0.88385469
1.865396 5.269908 0.88541907
1.9085335 5.285953 0.8901121
1.9451205 5.2831259 0.89167643
1.9782768 5.2708001 0.89167643
1.9795966 5.175241 0.87759733
2.015661 5.1719036 0.87916166
2.0918491 5.2692962 0.89793384
2.1286175 5.2652059 0.89949816
2.1315823 5.1786599 0.88698339
2.1182778 5.0558491 0.86821127
2.1035161 4.933414 0.84943914
2.0990939 4.838551 0.83536005
5.0971408 8.0186548 1.5048995
5.1634746 8.0113773 1.5095925
5.2299175 8.0035801 1.5142856
1.013872 1.1338546 0.24090907
1.0209762 1.1274619 0.24090907
1.0347157 1.1283041 0.24247342
1.0417845 1.1217806 0.24247342
1.0691118 1.1367975 0.24716645
1.0762334 1.1300578 0.24716645
1.0901688 1.1303827 0.24873079
1.1041507 1.1305767 0.25029513
1.1112324 1.1236168 0.25029513
1.1182704 1.1166127 0.25029513
1.1252642 1.1095643 0.25029513
1.1463661 1.1162533 0.25342384
1.153357 1.1090283 0.25342384
1.1746272 1.1153617 0.25655252
1.1888169 1.1147152 0.25811687
1.1957974 1.1072236 0.25811687
1.2100199 1.1063532 0.2596812
1.2242785 1.1053475 0.26124555
1.2385718 1.104206 0.2628099
1.2528988 1.1029284 0.26437426
1.2598039 1.0950344 0.26437426
1.2816494 1.0999624 0.26750293
1.2960706 1.0982732 0.26906729
1.3105209 1.0964458 0.27063161
1.3249991 1.0944802 0.27219597
1.339504 1.0923756 0.27376032
1.3616741 1.0963924 0.276889
1.3761723 1.094081 0.27845335
1.3907475 1.0915638 0.28001767
1.4053862 1.0888531 0.28158203
1.4200455 1.0860014 0.28314638
1.4347241 1.0830082 0.28471074
1.4494208 1.0798732 0.28627506
1.4720917 1.0824471 0.28940377
1.4868577 1.0789772 0.29096809
1.5016378 1.0753645 0.29253244
1.516431 1.0716083 0.2940968
1.5393376 1.0733577 0.29722548
1.5704627 1.0804594 0.30191851
1.5772203 1.0705705 0.30191851
1.6002768 1.071709 0.30504721
1.6151267 1.0672184 0.30661154
1.6383609 1.0678177 0.30974025
1.6534388 1.0626991 0.31130457
1.6684139 1.0575954 0.31286892
1.691684 1.0577102 0.3159976
1.7151226 1.0574086 0.31912631
1.7387046 1.0567205 0.32225499
1.7622949 1.055861 0.32538369
1.7859027 1.0548131 0.32851237
1.8095148 1.0535989 0.33164105
1.8245741 1.0472839 0.3332054
1.848272 1.0455956 0.33633408
1.8720591 1.0435803 0.33946279
1.9045503 1.0460616 0.34415582
1.919772 1.0387747 0.34572017
1.9524093 1.040629 0.3504132
1.9763993 1.0375229 0.35354188
2.0004268 1.034156 0.35667059
2.0244894 1.0305277 0.35979927
2.0485845 1.0266376 0.36292794
2.0815678 1.0268545 0.36762097
2.1057487 1.0223831 0.37074968
2.1388667 1.021906 0.37544271
2.172061 1.0210526 0.38013574
2.2053275 1.0198221 0.38482878
2.2296233 1.0142334 0.38795745
2.2629113 1.0125009 0.39265051
2.2963121 1.0102818 0.39734355
2.3298106 1.0075959 0.40203658
2.3633649 1.0045282 0.40672961
2.3969719 1.0010781 0.41142264
2.4306276 0.99724489 0.41611567
2.4734898 0.99671942 0.42237306
2.5072558 0.99206018 0.42706609
2.5410597 0.98701555 0.43175912
2.5841272 0.98510313 0.4380165
2.6272695 0.98268789 0.44427386
2.6704822 0.97976887 0.45053124
2.7044666 0.97300142 0.45522428
2.7570994 0.97241557 0.46304601
4.9017816 0.80887586 0.78686535
5.0432673 0.80015689 0.80876619
5.1946311 0.79094756 0.83223134
5.3461008 0.7796737 0.8556965
5.50741 0.76789075 0.88072604
5.6883574 0.75671554 0.90888423
5.8693748 0.74329591 0.93704242
6.0798602 0.73116839 0.96989369
6.2904162 0.71642429 1.0027449
7.8689227 0.59822887 1.2499113
8.2567921 0.57556164 1.3109208
8.7038145 0.55179238 1.3813163
9.1508474 0.52242732 1.4517118
9.6570215 0.49047142 1.5314934
10.242073 0.45568642 1.6237897
10.906003 0.41658384 1.7286009
11.629051 0.37104496 1.842798
12.421044 0.31820622 1.9679456
12.317374 -2.0949378 1.9788959
11.623116 -2.0520828 1.8693918
10.920195 -1.9988126 1.7583233
10.31547 -1.9551883 1.6628983
9.8668251 -1.9344523 1.5925028
9.2543011 -1.8748201 1.4955134
8.8556299 -1.8520536 1.4329396
8.5348644 -1.8410152 1.3828807
8.233882 -1.8303082 1.3359503
6.8647637 -1.5709401 1.1153777
7.7009449 -1.8125783 1.2530401
7.4302793 -1.7979169 1.2108028
7.1792097 -1.7849879 1.1716942
6.8425617 -1.7466511 1.1185064
6.7169518 -1.7589881 1.0997343
6.5055199 -1.7471044 1.0668831
6.2944393 -1.7328911 1.0340317
6.0933084 -1.7187778 1.0027449
5.9115887 -1.7076889 0.97458673
5.7397265 -1.6971878 0.94799286
5.5682368 -1.6845962 0.921399
5.4254446 -1.678677 0.89949816
5.2641177 -1.665074 0.87446862
5.2065611 -1.6829275 0.86664695
5.1958842 -1.715608 0.86664695
5.1757288 -1.7448107 0.86508256
5.155479 -1.7736326 0.86351824
5.162941 -1.8123363 0.86664695
5.7837601 -2.0711703 0.97302234
5.1397595 -1.8770711 0.86664695
5.1093521 -1.9024351 0.86351824
5.1619372 -1.9590321 0.87446862
5.5732803 -2.1553009 0.94642848
3.0216739 -1.5318222 0.53657019
2.968158 -1.5280257 0.52874851
2.9148667 -1.5235114 0.52092677
2.8703973 -1.5231661 0.51466936
2.8172936 -1.5177491 0.50684768
2.7730386 -1.5164648 0.50059026
2.7289126 -1.514685 0.49433291
2.6849196 -1.5124115 0.48807552
2.6324897 -1.5047442 0.48025379
2.5888073 -1.5014338 0.47399643
2.5622976 -1.5076522 0.47086772
2.510443 -1.4982873 0.46304601
2.4757624 -1.4984704 0.45835298
2.4411035 -1.4984015 0.45365995
2.4064856 -1.4980507 0.44896692
2.3636177 -1.4920523 0.44270954
2.3292401 -1.4908999 0.4380165
2.2949712 -1.4893751 0.43332347
2.2690656 -1.4929079 0.43019477
2.226773 -1.4852133 0.42393738
2.1928506 -1.4825791 0.41924435
2.1591225 -1.4794718 0.41455132
2.1336887 -1.4815546 0.41142264
2.1486275 -1.5119021 0.41611567
2.1471272 -1.5311068 0.41768003
2.1454701 -1.5503522 0.41924435
2.1038108 -1.5404617 0.41298699
2.0783017 -1.5417776 0.40985829
2.0450215 -1.536824 0.40516526
2.0196671 -1.5375993 0.40203658
1.9943244 -1.5381945 0.39890787
1.9612719 -1.5324514 0.39421484
1.9438601 -1.5386142 0.39265051
1.911037 -1.532262 0.38795745
1.8783714 -1.5255587 0.38326442
1.8611964 -1.5309647 0.3817001
1.8289087 -1.5235021 0.37700707
1.8118098 -1.5285248 0.37544271
1.7796429 -1.52063 0.37074968
1.7625849 -1.5253185 0.36918533
1.7381107 -1.523343 0.36605665
1.7138059 -1.5210366 0.36292794
1.68231 -1.5118203 0.35823491
1.6655308 -1.5156494 0.35667059
1.6414487 -1.5126976 0.35354188
1.624691 -1.5162424 0.35197753
1.6151326 -1.5264202 0.35197753
1.6197811 -1.5501963 0.35510623
1.6171016 -1.5672168 0.35667059
1.6142719 -1.5842645 0.35823491
1.618297 -1.6083007 0.36136362
1.6152012 -1.6253641 0.36292794
1.6120183 -1.6423892 0.3644923
1.6154789 -1.6666082 0.36762097
1.6186347 -1.6909956 0.37074968
1.6080613 -1.7010536 0.37074968
1.610972 -1.7254229 0.37387836
1.6135563 -1.749972 0.37700707
1.602529 -1.7600757 0.37700707
1.611249 -1.7921444 0.3817001
1.5999569 -1.8022327 0.3817001
1.6081336 -1.8345318 0.38639313
1.6224307 -1.8744718 0.39265051
1.5849538 -1.8545948 0.38639313
1.5669003 -1.856968 0.38482878
1.5489708 -1.859112 0.38326442
1.5311472 -1.8610463 0.3817001
1.5070401 -1.8552395 0.37857139
1.489175 -1.8569663 0.37700707
1.4652168 -1.8507985 0.37387836
1.4474771 -1.8521858 0.37231401
1.4298689 -1.8533535 0.37074968
1.4123739 -1.8543198 0.36918533
1.388895 -1.8473151 0.36605665
1.3772607 -1.8560052 0.36605665
1.3539004 -1.8486853 0.36292794
1.3364725 -1.8491505 0.36136362
1.3190924 -1.8494701 0.35979927
1.3017614 -1.8496445 0.35823491
1.2844803 -1.8496747 0.35667059
1.261668 -1.841413 0.35354188
1.2445419 -1.8411212 0.35197753
1.2329494 -1.8489045 0.35197753
1.2105421 -1.8400522 0.34884885
1.1937411 -1.8392323 0.3472845
1.1769068 -1.8383329 0.34572017
1.16006 -1.8373398 0.34415582
1.1432724 -1.8362079 0.34259146
1.1265451 -1.8349378 0.34102714
1.1099688 -1.8334761 0.33946279
1.0935251 -1.8318373 0.33789843
1.0820637 -1.8386307 0.33789843
1.0655345 -1.8368493 0.33633408
1.04907 -1.8349336 0.33476976
1.0326719 -1.8328837 0.3332054
1.0163412 -1.8307006 0.33164105
1.0000788 -1.828385 0.33007672
-1.0091593 -1.7096283 0.31443328
-1.0198812 -1.7032539 0.31443328
-1.0356066 -1.7053049 0.3159976
-1.0513314 -1.7072659 0.31756195
-1.0619725 -1.7006671 0.31756195
-1.077921 -1.7023057 0.31912631
-1.0885955 -1.6954994 0.31912631
-1.1046156 -1.6969037 0.32069066
-1.1315764 -1.7146604 0.32538369
-1.1423275 -1.7075167 0.32538369
-1.1585771 -1.7084801 0.32694802
-1.1748835 -1.7093064 0.32851237
-1.1856002 -1.7018907 0.32851237
-1.2019665 -1.7024764 0.33007672
-1.2126397 -1.6948906 0.33007672
-1.2348599 -1.7032307 0.3332054
-1.2455373 -1.6954384 0.3332054
-1.2620629 -1.6955018 0.33476976
-1.2786382 -1.6954243 0.33633408
-1.2952617 -1.6952056 0.33789843
-1.3118501 -1.6949084 0.33946279
-1.3284199 -1.694521 0.34102714
-1.3451185 -1.6939266 0.34259146
-1.3557352 -1.6854416 0.34259146
-1.3725371 -1.6845471 0.34415582
-1.3893811 -1.6835076 0.34572017
-1.4126004 -1.6899008 0.34884885
-1.4231905 -1.6809918 0.34884885
-1.4465828 -1.6870122 0.35197753
-1.457154 -1.6778897 0.35197753
-1.4806311 -1.6836065 0.35510623
-1.4976025 -1.6817768 0.35667059
-1.5146899 -1.6797268 0.35823491
-1.5252141 -1.6701766 0.35823491
-1.5490899 -1.6750631 0.36136362
-1.5663356 -1.672506 0.36292794
-1.5478076 -1.6758751 -0.19958664
-1.5651116 -1.6733924 -0.2004582
-1.5823541 -1.6708447 -0.20132977
-1.5995706 -1.6681992 -0.20220132
-1.6169058 -1.6653159 -0.20307288
-1.6343216 -1.6622273 -0.20394443
-1.6587909 -1.6660448 -0.20568755
-1.6833721 -1.6696199 -0.20743066
-1.7009463 -1.6659807 -0.20830221
-1.7400228 -1.6829636 -0.21178845
-1.7361548 -1.6582363 -0.21004534
-1.7247983 -1.6267892 -0.20743066
-1.7204059 -1.6023408 -0.20568755
-1.7231073 -1.5847559 -0.204816
-1.7181963 -1.5605971 -0.20307288
-1.7204168 -1.5432695 -0.20220132
-1.7225727 -1.52588 -0.20132977
-1.7246276 -1.5084682 -0.2004582
-1.7189922 -1.4845802 -0.19871509
-1.7207059 -1.4672863 -0.19784354
-1.7222705 -1.4500299 -0.19697197
-1.7236865 -1.4328119 -0.19610041
-1.7172536 -1.4093138 -0.19435731
-1.7183344 -1.3922249 -0.19348575
-1.7114891 -1.3689559 -0.19174263
-1.7200567 -1.3581753 -0.19174263
-1.7206992 -1.3412168 -0.19087107
-1.7133015 -1.3182293 -0.18912795
-1.7135459 -1.3015069 -0.1882564
-1.7136066 -1.2848889 -0.18738484
-1.7135971 -1.2682263 -0.18651329
-1.7215317 -1.2574345 -0.18651329
-1.7293984 -1.246593 -0.18651329
-1.7534323 -1.2472509 -0.1882564
-1.7775418 -1.2476561 -0.18999952
-1.7935355 -1.2421347 -0.19087107
-1.8177549 -1.2420816 -0.19261418
-1.8420438 -1.2417729 -0.19435731
-1.8663999 -1.2412075 -0.19610041
-1.890821 -1.2403846 -0.19784354
-1.9068736 -1.2339957 -0.19871509
-1.9312763 -1.2328781 -0.2004582
-1.9558053 -1.2313977 -0.20220132
-1.9804305 -1.2295942 -0.20394443
-2.0051095 -1.2275294 -0.20568755
-2.0213115 -1.2200546 -0.20655911
-2.05462 -1.222613 -0.20917378
-2.079447 -1.2197601 -0.21091689
-2.1129427 -1.2216291 -0.21353157
-2.1465428 -1.223125 -0.21614625
-2.180244 -1.2242467 -0.21876091
-2.1878929 -1.2105238 -0.21876091
-2.1779621 -1.1872171 -0.2170178
-2.1678252 -1.1640835 -0.21527468
-2.1662281 -1.1459004 -0.21440312
-2.1732862 -1.1324568 -0.21440312
-2.1714592 -1.114302 -0.21353157
-2.1695261 -1.0961441 -0.21266001
-2.1674511 -1.0780545 -0.21178845
-2.1652346 -1.0600345 -0.21091689
-2.1628776 -1.0420851 -0.21004534
-2.1603808 -1.0242072 -0.20917378
-2.1577454 -1.0064021 -0.20830221
-2.164026 -0.99282485 -0.20830221
-2.1611412 -0.97511119 -0.20743066
-2.1581192 -0.95747322 -0.20655911
-2.1640923 -0.9438951 -0.20655911
-2.1608241 -0.92635393 -0.20568755
-2.1573718 -0.90900898 -0.204816
-2.1537583 -0.8918137 -0.20394443
-2.1592908 -0.87833387 -0.20394443
-2.1555157 -0.86105388 -0.20307288
-2.1608832 -0.84749341 -0.20307288
-2.1568687 -0.8303206 -0.20220132
-2.1620431 -0.81675225 -0.20220132
-2.1484501 -0.79622793 -0.2004582
-2.1534104 -0.78271317 -0.2004582
-2.1489019 -0.7658233 -0.19958664
-2.1536713 -0.75230634 -0.19958664
-2.1583557 -0.73875964 -0.19958664
-2.1534703 -0.72213459 -0.19871509
-2.1484387 -0.70566958 -0.19784354
-2.1528072 -0.69222718 -0.19784354
-2.1476116 -0.67569727 -0.19697197
-2.1518147 -0.6621902 -0.19697197
-2.1463933 -0.64578676 -0.19610041
-2.140851 -0.62947774 -0.19522886
-2.1447639 -0.616014 -0.19522886
-2.1485922 -0.60252595 -0.19522886
-2.1427269 -0.58638459 -0.19435731
-2.146369 -0.57290995 -0.19435731
-2.1499262 -0.55941266 -0.19435731
-2.1437125 -0.54356241 -0.19348575
-2.1470392 -0.53026938 -0.19348575
-2.1406257 -0.51451105 -0.19261418
-2.143816 -0.5010516 -0.19261418
-2.1372075 -0.48536497 -0.19174263
-2.1402147 -0.47192758 -0.19174263
-2.1431377 -0.45847037 -0.19174263
-2.1362216 -0.44297352 -0.19087107
-2.1389627 -0.42954201 -0.19087107
-2.1416194 -0.41609466 -0.19087107
-2.1344006 -0.40079239 -0.18999952
-2.1368766 -0.38737428 -0.18999952
-2.1392481 -0.37405598 -0.18999952
-2.1317012 -0.35913885 -0.18912795
-2.1339042 -0.34580785 -0.18912795
-2.1261914 -0.33086216 -0.1882564
-2.1282284 -0.31749588 -0.1882564
-2.1301811 -0.30411819 -0.1882564
-2.13205 -0.29072738 -0.1882564
-2.1338346 -0.2773262 -0.1882564
-2.1256483 -0.26269111 -0.18738484
-2.1272566 -0.24933073 -0.18738484
-2.1287813 -0.23595935 -0.18738484
-2.1203139 -0.22154455 -0.18651329
-2.121664 -0.20821735 -0.18651329
-2.1229303 -0.19488306 -0.18651329
-2.1141872 -0.18069276 -0.18564174
-2.1252115 -0.16819194 -0.18651329
-2.1262264 -0.15483502 -0.18651329
-2.1172173 -0.14081202 -0.18564174
-2.1180534 -0.12762095 -0.18564174
-2.1188035 -0.11449489 -0.18564174
-2.1194777 -0.10124929 -0.18564174
-2.1200719 -0.087930851 -0.18564174
-2.1205826 -0.074607812 -0.18564174
-2.1210096 -0.061282951 -0.18564174
-2.1113935 -0.04772941 -0.18477017
-2.1216121 -0.034625378 -0.18564174
-2.1217878 -0.021293713 -0.18564174
-2.111918 -0.0079249544 -0.18477017
-2.1119261 0.0053452705 -0.18477017
-2.1218123 0.018701963 -0.18564174
-2.1116922 0.031882316 -0.18477017
-2.1114502 0.045149211 -0.18477017
-2.1011698 0.058025751 -0.18389861
-2.1107261 0.071380332 -0.18477017
-2.1102388 0.084571816 -0.18477017
-2.0997145 0.097367086 -0.18389861
-2.1090095 0.11108253 -0.18477017
-2.0983253 0.12374454 -0.18389861
-2.1074469 0.1375757 -0.18477017
-2.1065412 0.15081383 -0.18477017
-2.1055517 0.16404715 -0.18477017
-2.1144063 0.17810905 -0.18564174
-2.1033347 0.1903773 -0.18477017
-2.1021147 0.20340605 -0.18477017
-2.1008022 0.21654113 -0.18477017
-2.0994003 0.22973596 -0.18477017
-2.1078112 0.2440687 -0.18564174
-2.0963476 0.25609902 -0.18477017
-2.094697 0.26926619 -0.18477017
-2.1028364 0.28375381 -0.18564174
-2.0911481 0.29556704 -0.18477017
-2.0991046 0.31015578 -0.18564174
-2.0971322 0.32322416 -0.18564174
-2.0950892 0.33621192 -0.18564174
-2.0929279 0.3494142 -0.18564174
-2.0906594 0.3627407 -0.18564174
-2.0883265 0.37593788 -0.18564174
-2.0957165 0.39087769 -0.18651329
-2.093219 0.40403825 -0.18651329
-2.0906391 0.41718173 -0.18651329
-2.0879767 0.43030986 -0.18651329
-2.0852318 0.4434199 -0.18651329
-2.0824294 0.45639929 -0.18651329
-2.0892792 0.47148636 -0.18738484
-2.0862651 0.48464933 -0.18738484
-2.0831354 0.49792951 -0.18738484
-2.0799768 0.51096344 -0.18738484
-2.0864303 0.52627784 -0.1882564
-2.0830708 0.53942174 -0.1882564
-2.0795922 0.55268043 -0.1882564
-2.0760601 0.56580395 -0.1882564
-2.0724642 0.57883644 -0.1882564
-2.0688183 0.59173477 -0.1882564
-2.0746729 0.60734075 -0.18912795
-2.0803792 0.62315494 -0.18999952
-2.0764229 0.63621342 -0.18999952
-2.0723844 0.64924788 -0.18999952
-2.0777519 0.66529351 -0.19087107
-2.0735309 0.67833465 -0.19087107
-2.0597794 0.68819219 -0.18999952
-2.0742717 0.70755339 -0.19174263
-2.0697854 0.72057182 -0.19174263
-2.0652566 0.73345071 -0.19174263
-2.070039 0.74962509 -0.19261418
-2.0653133 0.76254904 -0.19261418
-2.0604815 0.77551013 -0.19261418
-2.0648692 0.79200929 -0.19348575
-2.0598524 0.80496699 -0.19348575
-2.0640094 0.8215782 -0.19435731
-2.0680389 0.83827221 -0.19522886
-2.0627778 0.85113686 -0.19522886
-2.0666494 0.86775833 -0.19610041
-2.0611374 0.88077074 -0.19610041
-2.0554843 0.89388394 -0.19610041
-2.0589085 0.9108777 -0.19697197
-2.0622296 0.92788321 -0.19784354
-2.0654173 0.94496733 -0.19871509
-2.0594394 0.9579255 -0.19871509
-2.0624387 0.97499293 -0.19958664
-2.0563581 0.98775321 -0.19958664
-2.0590966 1.0049564 -0.2004582
-2.052742 1.0178736 -0.2004582
-2.0463057 1.0307518 -0.2004582
-2.0486579 1.0481255 -0.20132977
-2.0508137 1.0656817 -0.20220132
-2.0439835 1.0787243 -0.20220132
-2.0459104 1.0963176 -0.20307288
-2.0477328 1.1139106 -0.20394443
-2.0406933 1.1267554 -0.20394443
