# .PCD v0.7 - Point Cloud Data file format
VERSION 0.7
FIELDS x y z
SIZE 4 4 4
TYPE F F F
COUNT 1 1 1
WIDTH 1480
HEIGHT 1
VIEWPOINT 0 0 0 1 0 0 0
POINTS 1480
DATA ascii
8.2190523 0.69924748 0.14398235
8.2132626 0.64747977 0.14380783
8.2071972 0.59513867 0.14363331
8.2107744 0.54355985 0.14363331
8.2040472 0.49136177 0.14345878
8.2069721 0.43980476 0.14345878
8.1995859 0.38775811 0.14328426
8.1918707 0.33582276 0.14310972
8.193819 0.28434533 0.14310972
8.1954441 0.23285669 0.14310972
8.1867485 0.18113768 0.1429352
8.1877251 0.12974019 0.1429352
8.1883717 0.079007074 0.1429352
8.1887035 0.028227305 0.1429352
8.1887197 -0.023224143 0.1429352
8.1784143 -0.074583501 0.14276068
8.1877813 -0.12612227 0.1429352
8.1768322 -0.17730342 0.14276068
8.1755762 -0.22796316 0.14276068
8.1740055 -0.27865767 0.14276068
8.1720934 -0.33001071 0.14276068
8.1698589 -0.38135073 0.14276068
8.1673012 -0.43267569 0.14276068
8.1644211 -0.48398358 0.14276068
8.1512423 -0.53461796 0.14258616
8.1477261 -0.58577734 0.14258616
8.14394 -0.63624895 0.14258616
8.1497965 -0.68762553 0.14276068
8.1452513 -0.73952883 0.14276068
8.1403837 -0.79131323 0.14276068
8.1353245 -0.8417353 0.14276068
8.1299477 -0.89216846 0.14276068
8.1241817 -0.94323254 0.14276068
8.0287762 -0.98332012 0.14118996
8.0323563 -1.0350245 0.14136449
8.0256996 -1.0854288 0.14136449
8.0188208 -1.1351348 0.14136449
8.0215178 -1.1863025 0.14153901
8.0237875 -1.2382045 0.14171354
8.0158491 -1.2885947 0.14171354
8.0174561 -1.340583 0.14188807
8.0088749 -1.3909315 0.14188807
8.0098171 -1.4429977 0.14206259
8.0005932 -1.4932961 0.14206259
8.0008688 -1.5454319 0.14223711
8.0106115 -1.5995867 0.14258616
8.0004025 -1.6498871 0.14258616
7.9898872 -1.7000787 0.14258616
7.9889669 -1.7516923 0.14276068
7.9877038 -1.8034023 0.1429352
7.9859538 -1.8558179 0.14310972
7.944962 -1.8989851 0.14258616
7.7386785 -1.9011593 0.13909568
7.7653694 -1.959488 0.13979377
7.6466079 -1.9799947 0.13787401
5.1402559 -1.7161653 0.094592042
5.4132848 -1.8452049 0.099827766
4.9860778 -1.7346287 0.092148706
4.8808556 -1.7324772 0.090403467
4.7664595 -1.725669 0.088483699
3.1592116 -1.6398541 0.062130567
3.1046298 -1.6363441 0.061257947
3.0503511 -1.6319655 0.060385324
3.0050256 -1.6317656 0.059687231
2.9509313 -1.6264826 0.058814608
2.9057498 -1.6254661 0.058116514
2.8606989 -1.6239473 0.057418417
2.8071191 -1.6169367 0.056545798
2.7710071 -1.6194078 0.056022223
2.7263751 -1.6163903 0.055324126
2.6818919 -1.6128768 0.054626033
2.6460977 -1.6140757 0.054102458
2.6018922 -1.6096287 0.053404361
2.5663271 -1.6099904 0.05288079
2.5225558 -1.6043968 0.052182693
2.4873483 -1.6037546 0.051659122
2.4521158 -1.6029391 0.051135551
2.408658 -1.5962214 0.050437454
2.3736823 -1.5945973 0.049913883
2.3470876 -1.598225 0.049564835
2.3123128 -1.5959024 0.04904126
2.2776608 -1.5932064 0.048517689
2.251292 -1.5959212 0.048168641
2.2168677 -1.5925224 0.04764507
2.1827056 -1.5885766 0.047121495
2.1486702 -1.5842806 0.046597924
2.1226535 -1.5857817 0.046248876
1.7278244 -1.6651931 0.041885775
1.7030259 -1.6620401 0.041536726
1.685583 -1.6655327 0.041362204
1.6681535 -1.6688821 0.041187678
1.6365631 -1.6579831 0.040664107
1.6191344 -1.6610732 0.04048958
1.6017323 -1.6640098 0.040315058
1.5843662 -1.6667851 0.040140536
1.5534776 -1.6547016 0.039616961
1.52959 -1.6496401 0.039267913
1.5191948 -1.6592182 0.039267913
1.4953288 -1.6538976 0.038918864
1.4649312 -1.6408846 0.038395293
1.4612042 -1.6575569 0.038569819
1.4507606 -1.6667051 0.038569819
1.427235 -1.6606141 0.038220771
1.4104489 -1.6618022 0.038046245
1.3808486 -1.6475282 0.037522674
1.0498775 -1.5228969 0.032286953
1.0401717 -1.5295426 0.032286953
1.0251033 -1.5276557 0.032112427
1.01561 -1.5339833 0.032112427
1.0059518 -1.5403343 0.032112427
-1.0049188 -1.4323775 0.030541711
-1.0138988 -1.4260352 0.030541711
-1.0286837 -1.4277488 0.030716235
-1.0435297 -1.4293325 0.030890759
-1.0524899 -1.4227476 0.030890759
-1.0673971 -1.4241132 0.031065283
-1.0822462 -1.4254358 0.031239808
-1.0910652 -1.4186969 0.031239808
-1.1061025 -1.4197009 0.03141433
-1.1211953 -1.4205714 0.031588856
-1.1363425 -1.4213082 0.031763379
-1.1515429 -1.4219103 0.031937905
-1.1667956 -1.4223772 0.032112427
-1.1820992 -1.4227083 0.032286953
-1.191015 -1.4152529 0.032286953
-1.2063696 -1.415351 0.032461476
-1.2217722 -1.4153118 0.032635998
-1.2306329 -1.4076141 0.032635998
-1.2459583 -1.4074485 0.032810524
-1.2613363 -1.4071399 0.032985047
-1.276873 -1.4065901 0.033159573
-1.2924446 -1.4059075 0.033334095
-1.3079426 -1.4051915 0.033508621
-1.3234892 -1.4043297 0.033683144
-1.3460927 -1.4104525 0.034032192
-1.3549283 -1.4019669 0.034032192
-1.3707037 -1.4005718 0.034206714
-1.3935529 -1.4061352 0.034555763
-1.409443 -1.4044089 0.034730289
-1.4253662 -1.4025381 0.034904812
-1.4341503 -1.3935546 0.034904812
-1.4573067 -1.3983613 0.03525386
-1.4733218 -1.3960543 0.035428386
-1.4893574 -1.3936094 0.035602909
-1.5053062 -1.3911409 0.035777431
-1.5286741 -1.3952599 0.03612648
-1.5374106 -1.3856275 0.03612648
-1.5684935 -1.3958815 0.036650054
-1.5847436 -1.3925989 0.036824577
-1.6010143 -1.3891668 0.036999103
-1.617304 -1.3855851 0.037173625
-1.6412375 -1.3883196 0.037522674
-1.6574817 -1.3845336 0.037697196
-1.6814694 -1.3869437 0.038046245
-1.6980244 -1.3825166 0.038220771
-1.7145832 -1.3779442 0.038395293
-1.7467054 -1.3857869 0.038918864
-1.7632498 -1.3809497 0.03909339
-1.7877121 -1.3820745 0.039442439
-1.8043014 -1.3768903 0.039616961
-1.8287694 -1.3777173 0.03996601
-1.8453012 -1.3723165 0.040140536
-1.870008 -1.3725271 0.04048958
-1.8947897 -1.3724811 0.040838629
-1.9196439 -1.3721774 0.041187678
-1.936398 -1.365852 0.041362204
-1.9613547 -1.3650815 0.041711252
-1.9863775 -1.3640511 0.042060297
-2.0114641 -1.3627596 0.042409346
-2.0366123 -1.3612062 0.042758394
-2.0618196 -1.3593903 0.043107443
-2.0870762 -1.3573225 0.043456491
-2.1122768 -1.3551633 0.04380554
-2.1375377 -1.3527318 0.044154588
-2.1714416 -1.3551553 0.044678159
-2.1969438 -1.3519654 0.045027208
-2.2310393 -1.3536947 0.045550779
-2.2738225 -1.3601811 0.046248876
-2.2478735 -1.3255525 0.045550779
-2.2475135 -1.306378 0.045376256
-2.2556775 -1.2922307 0.045376256
-2.1853914 -1.2337929 0.04380554
-2.1406758 -1.1908731 0.042758394
-2.1481159 -1.1773994 0.042758394
-2.1554713 -1.1638793 0.042758394
-2.1539142 -1.145618 0.042583872
-2.2407813 -1.1738183 0.044154588
-2.2569916 -1.1643125 0.044329111
-2.2463341 -1.1412487 0.043980062
-2.4377041 -1.0882684 0.046597924
-2.4902706 -1.0930227 0.047470544
-2.5246305 -1.089237 0.047994118
-2.5774505 -1.0928683 0.048866738
-7.047451 -2.186605 0.12879875
-6.8983979 -2.0929337 0.12583184
-5.0202246 -1.3524461 0.090752512
-5.1059866 -1.3411977 0.092148706
-5.182116 -1.326445 0.093370371
-5.287364 -1.318043 0.095115617
-5.2955403 -1.2847971 0.095115617
-5.3132401 -1.253794 0.095290139
-5.3502488 -1.2270921 0.095813707
-5.3480945 -1.1912762 0.095639184
-5.3554735 -1.1576512 0.095639184
-5.4213567 -1.1362839 0.096686333
-5.5557642 -1.1280932 0.09895514
-5.7098069 -1.1225802 0.10157301
-5.8639946 -1.1151721 0.10419086
-6.0183959 -1.1053973 0.10680872
-6.1925893 -1.0972171 0.10977563
-6.3669119 -1.0868871 0.11274254
-6.551208 -1.0760326 0.11588398
-6.7553649 -1.0660175 0.11937446
-7.2562222 -1.0983744 0.12810066
-9.2222042 -1.3367455 0.16265643
-9.5176334 -1.3185673 0.16771762
-9.8528376 -1.301962 0.17347692
-10.208035 -1.2836952 0.17958526
-10.593163 -1.2645645 0.18621717
-10.670439 -1.2059001 0.18743885
-10.677706 -1.139762 0.18743885
-10.684568 -1.0735291 0.18743885
-10.681149 -1.0054353 0.18726432
-10.677295 -0.93743253 0.1870898
-10.663043 -0.86870033 0.18674074
-11.037194 -0.82941043 0.19319813
-11.171861 -0.76896822 0.19546695
-11.110315 0.42147115 0.19407076
-11.347177 0.50187665 0.19825934
-11.373756 0.57467341 0.19878291
-11.389886 0.64726275 0.19913195
-11.35018 0.93059987 0.19878291
-11.344191 1.000963 0.19878291
-11.039055 1.0439823 0.19354719
-11.499832 1.1605018 0.20174982
-11.005182 1.1804845 0.19319813
-10.997548 1.2496055 0.19319813
-11.009334 1.3210655 0.19354719
-11.010736 1.3914635 0.19372171
-11.001775 1.4606211 0.19372171
-10.992381 1.5297152 0.19372171
-10.972658 1.5973145 0.19354719
-10.319893 1.5685084 0.18220311
-9.7075729 1.5370401 0.17155716
-9.1256523 1.5029658 0.16143475
-9.1160288 1.5602765 0.16143475
-8.0920668 1.4374549 0.14345878
-7.787755 1.4346321 0.13822305
-7.4150777 1.4148351 0.13176566
-7.0725245 1.3955879 0.12583184
-6.7403164 1.3740879 0.12007255
-6.4380226 1.3546509 0.11483683
-6.175343 1.3399161 0.11029921
-5.932735 1.3258183 0.10611063
-5.7100301 1.313277 0.1022711
-5.5070696 1.3030843 0.098780617
-5.3433313 1.2998451 0.095988236
-5.1604562 1.2897555 0.092846803
-4.9972887 1.2824179 0.090054415
-4.8343196 1.2734747 0.087262034
-2.8048558 1.1711402 0.053055316
-2.7238252 1.1574571 0.051659122
-8.604517 4.5179534 0.16963738
-8.4436169 4.5013709 0.16701953
-8.3096466 4.4972291 0.16492523
-7.2307429 4.0316095 0.14450592
-7.1878657 4.0671124 0.14415687
-7.118814 4.0873041 0.14328426
-7.0670753 4.1168518 0.14276068
-7.0238523 4.1510019 0.14241163
1.1366856 1.3611497 -0.40941092
1.1389232 1.3465414 -0.40716141
1.1346831 1.3245592 -0.40266237
1.1302124 1.3026841 -0.39816335
1.099786 1.25164 -0.38466629
1.0752418 1.2083102 -0.37341875
1.0893356 1.2087686 -0.37566826
1.0903406 1.1947032 -0.37341875
1.0845988 1.1735177 -0.36891973
1.0852925 1.159566 -0.36667022
1.0992595 1.159796 -0.36891973
1.1065249 1.1528664 -0.36891973
1.1069556 1.138904 -0.36667022
1.1277595 1.145815 -0.37116924
1.1486933 1.152509 -0.37566826
1.1558996 1.1452813 -0.37566826
1.1560096 1.1312826 -0.37341875
1.1560028 1.1173142 -0.37116924
1.1700487 1.1167562 -0.37341875
1.1699518 1.1026995 -0.37116924
1.1768571 1.0953268 -0.37116924
1.1765419 1.0813174 -0.36891973
1.1905282 1.0804518 -0.37116924
1.2263185 1.0989612 -0.38016728
1.3935944 1.1279066 -0.41390994
1.4082659 1.1252104 -0.41615945
1.4076577 1.1103055 -0.41390994
1.4299823 1.1134113 -0.41840896
1.4292243 1.0984669 -0.41615945
1.6920376 1.2018021 -0.47914574
1.7713674 1.2414771 -0.49939135
1.8111893 1.2524909 -0.50838935
1.8431696 1.2575607 -0.51513791
1.8429379 1.2405343 -0.51288837
1.8343555 1.2183104 -0.50838935
1.8092823 1.1855403 -0.49939135
1.8085122 1.16886 -0.49714181
1.8158206 1.1574738 -0.49714181
1.8395556 1.1564132 -0.50164086
1.8799114 1.1653674 -0.51063889
1.9038237 1.1636958 -0.51513791
1.9110978 1.151711 -0.51513791
1.9266733 1.1446573 -0.51738739
1.9338273 1.1325293 -0.51738739
1.9324663 1.1154852 -0.51513791
1.9648443 1.1177752 -0.52188641
1.9973265 1.1197017 -0.52863497
2.0299094 1.1212637 -0.53538352
2.0454729 1.1131449 -0.537633
2.244801 0.89444959 -0.55787861
2.2866731 0.8945263 -0.56687665
2.3195369 0.89061934 -0.57362521
2.3615589 0.88976938 -0.58262324
2.4036605 0.88842595 -0.59162128
2.4458368 0.88658804 -0.60061932
2.478893 0.88101882 -0.60736781
2.5211086 0.8784672 -0.61636585
2.5726166 0.87854701 -0.62761343
2.6150477 0.87472922 -0.63661146
3.6991811 -1.6088332 -0.93129736
3.653357 -1.6162754 -0.92229933
3.121314 -1.6217387 -0.81207329
3.067991 -1.6185515 -0.80082572
3.0149558 -1.6145304 -0.7895782
2.9706328 -1.6146007 -0.78058016
2.9177718 -1.6097001 -0.76933259
2.8735936 -1.6089598 -0.76033455
2.8295407 -1.6077291 -0.75133651
2.7771769 -1.6011423 -0.74008894
2.7418303 -1.6038013 -0.73334044
2.6981814 -1.6011074 -0.72434241
2.654676 -1.5979291 -0.71534437
2.6113183 -1.5942682 -0.70634627
2.5763972 -1.5952557 -0.69959778
2.541585 -1.5958402 -0.69284922
2.4905503 -1.5853955 -0.6816017
2.4561012 -1.5849733 -0.67485315
2.421633 -1.5843704 -0.66810465
2.3953905 -1.5887831 -0.66360557
2.3611028 -1.5874926 -0.65685707
2.3269267 -1.5858344 -0.65010852
2.3008828 -1.589348 -0.6456095
2.2669053 -1.587009 -0.638861
2.2330487 -1.5843066 -0.63211244
2.2072451 -1.586906 -0.62761343
2.1737428 -1.5833412 -0.62086493
1.7848539 -1.6577176 -0.56237763
1.7531102 -1.6488726 -0.55562907
1.0501702 -1.5246199 -0.427407
1.0349939 -1.5231968 -0.42515749
1.0309623 -1.5376736 -0.427407
1.0160228 -1.5359163 -0.42515749
1.0010277 -1.5341096 -0.42290798
-1.013455 -1.4433393 -0.40716141
-1.0225037 -1.4369432 -0.40716141
-1.0315121 -1.4304903 -0.40716141
-1.0462283 -1.4318482 -0.40941092
-1.061002 -1.4330773 -0.41166043
-1.0758165 -1.4341887 -0.41390994
-1.0905769 -1.4352539 -0.41615945
-1.0994641 -1.4284573 -0.41615945
-1.114409 -1.4292048 -0.41840896
-1.1294066 -1.4298208 -0.42065847
-1.1444556 -1.4303043 -0.42290798
-1.159555 -1.4306549 -0.42515749
-1.1747038 -1.4308718 -0.427407
-1.183671 -1.4234627 -0.427407
-1.1988683 -1.4234501 -0.42965651
-1.2141118 -1.4233024 -0.43190601
-1.2357706 -1.4303921 -0.43640503
-1.238302 -1.4152799 -0.43415552
-1.2599702 -1.4221665 -0.43865454
-1.2752794 -1.4215716 -0.44090405
-1.2907382 -1.4207428 -0.44315356
-1.299624 -1.412619 -0.44315356
-1.3149928 -1.4116693 -0.44540307
-1.3304148 -1.4105686 -0.44765258
-1.3527112 -1.4162738 -0.45215163
-1.3615831 -1.4077466 -0.45215163
-1.3772192 -1.4061247 -0.45440114
-1.39975 -1.4112798 -0.45890015
-1.4085896 -1.4024571 -0.45890015
-1.4243217 -1.4004103 -0.46114966
-1.4470739 -1.4050083 -0.46564868
-1.4629064 -1.4026319 -0.46789819
-1.478766 -1.4001116 -0.4701477
-1.5017533 -1.4041181 -0.47464672
-1.5175825 -1.4013969 -0.47689623
-1.5334506 -1.3985165 -0.47914574
-1.5494479 -1.3953744 -0.48139524
-1.5727471 -1.3985611 -0.48589426
-1.5888252 -1.3950807 -0.48814377
-1.6049215 -1.391453 -0.49039328
-1.6284364 -1.3940145 -0.4948923
-1.6520312 -1.3963529 -0.49939135
-1.6681317 -1.3923336 -0.50164086
-1.6917948 -1.394329 -0.50613987
-1.7082014 -1.389672 -0.50838935
-1.7246015 -1.3848817 -0.51063889
-1.74854 -1.3861244 -0.51513791
-1.7725616 -1.3871204 -0.51963693
-1.7889531 -1.3819122 -0.52188641
-1.813082 -1.3824804 -0.52638549
-1.8293974 -1.3770802 -0.52863497
-1.8535511 -1.3773221 -0.53313398
-1.8857403 -1.3829355 -0.53988254
-1.9022856 -1.3767725 -0.54213202
-1.9188275 -1.370456 -0.54438156
-1.9433293 -1.3695989 -0.54888058
-1.9678955 -1.3684876 -0.5533796
-1.9925239 -1.3671211 -0.55787861
-2.0172122 -1.3654988 -0.56237763
-2.050061 -1.369031 -0.56912613
-2.0667591 -1.3614832 -0.57137567
-2.0915985 -1.3591113 -0.57587469
-2.1245885 -1.361901 -0.58262324
-2.1494715 -1.3591026 -0.58712226
-2.1745045 -1.3558812 -0.59162128
-2.2078819 -1.3575019 -0.59836978
-2.233032 -1.3537049 -0.6028688
-2.2665849 -1.3546437 -0.60961735
-2.2918415 -1.3502678 -0.61411637
-2.3255582 -1.3505207 -0.62086493
-2.3509107 -1.3455625 -0.62536395
-2.3932657 -1.3499125 -0.63436198
-2.4272501 -1.3490491 -0.64111048
-2.4271324 -1.3290918 -0.638861
-2.4440107 -1.3184416 -0.64111048
-2.4436421 -1.2984874 -0.638861
-2.4431195 -1.27859 -0.63661146
-2.44243 -1.2587773 -0.63436198
-2.4414937 -1.2392102 -0.63211244
-2.4404223 -1.2196767 -0.62986296
-2.4392946 -1.2000179 -0.62761343
-2.4380164 -1.1804217 -0.62536395
-2.4453852 -1.16508 -0.62536395
-2.4438348 -1.1455567 -0.62311441
-2.4421358 -1.126099 -0.62086493
-2.4402895 -1.106708 -0.61861539
-2.4382958 -1.0873849 -0.61636585
-2.44508 -1.0720433 -0.61636585
-5.1908102 7.1281714 0.46212649
-5.1284389 7.1363158 0.46055642
-5.0488372 7.1195235 0.45741624
-4.998281 7.1429224 0.45689288
-4.9986911 7.2399302 0.46107978
-5.4724989 8.4843321 0.52911651
-5.3922796 8.4764214 0.52649969
-5.3283029 8.4932146 0.52545297
-5.2590694 8.501049 0.52388293
-5.1847534 8.4998217 0.52178949
-5.1055093 8.4894428 0.51917267
-5.0316992 8.4869919 0.51707923
-4.9530787 8.4753313 0.51446241
-4.8797936 8.4716702 0.51236898
-4.8067465 8.4674263 0.51027554
-4.7388258 8.4713135 0.5087055
-4.6662211 8.4659386 0.50661206
-4.5938768 8.4599857 0.50451863
-4.5219274 8.4533863 0.50242519
-4.4554958 8.4547386 0.50085509
-4.384346 8.4468718 0.49876165
-4.3122725 8.4390593 0.49666822
-4.2452388 8.4394569 0.49509814
-4.1795692 8.4387522 0.49352807
-4.1094213 8.4287157 0.49143463
-4.0426874 8.4277105 0.48986453
-3.9762685 8.4261351 0.48829445
-3.9106348 8.4237776 0.48672438
-3.8451834 8.4209318 0.4851543
-3.7799273 8.4175949 0.48358423
-3.7148652 8.4137707 0.48201415
-3.650001 8.4094629 0.48044407
-3.5853336 8.4046755 0.478874
-3.5208755 8.3994055 0.47730392
-3.4604235 8.402895 0.47625721
-3.396327 8.396698 0.47468713
-3.3325796 8.3899746 0.47311702
-3.269644 8.3825512 0.47154695
-3.2103615 8.3840504 0.47050023
-3.147085 8.3760109 0.46893016
-3.0212154 8.3585463 0.46579
-2.9652998 8.3679523 0.46526664
-2.9093902 8.3769836 0.46474329
-2.8502626 8.3761921 0.46369657
-2.7912645 8.3749866 0.46264985
-2.7261987 8.3543835 0.46055642
-2.673655 8.3713474 0.46055642
-2.6150448 8.3689184 0.4595097
-2.5565753 8.3660822 0.45846298
-2.4982405 8.3628445 0.45741624
-2.4400518 8.3592033 0.45636952
-2.3847413 8.3647661 0.45584616
-2.3241067 8.3507223 0.45427608
-2.2689726 8.3555231 0.45375273
-2.2087617 8.3406534 0.45218265
-2.1536767 8.3447332 0.45165929
-2.0907395 8.3195429 0.44956586
-2.0354605 8.3229599 0.4490425
-1.8837405 7.9178333 0.42653805
-1.8295823 7.9100242 0.4254913
-1.7695857 7.8724928 0.42287451
-1.707741 7.8248224 0.41973436
-1.6475246 7.7866921 0.41711757
-1.5879875 7.7480893 0.41450077
-1.5276146 7.699141 0.41136062
-1.4810895 7.7183952 0.41188398
-1.3962926 7.8052092 0.41554749
-1.3624966 7.9023976 0.42025772
-1.3749413 8.285162 0.44014537
-1.3197136 8.2739134 0.43909866
-1.270721 8.3017855 0.44014537
-1.2156389 8.2898445 0.43909866
-1.123309 8.0105219 0.42392123
-1.0689837 7.9877276 0.42235115
-1.0162475 7.9744744 0.42130443
1.0209994 8.1651201 0.43124828
1.072282 8.1585436 0.43124828
1.1235222 8.1516457 0.43124828
1.1761435 8.1543093 0.43177164
1.227355 8.1467581 0.43177164
1.2800677 8.1487513 0.43229499
1.3328539 8.150403 0.43281835
1.3840377 8.1418676 0.43281835
1.4353 8.132987 0.43281835
1.4942739 8.1629715 0.43491179
1.6504283 8.1430264 0.43543515
1.7036046 8.142271 0.4359585
1.7567033 8.1411963 0.43648186
1.8071114 8.1301556 0.43648186
1.8554884 8.1090078 0.4359585
1.9116873 8.1164637 0.43700522
1.9655724 8.1138582 0.43752858
2.0165141 8.1013479 0.43752858
2.0721896 8.1079025 0.4385753
2.1223853 8.0949078 0.4385753
2.1778171 8.1008549 0.43962201
2.2313259 8.0966387 0.44014537
2.284868 8.0920696 0.44066873
2.3384407 8.0871468 0.44119209
2.3920412 8.0818701 0.44171545
2.4485621 8.0857964 0.4427622
2.5022724 8.0797911 0.44328555
2.5560036 8.0734301 0.44380891
2.6129596 8.0761719 0.44485563
2.6674898 8.0688438 0.44537899
2.7217684 8.0612373 0.44590235
2.7749157 8.0536604 0.44642571
2.8348286 8.0645304 0.44799578
2.8348806 7.9055567 0.44014537
2.8263156 7.7281022 0.43124828
2.8196547 7.5602331 0.42287451
2.8108509 7.3928146 0.41450077
2.8031309 7.2353296 0.40665036
2.793545 7.078239 0.39879999
2.789547 6.9400911 0.39199629
2.7800314 6.7930813 0.38466927
2.7721529 6.6558833 0.37786561
2.7627895 6.5190034 0.37106192
2.7562418 6.3914762 0.36478162
2.7483048 6.2642474 0.35850129
2.7433815 6.1463022 0.35274434
2.7409997 6.0378604 0.34751076
2.7281456 5.9119525 0.34123042
2.722414 5.8044782 0.33599684
2.7201557 5.7061286 0.33128661
2.7124164 5.5990524 0.32605299
2.7078509 5.5012617 0.32134277
2.7021651 5.4037533 0.31663254
2.6953626 5.3065362 0.31192228
2.6920247 5.2184958 0.30773541
2.6830547 5.1218643 0.30302519
2.6776679 5.0343709 0.29883832
2.6760335 4.9559374 0.29517478
2.6687205 4.868969 0.29098791
2.6604221 4.78229 0.28680104
2.6560507 4.704607 0.28313753
2.6508095 4.6271701 0.27947399
2.64972 4.5586209 0.27633384
2.6428022 4.481668 0.27267033
2.6401501 4.4135542 0.26953018
2.6315672 4.3371153 0.26586667
2.6273632 4.2694659 0.26272649
1.0825742 1.2155886 0.085307606
1.1035672 1.2235941 0.086354323
1.1112335 1.2166361 0.086354323
1.1188558 1.2096299 0.086354323
1.5495595 1.1292335 0.10048503
1.5566241 1.119475 0.10048503
1.5554832 1.1038929 0.099961676
1.7070125 1.1480788 0.10781207
1.8222641 1.209263 0.11461575
1.8548061 1.2143291 0.11618582
1.8623992 1.2026511 0.11618582
1.8699189 1.1909257 0.11618582
1.8604516 1.1685302 0.1151391
1.8592671 1.1515594 0.11461575
1.8579432 1.1346498 0.11409238
1.8564805 1.1178025 0.11356902
1.8806419 1.1163106 0.11461575
1.9220958 1.1246452 0.11670918
1.9550765 1.1275132 0.11827926
1.9708042 1.1201414 0.11880262
1.9778033 1.1077365 0.11880262
1.9847244 1.0952877 0.11880262
2.0178871 1.097106 0.1203727
2.1564257 0.87399006 0.12194277
2.1989882 0.87519485 0.12403622
2.2323482 0.87226427 0.1256063
2.3030531 0.88325262 0.12926981
2.345943 0.88283384 0.13136324
2.3795485 0.87845188 0.13293333
2.4131906 0.87368208 0.13450341
2.4468513 0.86856389 0.13607349
2.4804802 0.86323351 0.13764356
2.5236018 0.86070204 0.139737
2.5668468 0.85748547 0.14183044
2.6101496 0.85375899 0.14392388
2.6630163 0.85256654 0.14654067
4.9834671 0.70503837 0.2637732
5.1461415 0.69510025 0.27214697
5.3187861 0.68441945 0.28104407
5.5212302 0.67523253 0.29151127
5.7039213 0.66122776 0.30093175
8.2194672 0.90054154 0.43334171
8.2348967 0.84990484 0.43386507
8.230134 0.79718411 0.43334171
8.2250233 0.74469161 0.43281835
8.2294788 0.69371557 0.43281835
8.2336302 0.64257914 0.43281835
8.2275438 0.59011889 0.43229499
8.2211246 0.53776044 0.43177164
8.2143717 0.48550606 0.43124828
8.2172604 0.43388429 0.43124828
8.2098494 0.38178152 0.43072492
8.2120857 0.33019134 0.43072492
8.2040176 0.27824852 0.43020156
8.2056036 0.22669591 0.43020156
8.1968822 0.17492129 0.4296782
8.1978178 0.12354983 0.4296782
8.1984253 0.072754294 0.4296782
8.1887331 0.021796191 0.42915484
8.1887083 -0.029655315 0.42915484
8.1883602 -0.081105649 0.42915484
8.1876888 -0.13255279 0.42915484
8.186698 -0.1838606 0.42915484
8.1854019 -0.23458134 0.42915484
8.1738062 -0.28507793 0.42863148
8.1718531 -0.3364296 0.42863148
8.1695786 -0.38776797 0.42863148
8.1669807 -0.43909106 0.42863148
8.1640606 -0.49039677 0.42863148
8.1608181 -0.54168314 0.42863148
8.1572638 -0.59281456 0.42863148
8.1534338 -0.64334506 0.42863148
8.1492682 -0.69411671 0.42863148
8.144681 -0.7460165 0.42863148
8.1397896 -0.7976194 0.42863148
8.1346912 -0.84803772 0.42863148
8.1391926 -0.89965266 0.42915484
8.133379 -0.95077473 0.42915484
8.0479546 -0.99208498 0.42496794
8.051465 -1.043916 0.4254913
8.0546608 -1.0956982 0.42601466
8.0576038 -1.1469908 0.42653805
8.0700779 -1.1999614 0.42758477
8.0426426 -1.2475817 0.42653805
8.0346451 -1.2980903 0.42653805
8.0263309 -1.3485476 0.42653805
8.0275364 -1.4006681 0.42706141
8.0185776 -1.4510788 0.42706141
8.0191174 -1.5032721 0.42758477
8.0095139 -1.5536277 0.42758477
8.0191774 -1.6078473 0.42863148
8.0089169 -1.6582013 0.42863148
8.0081339 -1.7104448 0.42915484
8.0071354 -1.7621763 0.4296782
7.9960337 -1.811884 0.4296782
8.0039425 -1.8666247 0.43072492
7.9532123 -1.9075613 0.42863148
7.7471485 -1.9096929 0.41816428
7.7640715 -1.9655575 0.41973436
4.98807 -1.7397146 0.2768572
4.8735485 -1.7341945 0.27110025
4.7686844 -1.7307118 0.26586667
3.2087624 -1.6432434 0.18893281
3.1629353 -1.6449414 0.18683936
3.0995803 -1.6367519 0.18369921
3.054173 -1.6370543 0.18160577
3.0000834 -1.6321342 0.17898896
2.9548013 -1.6316426 0.17689553
2.9096453 -1.6306467 0.17480209
2.8559389 -1.6242123 0.17218529
2.8110795 -1.6221595 0.17009185
2.7663598 -1.6196078 0.16799842
2.7217848 -1.6165591 0.16590498
2.6859124 -1.6181684 0.16433489
2.6416068 -1.6141843 0.16224146
2.5974588 -1.6097081 0.16014802
2.5619543 -1.6100135 0.15857795
2.5182407 -1.6043928 0.1564845
2.4830592 -1.6037514 0.15491442
2.4562247 -1.6083798 0.15386771
2.4127905 -1.6016886 0.15177427
2.3778238 -1.6000912 0.1502042
2.3429737 -1.5981184 0.14863411
2.3164575 -1.6014503 0.14758739
2.2818141 -1.5987818 0.14601731
2.2472966 -1.5957422 0.14444724
2.2210402 -1.598129 0.14340052
2.1868865 -1.5942117 0.14183044
2.152842 -1.5899681 0.14026035
2.1268184 -1.5914972 0.13921364
1.5880207 -1.6732228 0.12089606
1.5571342 -1.6611726 0.11932598
1.5400002 -1.6634859 0.11880262
1.516042 -1.6583879 0.1177559
1.5055921 -1.6678807 0.1177559
1.4884381 -1.6698529 0.11723254
1.4515253 -1.6491867 0.1151391
1.0530484 -1.5301023 0.097344875
1.0265024 -1.5119591 0.0957748
1.0226724 -1.5265869 0.096298158
1.0131691 -1.5329107 0.096298158
-1.0137819 -1.423502 0.091587923
-1.0227059 -1.4171041 0.091587923
-1.0374844 -1.4187112 0.092111282
-1.0523232 -1.4201882 0.092634641
-1.0612024 -1.4135658 0.092634641
-1.0820299 -1.4228616 0.093681358
-1.0969424 -1.4240234 0.094204716
-1.0997244 -1.4092302 0.093681358
-1.1209433 -1.4179608 0.094728082
-1.1298304 -1.4108897 0.094728082
-1.1512549 -1.4192742 0.0957748
-1.1601497 -1.4120127 0.0957748
-1.1753867 -1.4123713 0.096298158
-1.1906737 -1.412594 0.096821517
-1.2060097 -1.4126799 0.097344875
-1.2213935 -1.4126287 0.097868234
-1.2368007 -1.41246 0.098391593
-1.2455286 -1.4047695 0.098391593
-1.2675743 -1.4118665 0.099438317
-1.2764204 -1.4038744 0.099438317
-1.291957 -1.4031944 0.099961676
-1.3074356 -1.4024674 0.10048503
-1.3229778 -1.4015802 0.10100839
-1.3386583 -1.4004589 0.10153175
-1.3543768 -1.3991956 0.10205511
-1.3701319 -1.3977898 0.10257848
-1.3929576 -1.4033285 0.10362519
-1.4088269 -1.4015918 0.10414855
-1.4247292 -1.3997108 0.10467191
-1.4406632 -1.3976851 0.10519527
-1.4638387 -1.4024225 0.10624199
-1.4798757 -1.4000603 0.10676535
-1.4959176 -1.3975765 0.10728871
-1.5118872 -1.3950533 0.10781207
-1.5426681 -1.4058132 0.10938215
-1.5514705 -1.3960927 0.10938215
-1.5676769 -1.3929501 0.1099055
-1.5914114 -1.3962448 0.11095223
-1.6077007 -1.3927568 0.11147559
-1.6240087 -1.3891191 0.11199895
-1.6479406 -1.3918018 0.11304566
-1.6642019 -1.3879604 0.11356902
-1.6882322 -1.3902645 0.11461575
-1.7048037 -1.3857803 0.1151391
-1.7213635 -1.3811697 0.11566246
-1.7456639 -1.382728 0.11670918
-1.7700511 -1.384035 0.1177559
-1.7866176 -1.3789879 0.11827926
-1.8111111 -1.3798687 0.11932598
-1.8276066 -1.3746238 0.11984934
-1.8521467 -1.3751496 0.12089606
-1.8688056 -1.3693876 0.12141941
-1.8935572 -1.3693223 0.12246613
-1.9183809 -1.3689994 0.12351286
-1.9432747 -1.3684182 0.12455957
-1.9682363 -1.3675778 0.1256063
-1.9932634 -1.3664773 0.12665302
-2.0183537 -1.3651158 0.12769973
-2.043505 -1.3634925 0.12874645
-2.0687149 -1.3616066 0.12979317
-2.0939586 -1.3594919 0.13083988
-2.1275697 -1.36265 0.13240996
-2.1528792 -1.3600738 0.13345669
-2.1783342 -1.3570811 0.13450341
-2.203836 -1.3538216 0.13555013
-2.2379239 -1.3554685 0.1371202
-2.2806923 -1.3618597 0.13921364
-2.2626112 -1.2938439 0.13659684
-2.1575961 -1.215867 0.12979317
-2.1477318 -1.1925906 0.12874645
-2.1201391 -1.1599007 0.12665302
-2.1537576 -1.1607701 0.12822309
-2.1610084 -1.1472148 0.12822309
-2.2478211 -1.1752572 0.13293333
-2.2462633 -1.1565764 0.13240996
-2.2444794 -1.1381204 0.1318866
-2.4447091 -1.0890938 0.14026035
-2.4789457 -1.0857309 0.14183044
-2.5224082 -1.0859293 0.14392388
-2.5567727 -1.0817325 0.14549395
-7.0596581 -2.1843159 0.38728607
-6.9011912 -2.0878637 0.37786561
-4.8237662 -1.3276402 0.26220313
-5.0441012 -1.3546304 0.27371705
-5.1684403 -1.3532643 0.27999735
-5.1768413 -1.3207636 0.27999735
-5.3013372 -1.3171065 0.28627768
-5.3095083 -1.28377 0.28627768
-5.3271904 -1.2526715 0.28680104
-5.3544273 -1.2236233 0.28784776
-5.3522601 -1.1877943 0.2873244
-5.3596182 -1.1541404 0.2873244
-5.4645185 -1.1408525 0.29255798
-5.6085949 -1.1342986 0.29988503
-5.752718 -1.12639 0.30721205
-5.9165955 -1.1203598 0.31558582
-6.0806923 -1.111905 0.32395956
-6.2547455 -1.1031625 0.33285668
-6.4289212 -1.092279 0.34175378
-6.6130571 -1.0808564 0.35117427
-6.8170266 -1.0702633 0.36164144
-7.3173666 -1.1017499 0.38780943
-9.2812033 -1.3378583 0.49143463
-9.5862131 -1.3203932 0.50713539
-9.9309626 -1.3043535 0.52492964
-10.256058 -1.28155 0.54167712
-10.66058 -1.2641243 0.56261152
-10.688141 -1.1995181 0.56365824
-10.695368 -1.1332706 0.56365824
-10.702201 -1.0668086 0.56365824
-10.69875 -0.99861872 0.56313491
-10.684916 -0.92964309 0.56208813
-10.670638 -0.86088645 0.56104141
-11.123982 -0.82714409 0.58459264
-11.106423 0.43006194 0.58249921
-11.283073 0.5079174 0.59191966
-11.289633 0.57931542 0.59244299
-11.30571 0.65138435 0.59348971
-11.295818 0.93495023 0.59401309
-11.289793 1.0051024 0.59401309
-11.372725 1.0845473 0.59872335
-11.047765 1.1236503 0.58197582
-11.000773 1.1887485 0.57988238
-11.01293 1.260118 0.5809291
-11.034538 1.3328788 0.58249921
-11.016039 1.4009273 0.58197582
-11.007019 1.4701122 0.58197582
-10.997564 1.5392449 0.58197582
-10.948153 1.6025257 0.57988238
-10.256744 1.5670383 0.54377055
-9.6551056 1.5363984 0.51236898
-9.1330566 1.5115561 0.4851543
-9.1627464 1.5756781 0.48724774
-8.0908928 1.4438934 0.43072492
-7.757484 1.4354434 0.41345406
-7.3853154 1.4151706 0.39408976
-7.0530152 1.3974921 0.37681887
-6.7212405 1.3756999 0.359548
-6.4291143 1.3580483 0.34437057
-6.1570234 1.3409348 0.33023989
-5.9244795 1.3287916 0.31820261
-5.7020411 1.3161571 0.3066887
-5.5090528 1.3081217 0.29674485
-5.3066955 1.2953496 0.28627768
-5.1337833 1.2873722 0.27738056
-4.9708371 1.2798495 0.26900682
1.1399304 1.3628581 -0.34536427
1.1421258 1.348179 -0.34345618
1.1313978 1.3186265 -0.33773193
1.1139057 1.2818536 -0.33009955
1.0895116 1.2379847 -0.32055911
1.0972686 1.2311147 -0.32055911
1.0852504 1.2023355 -0.31483483
1.0994064 1.2027383 -0.31674293
1.1002734 1.1886032 -0.31483483
1.0875795 1.1601816 -0.30911058
1.0880892 1.1462061 -0.30720249
1.0952696 1.1393468 -0.30720249
1.1024066 1.1324427 -0.30720249
1.1095002 1.1254938 -0.30720249
1.1373552 1.139342 -0.31292674
1.1444666 1.1321983 -0.31292674
1.1444385 1.1182253 -0.31101865
1.1513692 1.1110879 -0.31101865
1.1583276 1.1038318 -0.31101865
1.1652403 1.096532 -0.31101865
1.164916 1.0825069 -0.30911058
1.18616 1.0884398 -0.31292674
1.2147981 1.1007392 -0.31865102
1.2216903 1.0930848 -0.31865102
1.2358906 1.0918865 -0.32055911
1.2501478 1.0905253 -0.32246721
1.2570695 1.0825393 -0.32246721
1.2638932 1.0745645 -0.32246721
1.2780448 1.0730247 -0.32437527
1.2998059 1.0775876 -0.32819146
1.3673207 1.119139 -0.34345618
1.3743254 1.1105258 -0.34345618
1.3889495 1.1079904 -0.34536427
1.3881718 1.0931684 -0.34345618
1.410513 1.0964738 -0.34727237
1.4173745 1.0875897 -0.34727237
1.4476556 1.0964428 -0.35299665
1.6815679 1.1923798 -0.40069887
1.7211986 1.2043011 -0.40833125
1.8014351 1.2436551 -0.42550406
1.8254396 1.2433641 -0.42932025
1.8413365 1.2373853 -0.43122831
1.8489679 1.2259526 -0.43122831
1.8236954 1.1929382 -0.42359596
1.8064094 1.1654906 -0.41787168
1.8136966 1.1541177 -0.41787168
1.8209124 1.1426991 -0.41787168
1.8614453 1.1518974 -0.42550406
1.8937849 1.1555176 -0.43122831
1.9094193 1.148656 -0.4331364
1.9081556 1.1316291 -0.43122831
1.9237026 1.1245716 -0.4331364
1.9392359 1.1173632 -0.4350445
1.9462181 1.1051565 -0.4350445
1.9788226 1.1072867 -0.44076878
2.0201259 1.1137898 -0.44840112
2.0357101 1.1057606 -0.45030922
2.2201364 0.89879656 -0.46557394
2.2531054 0.89570868 -0.47129822
2.2861223 0.8922413 -0.47702247
2.3191833 0.88839424 -0.48274675
2.3706625 0.89107382 -0.49228719
2.4038448 0.8863489 -0.49801147
2.4370604 0.8812418 -0.50373572
2.4795384 0.87908566 -0.5113681
2.5220261 0.87659717 -0.51900047
2.5645959 0.87355912 -0.52663285
4.9430089 0.72903866 -0.97121775
4.7714095 -1.6999607 -0.98457438
4.6683736 -1.6963813 -0.9654935
3.1534965 -1.6165045 -0.68882048
3.0997417 -1.6136233 -0.67927998
3.0461845 -1.6100647 -0.66973954
3.0015502 -1.6103448 -0.66210723
2.9483747 -1.6055039 -0.65256673
2.9038637 -1.6050031 -0.64493442
2.8594768 -1.6040069 -0.63730204
2.8066874 -1.5976611 -0.6277616
2.7710929 -1.6005356 -0.62203729
2.7271047 -1.5980635 -0.61440498
2.6832583 -1.5951025 -0.6067726
2.6395581 -1.5916545 -0.59914023
2.6043828 -1.5928428 -0.59341598
2.5609558 -1.5884783 -0.5857836
2.5260313 -1.5888035 -0.58005935
2.4830317 -1.583313 -0.57242697
2.4484079 -1.5827341 -0.56670272
2.4137845 -1.5819443 -0.56097841
2.3792686 -1.5807825 -0.55525416
2.3448637 -1.5792501 -0.54952991
2.3105731 -1.5773481 -0.5438056
2.2763999 -1.5750785 -0.53808135
2.2503843 -1.5780782 -0.53426516
2.2164202 -1.5751274 -0.52854091
2.1826169 -1.5717653 -0.52281666
2.1569765 -1.5736871 -0.51900047
1.0289587 -1.4963747 -0.35299665
1.0360031 -1.5272251 -0.3587209
1.0265205 -1.533615 -0.3587209
1.0115558 -1.5317765 -0.3568128
-1.0052034 -1.4291995 -0.33963999
-1.0198609 -1.430849 -0.34154809
-1.028831 -1.4244127 -0.34154809
-1.0435581 -1.4258417 -0.34345618
-1.0583434 -1.4271414 -0.34536427
-1.0731549 -1.4283348 -0.34727237
-1.081984 -1.4216584 -0.34727237
-1.0967959 -1.4226776 -0.34918046
-1.1057131 -1.4157583 -0.34918046
-1.126768 -1.4241794 -0.35299665
-1.1418331 -1.4247315 -0.35490471
-1.1569492 -1.4251503 -0.3568128
-1.1658808 -1.4178528 -0.3568128
-1.1810485 -1.4180422 -0.3587209
-1.1962644 -1.4180967 -0.36062899
-1.2115275 -1.4180156 -0.36253709
-1.2268363 -1.4177984 -0.36444518
-1.2421591 -1.4174716 -0.36635327
-1.250918 -1.409748 -0.36635327
-1.26622 -1.4092448 -0.36826137
-1.2816559 -1.4085215 -0.37016943
-1.2971017 -1.4076879 -0.37207752
-1.3191915 -1.4139794 -0.37589371
-1.3279575 -1.4057498 -0.37589371
-1.3503351 -1.4115649 -0.3797099
-1.3591775 -1.4030527 -0.3797099
-1.3817147 -1.4085 -0.38352609
-1.3974553 -1.4067549 -0.38543415
-1.4062666 -1.3979466 -0.38543415
-1.4220275 -1.3959599 -0.38734224
-1.4448667 -1.4006625 -0.39115843
-1.4536387 -1.3915565 -0.39115843
-1.4694868 -1.3891391 -0.39306653
-1.4925069 -1.393308 -0.39688271
-1.5155447 -1.3973421 -0.40069887
-1.5242035 -1.3878919 -0.40069887
-1.5474927 -1.3914143 -0.40451506
-1.5635453 -1.388181 -0.40642315
-1.579618 -1.3848006 -0.40833125
-1.5882877 -1.3748482 -0.40833125
-1.611819 -1.3775972 -0.41214743
-1.6279149 -1.373809 -0.41405553
-1.6439369 -1.3699802 -0.41596359
-1.6676129 -1.3721706 -0.41977978
-1.6839402 -1.367708 -0.42168787
-1.7079065 -1.3692704 -0.42550406
-1.7241733 -1.3646044 -0.42741215
-1.7559193 -1.3718747 -0.4331364
-1.7722775 -1.3668097 -0.4350445
-1.7964219 -1.3675781 -0.43886068
-1.8205551 -1.3682165 -0.44267687
-1.8369107 -1.3627191 -0.44458497
-1.853357 -1.3569496 -0.44649303
-1.8777595 -1.356776 -0.45030922
-1.9102249 -1.3620478 -0.4560335
-1.9267734 -1.3556672 -0.45794159
-1.9594439 -1.3603284 -0.46366584
-1.976051 -1.3535373 -0.46557394
-2.0089161 -1.3575836 -0.47129822
-2.0337417 -1.3558247 -0.47511441
-2.0586238 -1.353807 -0.47893056
-2.0835307 -1.3515751 -0.48274675
-2.1166697 -1.3545132 -0.48847103
-2.1333516 -1.3465658 -0.4903791
-2.1667712 -1.3486971 -0.49610338
-2.1919348 -1.3453259 -0.49991956
-2.2171412 -1.3416914 -0.50373572
-2.2423873 -1.3377929 -0.50755191
-2.1812069 -1.2280444 -0.48656294
-2.128793 -1.1809812 -0.47320631
-2.1275575 -1.1628743 -0.47129822
-2.6088936 -1.3013157 -0.56670272
-2.6522644 -1.3022029 -0.57433504
-2.7134252 -1.3111376 -0.5857836
-2.7393401 -1.3024931 -0.58959979
-2.7652526 -1.2935746 -0.59341598
-2.7733259 -1.2761744 -0.59341598
-2.7544603 -1.246582 -0.58769172
-4.8557277 -1.3344145 -0.97885013
-4.9617462 1.2796142 -0.99602294
-4.8111515 1.2735202 -0.96740156
1.059037 1.217746 0.1411923
1.0798361 1.2260194 0.14293541
1.0941492 1.2266446 0.14380698
1.0818014 1.1975685 0.1411923
1.0893046 1.1907477 0.1411923
1.1170752 1.2058038 0.14380698
1.1246294 1.1987611 0.14380698
1.1321392 1.1916713 0.14380698
1.1396042 1.1845344 0.14380698
1.1400727 1.1702152 0.14293541
1.1404065 1.1559373 0.14206386
1.1476469 1.1487491 0.14206386
1.1406415 1.1275403 0.14032075
1.1476057 1.1204515 0.14032075
1.1545562 1.113288 0.14032075
1.1543138 1.0991422 0.13944918
1.1611971 1.0918678 0.13944918
1.1972355 1.1116639 0.14293541
1.2335671 1.1310494 0.14642164
1.255419 1.1366488 0.14816476
1.2476826 1.1154591 0.14642164
1.209857 1.0680406 0.1411923
1.2391019 1.0800214 0.14380698
1.2459569 1.0721059 0.14380698
1.2527033 1.0642152 0.14380698
1.274537 1.0692384 0.14555009
1.3502111 1.1184812 0.1533941
1.3957692 1.1415089 0.15775189
1.4029139 1.1327165 0.15775189
1.4100033 1.1238794 0.15775189
1.4170369 1.1149981 0.15775189
1.4240147 1.1060727 0.15775189
1.4388419 1.1031648 0.15862344
1.4378011 1.088091 0.15775189
1.4525907 1.0849972 0.15862344
1.5235277 1.1231389 0.1655959
1.5466655 1.1252658 0.16733903
1.5698897 1.1271458 0.16908213
1.5606836 1.1057415 0.16733903
1.7938403 1.1884007 0.1882564
1.8595735 1.2153648 0.19435731
1.8755461 1.2090545 0.19522886
1.8831056 1.1972463 0.19522886
1.8737106 1.1748071 0.19348575
1.872582 1.1577723 0.19261418
1.8713135 1.1407982 0.19174263
1.8784443 1.1290179 0.19174263
1.885501 1.1171931 0.19174263
1.9182899 1.1203969 0.19435731
1.9770932 1.1381422 0.19958664
1.9842052 1.1256974 0.19958664
1.9999344 1.1180692 0.2004582
2.0069199 1.1054813 0.2004582
2.0400937 1.1071042 0.20307288
2.2128291 0.87869096 0.20830221
2.2368696 0.87200665 0.21004534
2.2981293 0.87929422 0.21527468
2.3409142 0.87884283 0.21876091
2.3837824 0.8778879 0.22224714
2.4079907 0.86966074 0.22399026
2.4415557 0.8645553 0.22660492
2.4845095 0.86247915 0.23009115
2.5275536 0.85983413 0.23357739
2.5707107 0.85653222 0.23706362
2.6139247 0.85272139 0.24054985
4.9817324 0.70080191 0.44013649
5.1440105 0.69069856 0.45408142
5.3261156 0.68111008 0.46976945
5.5181851 0.67046118 0.48632905
5.7103238 0.65742463 0.50288862
8.2199364 0.8940593 0.72339267
8.2253923 0.84239453 0.72339267
8.2404385 0.79164916 0.7242642
8.2253857 0.73830146 0.72252107
8.2298021 0.6873244 0.72252107
8.2239885 0.63532782 0.72164953
8.2278175 0.58364266 0.72164953
8.2313223 0.5319345 0.72164953
8.2245569 0.47962537 0.72077799
8.2174597 0.42742339 0.71990645
8.2100315 0.37532842 0.71903485
8.2122278 0.32373613 0.71903485
8.2041435 0.27180117 0.71816331
8.2056894 0.22024791 0.71816331
8.1969509 0.16848123 0.71729177
8.1978445 0.11719898 0.71729177
8.1984138 0.066404492 0.71729177
8.1887064 0.015363863 0.71642017
8.1886406 -0.036087345 0.71642017
8.1782913 -0.087430634 0.71554863
8.1775808 -0.13881437 0.71554863
8.186511 -0.19020082 0.71642017
8.1752176 -0.24062611 0.71554863
8.173562 -0.29149774 0.71554863
8.1715689 -0.34284776 0.71554863
8.1692543 -0.3941842 0.71554863
8.1666155 -0.44550511 0.71554863
8.1537123 -0.49620223 0.7146771
8.1603727 -0.54809105 0.71554863
8.1567841 -0.59913045 0.71554863
8.152916 -0.64965791 0.71554863
8.1486959 -0.70060414 0.71554863
8.1440678 -0.75250018 0.71554863
8.1391525 -0.80392236 0.71554863
8.1340151 -0.85433555 0.71554863
8.128541 -0.90493888 0.71554863
8.1325884 -0.95715833 0.71642017
8.0374384 -0.99719864 0.7085762
8.0408926 -1.0489681 0.70944774
8.0539131 -1.1019511 0.71119082
8.0567923 -1.153242 0.71206242
8.0593119 -1.2048318 0.71293396
8.0515823 -1.255446 0.71293396
8.0337019 -1.3044139 0.71206242
8.0253477 -1.3548652 0.71206242
8.0166769 -1.4052629 0.71206242
8.0174904 -1.4573869 0.71293396
8.0179653 -1.5095754 0.7138055
8.0180998 -1.5618283 0.7146771
8.0178947 -1.6141425 0.71554863
8.0173483 -1.6665157 0.71642017
8.0067654 -1.7166384 0.71642017
8.005703 -1.7683625 0.71729177
8.0042572 -1.8203589 0.71816331
7.9926615 -1.8706149 0.71816331
7.96138 -1.916135 0.71642017
7.7364316 -1.9134985 0.69724596
7.7532759 -1.9692161 0.69986057
4.993351 -1.7459563 0.46279699
4.8696885 -1.737131 0.45233831
4.7650614 -1.7336341 0.44362271
4.6700144 -1.732357 0.43577871
3.2085137 -1.6462981 0.31550378
3.1539338 -1.6434083 0.31114599
3.0995631 -1.6398138 0.30678821
3.0542374 -1.6401349 0.30330199
3.0002363 -1.6352723 0.29894421
2.9550347 -1.6348011 0.29545796
2.9012723 -1.6289504 0.29110017
2.8563576 -1.627421 0.28761396
2.811578 -1.6253924 0.28412771
2.766938 -1.622866 0.2806415
2.7224422 -1.6198437 0.27715525
2.6780949 -1.6163272 0.27366903
2.6423969 -1.617519 0.27105436
2.6067908 -1.6183268 0.26843968
2.5628936 -1.6133742 0.26495346
2.519258 -1.6077853 0.26146722
2.4841115 -1.6071978 0.25885254
2.4489748 -1.6063825 0.25623786
2.4139473 -1.6051897 0.25362322
2.3790324 -1.6036208 0.25100854
2.3442338 -1.6016769 0.24839386
2.3095541 -1.59936 0.24577919
2.2749972 -1.5966712 0.24316452
2.2486842 -1.599386 0.2414214
2.2143896 -1.5959482 0.23880672
2.1803224 -1.5920137 0.23619206
2.154355 -1.5937024 0.23444894
2.1203849 -1.5892829 0.23183428
1.6664765 -1.6724501 0.20655911
1.6559354 -1.6828878 0.20655911
1.6314442 -1.67897 0.204816
1.6139659 -1.681999 0.20394443
1.5897079 -1.6776005 0.20220132
1.5656683 -1.6728716 0.2004582
1.5417036 -1.6679516 0.19871509
1.5244774 -1.6702474 0.19784354
1.5072834 -1.6723931 0.19697197
1.4835002 -1.6669471 0.19522886
1.4664215 -1.6687521 0.19435731
1.4493787 -1.6704085 0.19348575
1.0245373 -1.5319352 0.16123812
1.0094975 -1.5299665 0.16036656
1.0052986 -1.5446284 0.16123812
-1.0124251 -1.4192365 0.15252255
-1.0271584 -1.4209207 0.1533941
-1.0419527 -1.4224755 0.15426566
-1.0508698 -1.4159007 0.15426566
-1.0656937 -1.4172611 0.15513723
-1.0804907 -1.418556 0.15600878
-1.0953832 -1.4196916 0.15688033
-1.1042818 -1.4127811 0.15688033
-1.1193208 -1.4136249 0.15775189
-1.1344137 -1.4143353 0.15862344
-1.1495596 -1.4149114 0.15949501
-1.1647571 -1.4153527 0.16036656
-1.1800054 -1.4156586 0.16123812
-1.188877 -1.4082165 0.16123812
-1.2041756 -1.4082903 0.16210967
-1.2195219 -1.4082271 0.16298124
-1.2348759 -1.4080602 0.1638528
-1.2435768 -1.4003818 0.1638528
-1.2589285 -1.4000231 0.16472435
-1.2744076 -1.399451 0.1655959
-1.296644 -1.4060981 0.16733903
-1.305331 -1.3980374 0.16733903
-1.3208499 -1.397126 0.16821058
-1.3364912 -1.3959951 0.16908213
-1.3521703 -1.3947226 0.16995369
-1.3748649 -1.4004166 0.17169681
-1.3906604 -1.3988152 0.17256837
-1.4135574 -1.4040908 0.17431149
-1.4294634 -1.4021573 0.17518304
-1.4382452 -1.3931481 0.17518304
-1.4613678 -1.3978559 0.17692615
-1.4773639 -1.395487 0.1777977
-1.4860648 -1.3862176 0.1777977
-1.5092782 -1.3904835 0.17954083
-1.5252707 -1.3877681 0.18041238
-1.5561916 -1.3981305 0.18302706
-1.5798497 -1.4015473 0.18477017
-1.5961182 -1.3981574 0.18564174
-1.6124061 -1.394618 0.18651329
-1.6287123 -1.3909289 0.18738484
-1.6526132 -1.3935567 0.18912795
-1.6688714 -1.3896649 0.18999952
-1.6929148 -1.3918599 0.19174263
-1.7094826 -1.3873245 0.19261418
-1.726023 -1.3826815 0.19348575
-1.7503042 -1.3841679 0.19522886
-1.7746717 -1.3854034 0.19697197
-1.7912322 -1.3803061 0.19784354
-1.8156896 -1.3811359 0.19958664
-1.832178 -1.3758417 0.2004582
-1.8647138 -1.3822097 0.20307288
-1.8814019 -1.376348 0.20394443
-1.8980895 -1.3703308 0.204816
-1.922889 -1.3699385 0.20655911
-1.9559073 -1.3750174 0.20917378
-1.9726937 -1.3683789 0.21004534
-1.9976944 -1.3672099 0.21178845
-2.0227575 -1.3657802 0.21353157
-2.0478811 -1.3640893 0.21527468
-2.0730627 -1.362136 0.2170178
-2.0982623 -1.3599774 0.21876091
-2.1318274 -1.3630499 0.22137558
-2.148695 -1.3550706 0.22224714
-2.1825449 -1.3573261 0.22486182
-2.208015 -1.3540015 0.22660492
-2.2505784 -1.3607184 0.23009115
-2.2590837 -1.3465508 0.23009115
-2.2581074 -1.2889162 0.22747648
-2.1359222 -1.2014439 0.21440312
-2.143429 -1.1879998 0.21440312
-2.1333644 -1.16496 0.21266001
-2.149415 -1.1562523 0.21353157
-2.1654401 -1.1473885 0.21440312
-2.2609239 -1.1798478 0.22311869
-2.2505398 -1.1565741 0.22137558
-2.2487741 -1.1381096 0.22050403
-2.4396007 -1.0845227 0.23357739
-2.5011363 -1.0931096 0.23880672
-2.5445676 -1.093101 0.24229296
-7.2015042 -2.2711871 0.66064054
-7.0441546 -2.1734586 0.64495248
-6.8859987 -2.0773659 0.62926447
-4.8226361 -1.3233123 0.43752182
-5.0136161 -1.3422228 0.45408142
-5.0701461 -1.3232737 0.4584392
-5.1652522 -1.3134871 0.4662832
-5.2701025 -1.3049512 0.4749988
-5.2878819 -1.2741475 0.47587034
-5.3248811 -1.2477145 0.47848502
-5.3714685 -1.2230811 0.48197126
-5.3693209 -1.1871551 0.48109969
-5.3474526 -1.1471283 0.47848502
-5.4813476 -1.1398727 0.48981526
-5.6348577 -1.1350684 0.50288862
-5.7786717 -1.1268256 0.51509041
-5.942203 -1.1203769 0.52903533
-6.1157403 -1.1133492 0.54385185
-6.2894168 -1.1041869 0.55866832
-6.4632134 -1.0928816 0.57348478
-6.6666074 -1.0842357 0.59091592
-6.8504553 -1.0699975 0.60660398
-7.3496466 -1.1007099 0.65018183
-9.3187866 -1.3358034 0.82362175
-9.6230898 -1.3177751 0.84976846
-9.9670372 -1.3011268 0.87940145
-10.330913 -1.2826669 0.91077751
-10.685042 -1.2585133 0.94128203
-10.692706 -1.191646 0.94128203
-10.709792 -1.1264124 0.94215357
-10.716594 -1.0597467 0.94215357
-10.713121 -0.99147093 0.94128203
-10.699289 -0.92243063 0.9395389
-10.694943 -0.85439098 0.93866736
-11.196856 -0.82372397 0.98224521
-11.128775 0.43967798 0.97440118
-11.215356 0.51369834 0.98224521
-11.241753 0.58570802 0.98485988
-11.233504 0.72692633 0.98485988
-11.238652 0.79820257 0.98573142
-11.227842 0.93807936 0.98573142
-11.201943 1.0061463 0.98398834
-11.492887 1.1051183 1.0101351
-11.049675 1.1326101 0.9717865
-11.022533 1.1998614 0.97004342
-11.034571 1.2713716 0.9717865
-11.026364 1.3406813 0.9717865
-11.027604 1.4111968 0.9726581
-11.008646 1.4791335 0.9717865
-10.999136 1.5482703 0.9717865
-10.831498 1.5941434 0.95784158
-10.171444 1.562068 0.9003188
-9.5811901 1.5322453 0.84889692
-9.1390829 1.5199261 0.81054837
-9.1489849 1.5807129 0.8122915
-8.0700159 1.4467994 0.71729177
-7.7178388 1.4344645 0.68678725
-7.3270683 1.4099739 0.65279651
-7.0054097 1.3937801 0.62490666
-6.6842575 1.3735987 0.59701681
-6.4026275 1.3577088 0.57261324
-6.1409736 1.3424217 0.54995275
-5.9090066 1.3301284 0.52990693
-5.6774011 1.3151653 0.50986111
-5.4752126 1.3046312 0.49242994
-5.2830644 1.293977 0.47587034
-5.100934 1.2833952 0.46018231
-4.9480538 1.2781856 0.44710895
1.1374626 1.3405381 -0.27845335
1.1458629 1.3333648 -0.27845335
1.1282805 1.2963381 -0.27219597
1.1102791 1.259586 -0.26593858
1.1050164 1.2378489 -0.2628099
1.1260194 1.2455348 -0.26593858
1.1138145 1.2165805 -0.26124555
1.1348667 1.224044 -0.26437426
1.1087325 1.1808866 -0.25655252
1.0957133 1.1524233 -0.25185949
1.1097829 1.152631 -0.25342384
1.1238983 1.1527071 -0.25498816
1.11724 1.131566 -0.25185949
1.145278 1.1454778 -0.25655252
1.1524153 1.138297 -0.25655252
1.1523761 1.1242377 -0.25498816
1.145131 1.1033322 -0.25185949
1.1520407 1.0961154 -0.25185949
1.1661031 1.0956185 -0.25342384
1.1729641 1.0882699 -0.25342384
1.1870612 1.0875508 -0.25498816
1.2085198 1.0933232 -0.25811687
1.2227312 1.0922884 -0.2596812
1.2369772 1.0911179 -0.26124555
1.2512921 1.0897702 -0.2628099
1.258209 1.0817769 -0.2628099
1.2650045 1.0738224 -0.2628099
1.2792028 1.072309 -0.26437426
1.3162915 1.0895115 -0.27063161
1.3919435 1.137468 -0.28471074
1.3760012 1.1100949 -0.28001767
1.406127 1.119887 -0.28471074
1.4053711 1.1049255 -0.28314638
1.4278911 1.1081848 -0.28627506
1.4269853 1.0931848 -0.28471074
1.4574602 1.1020687 -0.28940377
1.7084862 1.1934086 -0.33007672
1.789143 1.2330953 -0.34415582
1.8295255 1.2440447 -0.3504132
1.8618718 1.2490929 -0.35510623
1.8695754 1.2375329 -0.35510623
1.8524377 1.2096633 -0.3504132
1.8350909 1.1819556 -0.34572017
1.834144 1.1651063 -0.34415582
1.8414283 1.1535591 -0.34415582
1.8570429 1.1471571 -0.34572017
1.8979554 1.1560178 -0.35197753
1.9221163 1.1542393 -0.35510623
1.9293307 1.1421396 -0.35510623
1.9364688 1.1299948 -0.35510623
1.9435306 1.1178054 -0.35510623
1.9591081 1.110442 -0.35667059
2.0005386 1.1173759 -0.36292794
2.033479 1.1190703 -0.36762097
2.0578358 1.1156867 -0.37074968
2.2345545 0.90259159 -0.3817001
2.2677248 0.89945835 -0.38639313
2.3009424 0.89594376 -0.39108616
2.3434308 0.89557236 -0.39734355
2.386004 0.8947019 -0.4036009
2.4101179 0.88651192 -0.40672961
2.4435132 0.88140535 -0.41142264
2.4862213 0.87928808 -0.41768003
2.538281 0.88004434 -0.42550173
2.571769 0.8737489 -0.43019477
2.6240664 0.87316507 -0.4380165
4.9545603 0.72676694 -0.79312271
5.1253076 0.71894699 -0.81971657
5.2961464 0.70900905 -0.84631044
5.4964485 0.70069891 -0.87759733
5.6674314 0.6863364 -0.9041912
5.9436994 -1.8746119 -0.98710144
4.960824 -1.7018564 -0.83066702
4.8754563 -1.7068833 -0.81815225
4.7716217 -1.7042608 -0.80250877
4.6865768 -1.7071638 -0.78999406
3.1176052 -1.6260357 -0.5569067
3.0637381 -1.6223794 -0.54908496
3.010128 -1.6179502 -0.54126322
2.9653101 -1.6177469 -0.53500587
2.9205248 -1.6172076 -0.52874851
2.867254 -1.6113316 -0.52092677
2.8227539 -1.6097438 -0.51466936
2.7783885 -1.6076612 -0.508412
2.7341619 -1.6050855 -0.50215465
2.6985648 -1.607072 -0.49746159
2.6545975 -1.6035681 -0.4912042
2.6107821 -1.599576 -0.48494685
2.5755124 -1.6003102 -0.48025379
2.5320332 -1.5953166 -0.47399643
2.4971292 -1.5950238 -0.4693034
2.4622743 -1.5944412 -0.46461037
2.4274378 -1.5936191 -0.45991731
2.3927097 -1.5924228 -0.45522428
2.3499057 -1.58533 -0.44896692
2.3235927 -1.5889133 -0.44583821
2.2892103 -1.5866023 -0.44114518
