# .PCD v0.7 - Point Cloud Data file format
VERSION 0.7
FIELDS x y z
SIZE 4 4 4
TYPE F F F
COUNT 1 1 1
WIDTH 1479
HEIGHT 1
VIEWPOINT 0 0 0 1 0 0 0
POINTS 1479
DATA ascii
1.9645637 0.87786615 0.1882564
1.9882818 0.87351912 0.18999952
2.012022 0.86890835 0.19174263
2.0449524 0.86792547 0.19435731
2.0871432 0.87039697 0.19784354
2.1110077 0.86481893 0.19958664
2.1441255 0.86269361 0.20220132
2.1680338 0.85652542 0.20394443
2.2012365 0.85369271 0.20655911
2.2251778 0.84693241 0.20830221
2.2584524 0.84339011 0.21091689
2.3011236 0.84288877 0.21440312
2.3344779 0.83858013 0.2170178
2.377213 0.83733863 0.22050403
2.4106276 0.83228177 0.22311869
2.4535563 0.8298865 0.22660492
2.5060053 0.83011663 0.23096271
2.5490761 0.82664675 0.23444894
2.5922008 0.82266796 0.23793517
2.6448884 0.82113308 0.24229296
7.088202 1.0299513 0.6266498
7.0846663 0.98402429 0.6257782
7.0907092 0.9394908 0.6257782
7.0865889 0.89367384 0.62490666
7.0821724 0.84794575 0.62403512
7.0873604 0.80343068 0.62403512
7.0724578 0.75676405 0.62229198
7.0869851 0.71330941 0.62316352
7.081409 0.66783136 0.62229198
7.0755415 0.62245154 0.62142044
7.0792971 0.57817578 0.62142044
7.0728097 0.53355342 0.6205489
7.0660553 0.48883978 0.61967731
7.0689874 0.444433 0.61967731
7.0616941 0.3994461 0.61880577
7.0541148 0.35456839 0.61793423
7.0562034 0.31024024 0.61793423
7.0580134 0.26589891 0.61793423
7.0495877 0.22123459 0.61706263
7.0408797 0.17668666 0.61619109
7.0518112 0.13263157 0.61706263
7.0425444 0.088196583 0.61619109
7.0429583 0.044137701 0.61619109
7.0331345 0.00049935281 0.61531955
7.0330014 -0.043269504 0.61531955
7.042552 -0.087581962 0.61619109
7.0319023 -0.13164321 0.61531955
7.0209775 -0.17557409 0.61444795
7.0197358 -0.21968453 0.61444795
7.0182171 -0.26378629 0.61444795
7.0164213 -0.3078776 0.61444795
7.014348 -0.35195678 0.61444795
7.0120091 -0.39583066 0.61444795
7.0094218 -0.43926811 0.61444795
7.0065527 -0.48288089 0.61444795
7.0033803 -0.52689457 0.61444795
6.9999318 -0.57088661 0.61444795
7.0061302 -0.61572909 0.61531955
6.9922051 -0.65880311 0.61444795
6.9879279 -0.70272321 0.61444795
6.9932799 -0.74767458 0.61531955
6.9785457 -0.79047841 0.61444795
6.983355 -0.83530289 0.61531955
6.9780459 -0.87855434 0.61531955
6.9724431 -0.92196333 0.61531955
6.8579693 -0.95070696 0.60573238
7.3349705 -1.0636425 0.64843869
6.8751493 -1.0404967 0.60834706
6.9078727 -1.0896578 0.61183327
6.8909607 -1.1320274 0.61096174
6.8836412 -1.1757154 0.61096174
6.8761182 -1.2189431 0.61096174
6.8781562 -1.2637355 0.61183327
6.8701944 -1.306327 0.61183327
6.8717065 -1.3509783 0.61270487
6.8728452 -1.3961107 0.61357641
6.8639374 -1.4392654 0.61357641
6.8644958 -1.4844698 0.61444795
6.8550334 -1.5275712 0.61444795
6.8550096 -1.5728401 0.61531955
6.8546872 -1.6181688 0.61619109
6.8540659 -1.6635556 0.61706263
6.8531904 -1.7088113 0.61793423
6.8521223 -1.7537096 0.61880577
6.8507113 -1.798848 0.61967731
6.8392735 -1.8418566 0.61967731
6.8371687 -1.8874433 0.6205489
6.5833144 -1.9065181 0.59963149
6.5904784 -1.9529312 0.60137463
4.8884292 -1.8591372 0.45756763
4.7744741 -1.850219 0.44798052
3.2125525 -1.6818027 0.31724688
3.1667361 -1.6832517 0.31376067
3.1210299 -1.6841921 0.31027445
3.0579638 -1.6750535 0.3050451
3.0125976 -1.6747892 0.30155885
2.9674559 -1.6738454 0.29807264
2.9137056 -1.6676184 0.29371485
2.8685658 -1.6661327 0.29022861
2.8236098 -1.6640633 0.28674239
2.7788966 -1.6613245 0.28325617
2.734376 -1.6580158 0.27976993
2.6901062 -1.6540543 0.27628371
2.6544001 -1.6549518 0.27366903
2.6186888 -1.6556264 0.27105436
2.5746882 -1.6505417 0.26756811
2.5308561 -1.6449704 0.2640819
2.4955156 -1.6443957 0.26146722
2.4602828 -1.6434425 0.25885254
2.4252067 -1.642046 0.25623786
2.3903434 -1.6401321 0.25362322
2.3555534 -1.6379143 0.25100854
2.3289294 -1.6412053 0.24926542
2.2942507 -1.6384374 0.24665074
2.2596998 -1.6352991 0.24403608
2.2253244 -1.6317313 0.2414214
2.1911807 -1.6276665 0.23880672
2.1650891 -1.6292911 0.23706362
2.1389651 -1.6307826 0.23532051
2.1050248 -1.6259209 0.23270583
2.0790763 -1.6268369 0.23096271
2.045393 -1.6213034 0.22834805
2.01963 -1.6216488 0.22660492
1.9939442 -1.6217347 0.22486182
1.9683375 -1.6215626 0.22311869
1.9428569 -1.6210798 0.22137558
1.9175566 -1.6202278 0.21963246
1.892298 -1.6191765 0.21788935
1.8670305 -1.6179858 0.21614625
1.8418531 -1.6165421 0.21440312
1.8167683 -1.6148463 0.21266001
1.791778 -1.6128998 0.21091689
1.7668844 -1.6107035 0.20917378
1.742134 -1.6082107 0.20743066
1.7175807 -1.605369 0.20568755
1.7003213 -1.6091791 0.204816
1.6757926 -1.606045 0.20307288
1.6513709 -1.6026666 0.20132977
1.6270584 -1.5990454 0.19958664
1.6099182 -1.6022097 0.19871509
1.585786 -1.5981505 0.19697197
1.5687411 -1.6009673 0.19610041
1.5517236 -1.6036332 0.19522886
1.5278965 -1.5989045 0.19348575
1.5111231 -1.6010956 0.19261418
1.4875449 -1.5958942 0.19087107
1.4707417 -1.5978795 0.18999952
1.4473161 -1.5923052 0.1882564
1.4307675 -1.5938292 0.18738484
1.4075609 -1.5878316 0.18564174
1.3908564 -1.5892698 0.18477017
1.3742783 -1.5904844 0.18389861
1.3579308 -1.591391 0.18302706
1.3287437 -1.5769564 0.18041238
1.3124382 -1.5776156 0.17954083
1.296177 -1.5781325 0.17866927
1.2799615 -1.5785077 0.1777977
1.2576102 -1.5709301 0.1760546
1.2478529 -1.5786918 0.1760546
1.2257466 -1.5707198 0.17431149
1.2097741 -1.5704983 0.17343992
1.1998825 -1.5780686 0.17343992
1.183964 -1.5776087 0.17256837
1.1680988 -1.5770115 0.17169681
1.1522882 -1.5762775 0.17082526
1.136533 -1.5754074 0.16995369
1.1208346 -1.5744019 0.16908213
1.1109203 -1.5814131 0.16908213
1.0896119 -1.5719872 0.16733903
1.0740899 -1.5705794 0.16646747
1.0586288 -1.5690389 0.1655959
1.0432726 -1.5673379 0.16472435
1.0280732 -1.5654449 0.1638528
1.0128946 -1.5634519 0.16298124
-1.0681682 -1.5504782 0.16472435
-1.0894315 -1.5599768 0.16646747
-1.1050173 -1.5611964 0.16733903
-1.1146694 -1.5543197 0.16733903
-1.1184648 -1.5392936 0.16646747
-1.122208 -1.5242136 0.1655959
-1.1377194 -1.5251174 0.16646747
-1.1532862 -1.5258862 0.16733903
-1.1628509 -1.5186098 0.16733903
-1.1845818 -1.5270158 0.16908213
-1.2064637 -1.5352082 0.17082526
-1.2098813 -1.5198036 0.16995369
-1.2256182 -1.51996 0.17082526
-1.2350121 -1.5123372 0.17082526
-1.2570977 -1.5199754 0.17256837
-1.2730203 -1.5196835 0.17343992
-1.2889885 -1.5192512 0.17431149
-1.3114938 -1.5262336 0.1760546
-1.3275974 -1.5254778 0.17692615
-1.3371559 -1.5171062 0.17692615
-1.3665632 -1.5309703 0.17954083
-1.3694751 -1.5149637 0.17866927
-1.3856521 -1.5137151 0.17954083
-1.4017764 -1.5124068 0.18041238
-2.1762524 -2.2051203 0.27105436
-2.2604845 -2.2618661 0.27976993
-2.2463069 -2.2196109 0.27628371
-1.6746205 -1.5344571 0.19871509
-1.6545504 -1.4973139 0.19522886
-1.6564087 -1.4803499 0.19435731
-1.7030243 -1.5028708 0.19871509
-1.719944 -1.4986852 0.19958664
-1.7444295 -1.5008438 0.20132977
-1.776602 -1.5092024 0.20394443
-1.7936822 -1.5044117 0.204816
-1.8030993 -1.4931121 0.204816
-1.8201576 -1.4880587 0.20568755
-1.8372234 -1.4828498 0.20655911
-1.8698776 -1.4899007 0.20917378
-1.8948619 -1.4904402 0.21091689
-2.0003233 -1.3984318 0.21353157
-2.0090704 -1.3858358 0.21353157
-2.0095024 -1.3675803 0.21266001
-2.0676796 -1.3882452 0.21788935
-2.1095834 -1.3972298 0.22137558
-2.1266606 -1.3893961 0.22224714
-2.1437223 -1.3814026 0.22311869
-2.1691747 -1.3785927 0.22486182
-2.1946759 -1.3755171 0.22660492
-2.2286978 -1.3774124 0.2292196
-2.2543218 -1.37375 0.23096271
-2.2799499 -1.3698819 0.23270583
-2.3141062 -1.3709618 0.23532051
-2.3397977 -1.3665824 0.23706362
-2.3742387 -1.3667643 0.23967829
-2.4001088 -1.3616511 0.2414214
-2.4347026 -1.3611281 0.24403608
-2.4606583 -1.3554164 0.24577919
-2.4953933 -1.3541836 0.24839386
-2.5302088 -1.3525671 0.25100854
-2.5739164 -1.3552072 0.25449476
-2.6000681 -1.3481795 0.25623786
-2.6351049 -1.3454062 0.25885254
-2.6791091 -1.3467194 0.26233879
-2.7143037 -1.343114 0.26495346
-2.7585139 -1.3434809 0.26843968
-2.7938511 -1.339039 0.27105436
-2.8382506 -1.3384546 0.27454057
-2.8737149 -1.3331721 0.27715525
-2.9182866 -1.3316318 0.2806415
-2.9629512 -1.3295834 0.28412771
-3.0168178 -1.3310469 0.2884855
-3.0616789 -1.3279213 0.29197174
-3.1066182 -1.3242838 0.29545796
-3.1516314 -1.3201334 0.29894421
-3.2509451 -1.314396 0.30678821
-3.3053555 -1.3125218 0.31114599
-3.3599451 -1.3098192 0.31550378
-3.4239335 -1.3100418 0.32073313
-3.4134445 -1.2815001 0.31899002
-3.4120808 -1.2565849 0.31811845
-3.4105392 -1.2317375 0.31724688
-3.4088204 -1.2069594 0.31637534
-3.2939885 -1.1430608 0.3050451
-3.3011055 -1.1223416 0.3050451
-3.3080921 -1.1015781 0.3050451
-4.9447227 -1.2097375 0.44536585
-5.0588298 -1.2040185 0.45495296
-5.8136215 -1.3451231 0.5220629
-5.7830806 -1.2998286 0.51857668
-5.8884635 -1.2847034 0.52729225
-6.1010885 -1.2909861 0.54559493
-6.3042574 -1.2926482 0.56302607
-6.4392819 -1.2782258 0.57435632
-6.8091674 -1.3072373 0.60660398
-6.4940157 -1.2044753 0.57784259
-6.5014548 -1.1636504 0.57784259
-6.5086384 -1.122776 0.57784259
-6.6531177 -1.1048863 0.59004438
-6.8565812 -1.095064 0.60747552
-7.0799241 -1.0853974 0.6266498
-7.3133898 -1.0735518 0.64669561
-7.5469255 -1.0591843 0.66674143
-7.8100581 -1.0468112 0.68940192
-8.0634632 -1.0297396 0.71119082
-10.641026 -1.2910064 0.93779576
-11.054695 -1.2707688 0.97352964
-11.498226 -1.2486023 1.0118781
-11.852704 -1.211798 1.0423827
-11.879917 -1.1392003 1.0441258
-11.866996 -1.0627605 1.0423827
-11.853583 -0.98652166 1.0406395
-11.839683 -0.91049975 1.0388964
-11.835233 -0.83538669 1.0380249
-12.297554 -0.79040325 1.0781165
-12.294957 0.44492117 1.0763735
-12.341683 0.52428079 1.0807312
-12.348096 0.60229719 1.0816027
-12.352874 0.99225992 1.0842174
-12.266997 1.0629719 1.077245
-12.537813 1.1658556 1.1016486
-12.163486 1.2078435 1.0694009
-12.18549 1.2863235 1.0720156
-12.187149 1.3632327 1.0728872
-12.178343 1.4397829 1.0728872
-12.169057 1.5162696 1.0728872
-12.149411 1.5914091 1.0720156
-11.774011 1.6175442 1.039768
-10.955051 1.5752298 0.96830028
-10.284892 1.5448833 0.90990591
-10.304508 1.614102 0.91252059
-9.0258284 1.4719671 0.80008972
-8.5351334 1.4470564 0.75738341
-8.0647497 1.4194901 0.71642017
-7.6440678 1.3950199 0.67981476
-7.2729716 1.3745682 0.64756715
-6.9317789 1.3552494 0.61793423
-6.6106215 1.3358251 0.59004438
-6.3094234 1.3168497 0.56389767
-6.0672503 1.3063484 0.54298025
-5.8256254 1.2921444 0.5220629
-5.6038089 1.2795823 0.50288862
-5.401701 1.2691956 0.48545748
-5.2096367 1.2586581 0.46889788
-5.0275931 1.2481619 0.45320985
-4.8555479 1.237888 0.43839338
1.0177714 0.96498531 -0.22213693
1.0310243 0.96532196 -0.22370128
1.0443215 0.96552986 -0.22526562
1.0503675 0.95894915 -0.22526562
1.0636765 0.95897889 -0.22682998
1.0769743 0.95893812 -0.22839431
1.0977925 0.96521956 -0.23152301
1.103919 0.95820665 -0.23152301
1.1099696 0.95119113 -0.23152301
1.1234642 0.95057791 -0.23308735
1.1369946 0.9498325 -0.2346517
1.1505598 0.94895428 -0.23621604
1.1564995 0.94170642 -0.23621604
1.1777894 0.94679779 -0.23934473
1.1914208 0.94555765 -0.24090907
1.1972566 0.93815762 -0.24090907
1.2108889 0.9367255 -0.24247342
1.2324506 0.94108719 -0.2456021
1.2383393 0.93332493 -0.2456021
1.2600285 0.937316 -0.24873079
1.2738544 0.93522578 -0.25029513
1.2877036 0.93299854 -0.25185949
1.3096092 0.93637866 -0.25498816
1.323537 0.93382573 -0.25655252
1.3455902 0.93677783 -0.2596812
1.3595908 0.93389696 -0.26124555
1.373608 0.93087697 -0.2628099
1.3876407 0.92771745 -0.26437426
1.4099327 0.92985588 -0.26750293
1.4240265 0.92636454 -0.26906729
1.4381318 0.92273259 -0.27063161
1.4522474 0.91895974 -0.27219597
1.4747511 0.92027467 -0.27532464
1.4889162 0.91616648 -0.276889
1.5115318 0.91703969 -0.28001767
1.5342165 0.91766429 -0.28314638
1.5484601 0.91302311 -0.28471074
1.571245 0.91320199 -0.28783941
1.5940925 0.91313016 -0.29096809
1.6170005 0.91280693 -0.2940968
1.6399667 0.9122315 -0.29722548
1.6629888 0.91140312 -0.30035415
1.6860348 0.91037625 -0.30348286
1.7003628 0.90455109 -0.30504721
1.7234609 0.90311122 -0.30817589
1.7554328 0.90585244 -0.31286892
1.7698952 0.89927894 -0.31443328
1.7931774 0.89697784 -0.31756195
1.8164998 0.89441937 -0.32069066
1.8398601 0.89160287 -0.32381934
1.8721712 0.89277917 -0.32851237
1.8956269 0.8893891 -0.33164105
1.9101454 0.88160002 -0.3332054
1.9516215 0.88591105 -0.33946279
1.9751875 0.88168311 -0.34259146
1.9987768 0.87719369 -0.34572017
2.031456 0.87635463 -0.3504132
2.0642023 0.87513912 -0.35510623
2.0970125 0.87354618 -0.35979927
2.1207421 0.86783445 -0.36292794
2.1536462 0.86554182 -0.36762097
2.1957917 0.86649507 -0.37387836
2.2288227 0.8633846 -0.37857139
2.2619002 0.85989279 -0.38326442
2.3042748 0.85947073 -0.38952181
2.3467319 0.85854983 -0.39577919
2.3799424 0.85387141 -0.40047222
2.4224555 0.85222042 -0.40672961
2.455729 0.84677416 -0.41142264
2.5077879 0.84713244 -0.41924435
2.5505695 0.84376723 -0.42550173
5.0264225 -1.8418967 -0.84787476
4.940732 -1.8457898 -0.83536005
4.8367333 -1.8416507 -0.81971657
4.7421932 -1.8398515 -0.80563748
4.6570554 -1.8405687 -0.79312271
3.2756269 -1.6643374 -0.58193618
3.2212193 -1.6622391 -0.5741145
3.1669691 -1.6595241 -0.56629276
3.1216011 -1.660833 -0.56003535
3.0676532 -1.6569443 -0.55221367
3.0138788 -1.6524441 -0.54439193
2.9689686 -1.65204 -0.53813457
2.9156721 -1.6461244 -0.53031284
2.8710268 -1.6447101 -0.52405542
2.8263359 -1.6431099 -0.51779807
2.781837 -1.6409171 -0.51154071
2.7375703 -1.6380776 -0.5052833
2.6935036 -1.6346593 -0.49902594
2.6580889 -1.6357867 -0.49433291
2.6143315 -1.6313961 -0.48807552
2.5789909 -1.631946 -0.48338249
2.5354345 -1.626783 -0.47712511
2.5003257 -1.6265236 -0.47243208
2.4653211 -1.6258882 -0.46773905
2.430424 -1.6248777 -0.46304601
2.3956912 -1.6234151 -0.45835298
2.361161 -1.6214535 -0.45365995
2.3348017 -1.6248454 -0.45053124
2.2922611 -1.6167126 -0.44427386
2.2659869 -1.6195968 -0.44114518
2.2317686 -1.6164216 -0.43645215
2.2056961 -1.6186523 -0.43332347
2.1718457 -1.6146091 -0.42863044
2.1459672 -1.6162217 -0.42550173
2.1122139 -1.6116989 -0.4208087
2.086417 -1.6128571 -0.41768003
2.0529134 -1.6076655 -0.41298699
2.0272965 -1.6082553 -0.40985829
2.0017533 -1.6085876 -0.40672961
1.9762869 -1.608663 -0.4036009
1.9432783 -1.6021991 -0.39890787
1.9180629 -1.6016533 -0.39577919
1.8930188 -1.6007515 -0.39265051
1.8680077 -1.5996625 -0.38952181
1.8429967 -1.5984253 -0.38639313
1.8254966 -1.6034554 -0.38482878
1.8006265 -1.6017644 -0.3817001
1.7758504 -1.5998248 -0.37857139
1.7511703 -1.5976374 -0.37544271
1.7266406 -1.5951471 -0.37231401
1.702298 -1.5923202 -0.36918533
1.6851761 -1.5961003 -0.36762097
1.6679862 -1.5998201 -0.36605665
1.6437312 -1.5965058 -0.36292794
1.626626 -1.5998763 -0.36136362
1.6025456 -1.596125 -0.35823491
1.5855312 -1.5991488 -0.35667059
1.5616325 -1.5949646 -0.35354188
1.5447148 -1.5976444 -0.35197753
1.521057 -1.5929816 -0.34884885
1.5043815 -1.5951896 -0.3472845
1.4809533 -1.5900736 -0.34415582
1.4642473 -1.5920775 -0.34259146
1.4476267 -1.5938874 -0.34102714
1.4311285 -1.5954736 -0.33946279
1.4080129 -1.5896161 -0.33633408
1.391356 -1.5911183 -0.33476976
1.3748417 -1.5923833 -0.3332054
1.358541 -1.5933552 -0.33164105
1.3358678 -1.5866748 -0.32851237
1.3195584 -1.5874416 -0.32694802
1.2970265 -1.5804313 -0.32381934
1.2808532 -1.5808754 -0.32225499
1.270947 -1.5888504 -0.32225499
1.248835 -1.5811925 -0.31912631
1.2328888 -1.5811514 -0.31756195
1.2169056 -1.5810397 -0.3159976
1.2009727 -1.5807898 -0.31443328
1.1910166 -1.5883045 -0.31443328
1.1692622 -1.5798783 -0.31130457
1.1534867 -1.5792179 -0.30974025
1.1435415 -1.5864342 -0.30974025
1.1278261 -1.5855396 -0.30817589
1.1178417 -1.5925946 -0.30817589
1.0965662 -1.5833473 -0.30504721
1.0865963 -1.5902059 -0.30504721
1.0710623 -1.588812 -0.30348286
1.0556411 -1.5872514 -0.30191851
1.0457865 -1.5937616 -0.30191851
1.0251052 -1.5836616 -0.29878983
1.0098197 -1.5817462 -0.29722548
-2.2232764 -2.3968787 -0.51779807
-2.2178769 -2.3613863 -0.51310503
-2.2258632 -2.3402476 -0.51154071
-2.2473745 -2.3333304 -0.51310503
-2.2481983 -2.3050225 -0.50997633
-2.2487555 -2.2767971 -0.50684768
-2.2490473 -2.248656 -0.50371897
-2.2279897 -2.1997836 -0.49589723
-1.6875869 -1.5646392 -0.3644923
-1.6536258 -1.5140413 -0.35510623
-1.6703007 -1.5103912 -0.35667059
-1.6870428 -1.5065372 -0.35823491
-1.7112917 -1.5089722 -0.36136362
-1.720739 -1.49819 -0.36136362
-1.7376081 -1.4937875 -0.36292794
-1.7695491 -1.5020156 -0.36762097
-1.7789515 -1.4908676 -0.36762097
-1.8035033 -1.4922535 -0.37074968
-1.8281419 -1.4933894 -0.37387836
-1.8451773 -1.4880737 -0.37544271
-1.8776718 -1.4949064 -0.38013574
-1.9025586 -1.4952856 -0.38326442
-1.9999814 -1.3970236 -0.38639313
-2.0249841 -1.3956403 -0.38952181
-2.0418808 -1.3884431 -0.39108616
-2.075171 -1.3920933 -0.39577919
-2.0921135 -1.384478 -0.39734355
-2.1255834 -1.3875021 -0.40203658
-2.1425638 -1.3794661 -0.4036009
-2.1678648 -1.3765657 -0.40672961
-2.1932132 -1.3734015 -0.40985829
-2.2186069 -1.3699727 -0.41298699
-2.2524796 -1.371415 -0.41768003
-2.2779443 -1.3674757 -0.4208087
-2.3033721 -1.3633978 -0.42393738
-2.3374116 -1.3639585 -0.42863044
-2.363059 -1.3590938 -0.43175912
-2.3973296 -1.3588306 -0.43645215
-2.431689 -1.3581898 -0.44114518
-2.4574807 -1.352409 -0.44427386
-2.4919779 -1.3510642 -0.44896692
-2.5265546 -1.3493387 -0.45365995
-2.5612068 -1.3472315 -0.45835298
-2.5959311 -1.3447416 -0.46304601
-2.6307244 -1.3418679 -0.46773905
-2.6744094 -1.3430421 -0.47399643
-2.7005033 -1.3349658 -0.47712511
-2.7443635 -1.3352567 -0.48338249
-2.7794242 -1.330783 -0.48807552
-2.8234711 -1.3301303 -0.49433291
-2.8676178 -1.3289759 -0.50059026
-2.9118602 -1.3273187 -0.50684768
-2.9561937 -1.3251573 -0.51310503
-3.0006135 -1.3224905 -0.51936239
-3.045115 -1.3193172 -0.5256198
-3.0896938 -1.3156363 -0.53187716
-3.1434565 -1.3152591 -0.5396989
-3.4495325 -1.2935038 -0.58350056
-3.5132098 -1.2922623 -0.59288663
-3.5770056 -1.2902708 -0.60227269
-3.6222892 -1.2809422 -0.60853004
-3.5929368 -1.2452201 -0.60227269
-3.6006896 -1.2226206 -0.60227269
-3.5989285 -1.1968559 -0.60070831
-3.587594 -1.1681039 -0.59757966
-3.5854521 -1.1425407 -0.59601527
-3.5925601 -1.1199902 -0.59601527
-3.5900786 -1.0945152 -0.59445095
-3.5874193 -1.0691156 -0.59288663
-4.8091311 -1.2066315 -0.78530103
-4.8837819 -1.1927937 -0.79625142
-4.9872737 -1.1849167 -0.81189483
-5.782392 -1.2972895 -0.9386068
-6.1211438 1.3204327 -0.99179447
-5.8814435 1.3069148 -0.95425022
-5.6613693 1.2950674 -0.91983461
-5.4512239 1.2830898 -0.88698339
-5.2606587 1.2731739 -0.85726088
-5.0800266 1.2632965 -0.82910264
-4.9093022 1.2536476 -0.80250877
1.0147319 0.94932026 0.17061707
1.0279672 0.94966096 0.17183577
1.0412465 0.94987255 0.17305447
1.0471581 0.94335151 0.17305447
1.0603982 0.94344288 0.17427316
1.0737514 0.94332409 0.17549185
1.0797391 0.93646473 0.17549185
1.1007258 0.94252002 0.17792924
1.106626 0.93558538 0.17792924
1.1201024 0.93497419 0.17914793
1.1336143 0.93423039 0.18036662
1.1394619 0.92708927 0.18036662
1.1530027 0.9261272 0.18158531
1.1665407 0.92507583 0.18280402
1.180065 0.92394924 0.18402271
1.193655 0.92264467 0.1852414
1.2152106 0.92716771 0.18767878
1.2210121 0.91951406 0.18767878
1.2426975 0.92366594 0.19011617
1.2564795 0.92171043 0.19133486
1.2783256 0.9254384 0.19377226
1.284115 0.9173882 0.19377226
1.297966 0.9150207 0.19499095
1.3036896 0.9068473 0.19499095
1.3257288 0.9098711 0.19742833
1.339638 0.90708834 0.19864702
1.3618178 0.90967977 0.20108442
1.3757945 0.90656656 0.20230311
1.3981075 0.90872246 0.20474049
1.4121455 0.90527666 0.20595919
1.426195 0.90169013 0.20717788
1.4486774 0.9032138 0.20961526
1.4627792 0.89929205 0.21083397
1.4853764 0.9003734 0.21327135
1.5080444 0.9012059 0.21570873
1.513677 0.89171284 0.21570873
1.5364165 0.89215273 0.21814612
1.5592207 0.89234173 0.22058351
1.5820872 0.89227909 0.2230209
1.6050137 0.89196384 0.22545828
1.6192923 0.88662851 0.22667697
1.6510041 0.89063591 0.23033306
1.6740197 0.88970566 0.23277044
1.688327 0.88385582 0.23398913
1.7114913 0.88232648 0.23642652
1.7435529 0.88503319 0.24008261
1.7579578 0.87849754 0.2413013
1.7812554 0.87619668 0.24373868
1.8045928 0.87363732 0.24617606
1.8279676 0.87081897 0.24861346
1.869352 0.87616599 0.25348824
1.8928473 0.87271482 0.25592563
1.9254118 0.87310177 0.25958169
1.9489897 0.86907125 0.2620191
1.9816827 0.86876374 0.26567516
2.0053325 0.8641513 0.26811254
2.0290017 0.8592757 0.27054992
2.061852 0.8579495 0.27420601
2.0947647 0.85624403 0.2778621
2.1277361 0.85415834 0.28151819
2.160763 0.85169172 0.28517425
2.1938419 0.84884334 0.28883034
2.226969 0.84561247 0.29248643
2.2601411 0.84199846 0.29614249
2.2933545 0.83800083 0.29979858
2.3359179 0.8370555 0.30467334
2.3785162 0.83572733 0.30954814
2.4118338 0.83057886 0.3132042
2.4546235 0.82809973 0.31807899
2.5069003 0.82822877 0.32417244
2.54983 0.82467866 0.32904723
2.5928125 0.82062125 0.333922
2.6358433 0.81605583 0.33879676
7.0630455 1.0206316 0.87624055
7.0693188 0.97623408 0.87624055
7.0654726 0.93050122 0.87502187
7.0711799 0.88608944 0.87502187
7.0766077 0.84164262 0.87502187
7.0817561 0.79716259 0.87502187
7.066885 0.75055456 0.87258446
7.0615849 0.7051512 0.87136579
7.0461116 0.65891993 0.86892843
7.0501127 0.61463511 0.86892843
7.0439205 0.56979531 0.8677097
7.0473156 0.52614069 0.8677097
7.0405564 0.48152015 0.86649102
7.0434427 0.43727374 0.86649102
7.046051 0.39301005 0.86649102
7.0483813 0.34873086 0.86649102
7.0405173 0.30400974 0.86527234
7.0422883 0.25976801 0.86527234
7.0338607 0.21521156 0.86405361
7.0350738 0.17101248 0.86405361
7.0260859 0.12662779 0.86283493
7.0267429 0.082479313 0.86283493
7.0271206 0.038596123 0.86283493
7.027225 -0.0049442183 0.86283493
7.0171323 -0.048683126 0.86161625
7.0266128 -0.092903115 0.86283493
7.0159664 -0.136857 0.86161625
7.0050459 -0.18068078 0.86039758
7.0136929 -0.22500925 0.86161625
7.0022225 -0.26869234 0.86039758
7.0003963 -0.31268308 0.86039758
6.9982934 -0.3566615 0.86039758
6.9959292 -0.40035844 0.86039758
6.9933147 -0.44369709 0.86039758
6.9904127 -0.48728496 0.86039758
6.9872131 -0.53119719 0.86039758
6.9837375 -0.57508844 0.86039758
6.9799862 -0.61895603 0.86039758
6.9759598 -0.66280013 0.86039758
6.9716573 -0.70661813 0.86039758
6.9670801 -0.75040817 0.86039758
6.9622273 -0.79416859 0.86039758
6.9669867 -0.83881825 0.86161625
6.9616556 -0.88196915 0.86161625
6.9560223 -0.92535108 0.86161625
6.8419366 -0.95396161 0.84821063
7.4546075 -1.0868864 0.92498833
6.8982272 -1.0494556 0.85674149
6.8719029 -1.0895936 0.85430408
6.8942013 -1.1381984 0.85796016
6.9064202 -1.185189 0.86039758
6.8792939 -1.2250794 0.85796016
6.8617487 -1.2662152 0.85674149
6.8635206 -1.3105674 0.85796016
6.8649549 -1.3552517 0.85917884
6.8563042 -1.3983585 0.85917884
6.8473825 -1.4414101 0.85917884
6.8478904 -1.4865094 0.86039758
6.8481016 -1.5316728 0.86161625
6.8480148 -1.5768975 0.86283493
6.84763 -1.6221815 0.86405361
6.8373027 -1.6651742 0.86405361
6.8363991 -1.7102491 0.86527234
6.8352847 -1.7550426 0.86649102
6.8338089 -1.8001481 0.8677097
6.8319454 -1.845639 0.86892843
6.8202143 -1.8885287 0.86892843
6.588594 -1.8690425 0.84089845
6.5863252 -1.9129198 0.84211713
6.5933747 -1.9593462 0.84455454
3.262862 -1.6853505 0.45091656
3.2170491 -1.6873771 0.44604179
3.1625805 -1.6842297 0.43994832
3.1082802 -1.6804653 0.43385485
3.062855 -1.6808614 0.42898008
3.0176132 -1.6806382 0.42410532
2.9725773 -1.6797707 0.41923052
2.9103205 -1.6687593 0.41191837
2.8738945 -1.6722896 0.40826228
2.8205123 -1.6652237 0.40216884
2.7844484 -1.6676134 0.39851275
2.7400475 -1.6643584 0.39363798
2.6958785 -1.6604824 0.38876319
2.6602194 -1.6614828 0.38510713
2.6161866 -1.656922 0.38023233
2.5806694 -1.6572375 0.37657627
2.5369346 -1.6517568 0.37170148
2.5016556 -1.6512609 0.36804542
2.4582345 -1.6448678 0.36317062
2.4314854 -1.6490451 0.36073324
2.396682 -1.6472131 0.35707718
2.361933 -1.6451037 0.35342109
2.3272235 -1.6427401 0.349765
2.3007107 -1.6457807 0.34732762
2.2581797 -1.6369028 0.34245285
2.2239141 -1.633347 0.33879676
2.1978252 -1.6352453 0.33635938
2.16381 -1.6309918 0.33270329
2.137743 -1.6325072 0.33026591
2.1117427 -1.6337599 0.32782853
2.0780001 -1.6286277 0.32417244
2.0444059 -1.6231371 0.32051638
2.0186982 -1.6235096 0.31807899
1.993067 -1.6236237 0.31564158
1.9675149 -1.6234804 0.3132042
1.9421055 -1.6230066 0.31076682
1.9168594 -1.6221848 0.30832943
1.8916364 -1.6211853 0.30589205
1.8664215 -1.6200266 0.30345467
1.8338419 -1.6120623 0.29979858
1.8162636 -1.616953 0.29857987
1.783953 -1.6083941 0.29492381
1.7664822 -1.6128788 0.29370511
1.7417998 -1.6104025 0.29126772
1.7172967 -1.6075972 0.28883034
1.6928343 -1.6046156 0.28639296
1.6755583 -1.6083469 0.28517425
1.6511854 -1.6050067 0.28273687
1.6339947 -1.608387 0.28151819
1.6097974 -1.6046078 0.27908078
1.5857126 -1.6005887 0.2766434
1.5617423 -1.5963308 0.27420601
1.5447851 -1.5989736 0.27298734
1.5210664 -1.594227 0.27054992
1.5043527 -1.596397 0.26933125
1.4876094 -1.5984786 0.26811254
1.4708205 -1.6004858 0.26689386
1.4474561 -1.5949401 0.26445648
1.4309217 -1.5964864 0.26323777
1.4143019 -1.5979975 0.2620191
1.3910317 -1.5920264 0.25958169
1.3745004 -1.5932348 0.25836301
1.351729 -1.5866098 0.25592563
1.335422 -1.5874106 0.25470692
1.31908 -1.5881346 0.25348824
1.3027818 -1.5887163 0.25226954
1.2802835 -1.5814419 0.24983215
1.2641857 -1.5816529 0.24861346
1.2482129 -1.5816637 0.24739476
1.2322282 -1.5815849 0.24617606
1.2162157 -1.5814282 0.24495737
1.2002541 -1.581133 0.24373868
1.1783929 -1.5727568 0.2413013
1.1684878 -1.5801297 0.2413013
1.1468341 -1.5714055 0.23886392
1.1369381 -1.5785803 0.23886392
1.1212473 -1.5776024 0.23764521
1.1056137 -1.57649 0.23642652
1.0900388 -1.5752437 0.23520783
1.0745232 -1.5738643 0.23398913
1.0590683 -1.5723524 0.23277044
1.0492287 -1.5789355 0.23277044
1.0339837 -1.5771054 0.23155175
1.0187415 -1.5751865 0.23033306
1.0034866 -1.5731883 0.22911437
1.0102617 -3.8805361 0.49235213
-1.0654858 -1.5439516 0.23033306
-1.0923681 -1.5615315 0.23398913
-1.1079154 -1.5627222 0.23520783
-1.1175765 -1.5558277 0.23520783
-1.1330948 -1.5568554 0.23642652
-1.1428543 -1.5497053 0.23642652
-1.1585099 -1.550445 0.23764521
-1.1742196 -1.5510488 0.23886392
-1.1899824 -1.5515161 0.24008261
-1.2057972 -1.5518463 0.2413013
-1.2093849 -1.5364401 0.24008261
-1.2190148 -1.5288111 0.24008261
-1.2410105 -1.5366122 0.24251999
-1.2567912 -1.5365765 0.24373868
-1.2600143 -1.521068 0.24251999
-1.2695466 -1.5131211 0.24251999
-1.2854559 -1.5126779 0.24373868
-1.3143591 -1.5271399 0.24739476
-1.3304502 -1.5263335 0.24861346
-1.3334454 -1.5105029 0.24739476
-1.3561404 -1.5168939 0.24983215
-2.2386842 -2.3224809 0.39607537
-2.2532325 -2.3083692 0.39607537
-2.2607143 -2.2871072 0.39485666
-2.2539747 -2.2518127 0.39120057
-1.6696711 -1.5275441 0.2778621
-1.6349165 -1.4772444 0.27054992
-1.6663116 -1.4868479 0.27420601
-1.7128568 -1.5091567 0.28029948
-1.7148169 -1.4918501 0.27908078
-1.7392144 -1.4939815 0.28151819
-1.7561365 -1.4894444 0.28273687
-1.7882895 -1.4974978 0.28639296
-1.7976632 -1.4862322 0.28639296
-1.8146552 -1.481184 0.28761163
-1.8393829 -1.4822086 0.29004905
-1.8641944 -1.4829804 0.29248643
-1.9047 -1.4957587 0.2973612
-2.0114219 -1.3665766 0.29857987
-2.0611925 -1.3815423 0.30467334
-2.0946703 -1.3849871 0.30832943
-2.1199582 -1.3826429 0.31076682
-2.153646 -1.3854049 0.31442291
-2.1790705 -1.3824804 0.31686029
-2.2045422 -1.3792906 0.31929767
-2.2300594 -1.3758348 0.32173505
-2.2556195 -1.3721125 0.32417244
-2.2811682 -1.3682097 0.32660982
-2.3152313 -1.3692071 0.33026591
-2.3408716 -1.3647451 0.33270329
-2.3752177 -1.3648454 0.33635938
-2.4010201 -1.3596765 0.33879676
-2.4355173 -1.359074 0.34245285
-2.4787986 -1.3628725 0.34732762
-2.5047677 -1.3567253 0.349765
-2.5395136 -1.3549777 0.35342109
-2.5655491 -1.3482293 0.35585847
-2.6092296 -1.3503307 0.36073324
-2.6441927 -1.3474292 0.36438933
-2.6880929 -1.3485919 0.3692641
-2.7232115 -1.3448604 0.37292019
-2.7583883 -1.3407404 0.37657627
-2.8025734 -1.3405138 0.38145104
-2.8468633 -1.3397841 0.38632581
-2.8912532 -1.3385502 0.39120057
-2.9267056 -1.3326974 0.39485666
-2.9712563 -1.3305078 0.39973143
-3.0158935 -1.3278104 0.40460622
-3.0697217 -1.3285462 0.41069967
-3.1054091 -1.3208873 0.41435575
-3.1594362 -1.320487 0.42044923
-3.2584612 -1.3144997 0.43141747
-3.312731 -1.3124396 0.43751094
-3.3671641 -1.3095881 0.44360441
-3.4309633 -1.3096433 0.45091656
-3.4112394 -1.2776165 0.44726047
-3.4191995 -1.2561579 0.44726047
-3.4176867 -1.2312856 0.44604179
-3.397279 -1.1998711 0.4423857
-3.2921972 -1.1395431 0.42776138
-3.3180914 -1.1252103 0.43019879
-3.3062568 -1.0980831 0.42776138
-3.4263589 -1.1141181 0.4423857
-3.4238334 -1.0895579 0.44116703
-4.862144 -1.2179028 0.61544019
-4.9757733 -1.2131917 0.62884581
-5.8030519 -1.3378752 0.73121607
-5.7726011 -1.2927129 0.72634125
-5.9454927 -1.2922531 0.74705905
-6.2642803 -1.32038 0.78605723
-6.330802 -1.292909 0.79336941
-6.4361701 -1.2723567 0.80555636
-6.42454 -1.2281631 0.80311894
-6.500453 -1.2003909 0.8116498
-6.4980955 -1.1577811 0.81043112
-6.5052414 -1.1169314 0.81043112
-6.6687717 -1.1021795 0.82993019
-6.8715219 -1.0919936 0.85430408
-7.1039133 -1.0832822 0.88233405
-7.3365617 -1.070982 0.91036397
-7.5692511 -1.0563408 0.93839395
-7.8216138 -1.0421944 0.96886128
-8.123353 -1.0309024 1.0054221
-10.681893 -1.2874556 1.3210636
-11.103951 -1.2675928 1.3722488
-11.565638 -1.2467362 1.4283087
-11.839863 -1.2010868 1.4612134
-11.837295 -1.1257349 1.4599947
-11.854021 -1.0522115 1.4612134
-11.850506 -0.97689784 1.4599947
-11.846513 -0.9016636 1.458776
-11.832142 -0.82583332 1.4563386
-12.342278 -0.7835418 1.518492
-12.263391 0.91724437 1.5099611
-12.247494 0.99347329 1.5087425
-12.231122 1.0695453 1.5075238
-12.510742 1.1732461 1.5428659
-12.157506 1.2167587 1.5002116
-12.179343 1.295213 1.5038676
-12.180896 1.3722235 1.5050864
-12.172033 1.4487276 1.5050864
-12.16269 1.5251811 1.5050864
-12.143027 1.600271 1.5038676
-11.64113 1.608608 1.442933
-10.825283 1.565246 1.3430002
-10.14787 1.5324545 1.260129
-9.5301504 1.500473 1.18457
-8.9720268 1.47043 1.1163231
-8.4538164 1.4400986 1.0529511
-7.9754562 1.4102342 0.99445385
-7.5564013 1.385152 0.94326872
-7.1867485 1.364121 0.89817703
-6.8566313 1.3461469 0.85796016
-6.5367122 1.3263086 0.81896198
-6.2658396 1.3129609 0.78605723
-6.014915 1.299955 0.7555899
-5.7742257 1.2854364 0.72634125
-5.5532575 1.2726305 0.69953001
-5.3712626 1.2664943 0.67759353
-5.1895695 1.2581257 0.65565705
-5.0082016 1.2475228 0.63372058
-4.8367939 1.2371545 0.61300278
1.0235385 0.96892786 -0.17305447
1.0296061 0.96247768 -0.17305447
1.0502197 0.96945417 -0.17549185
1.0489547 0.95615 -0.17427316
1.0622771 0.95622689 -0.17549185
1.0830173 0.962816 -0.17792924
1.0890454 0.95599234 -0.17792924
1.0951134 0.94903523 -0.17792924
1.1086376 0.94854033 -0.17914793
1.1221577 0.94796103 -0.18036662
1.1280917 0.94089162 -0.18036662
1.1416432 0.94009453 -0.18158531
1.1552289 0.93916392 -0.18280402
1.1688477 0.9380995 -0.18402271
1.1824576 0.93695241 -0.1852414
1.1960576 0.93572384 -0.18646009
1.209728 0.93430978 -0.18767878
1.2234679 0.93270791 -0.18889748
1.2451661 0.93693775 -0.19133486
1.2510284 0.92909569 -0.19133486
1.2728521 0.93295223 -0.19377226
1.2867309 0.93075353 -0.19499095
1.300632 0.92841703 -0.19620964
1.3226688 0.93165803 -0.19864702
1.3366467 0.9289937 -0.19986571
1.3588288 0.93180352 -0.20230311
1.3646566 0.9232474 -0.20230311
1.3869418 0.92567486 -0.20474049
1.3927305 0.91694224 -0.20474049
1.4151127 0.91898495 -0.20717788
1.4375749 0.92078221 -0.20961526
1.4517233 0.9170323 -0.21083397
1.4658812 0.91314071 -0.21205266
1.4885044 0.91430223 -0.21449004
1.5111995 0.91521502 -0.21692742
1.5339642 0.9158783 -0.21936481
1.5482423 0.91125661 -0.22058351
1.5711079 0.91147226 -0.2230209
1.5940366 0.91143608 -0.22545828
1.608379 0.90627509 -0.22667697
1.6313968 0.90578753 -0.22911437
1.663179 0.90980953 -0.23277044
1.6775607 0.90412343 -0.23398913
1.7094293 0.90767628 -0.23764521
1.7238547 0.90159261 -0.23886392
1.7471333 0.89983279 -0.2413013
1.7704571 0.8978157 -0.24373868
1.8027042 0.89997399 -0.24739476
1.8172313 0.89300704 -0.24861346
1.840677 0.89021432 -0.25105083
1.8731209 0.8914271 -0.25470692
1.8966627 0.8880583 -0.2571443
1.9202354 0.8844282 -0.25958169
1.9528778 0.88463217 -0.26323777
1.9855975 0.88446039 -0.26689386
2.0092993 0.87993026 -0.26933125
2.0330217 0.87513691 -0.27176863
2.0750449 0.87781394 -0.2766434
2.0988498 0.87237781 -0.27908078
2.1226678 0.86667693 -0.28151819
2.164921 0.86809891 -0.28639296
2.1888037 0.86175138 -0.28883034
2.2219493 0.85871571 -0.29248643
2.2644227 0.85881692 -0.2973612
2.3069835 0.85841769 -0.30223596
2.3403032 0.85411447 -0.30589205
2.3829665 0.85287398 -0.31076682
2.4163017 0.84795278 -0.31442291
2.4590888 0.84577239 -0.31929767
2.4925723 0.83981216 -0.32295376
2.5543537 0.842794 -0.33026591
2.5879338 0.83587992 -0.333922
2.6404545 0.83455932 -0.34001547
7.1746898 1.0799468 -0.89086491
7.1715097 1.0334301 -0.88964617
7.1876941 0.98970491 -0.89086491
7.1937704 0.94452393 -0.89086491
7.199563 0.89930576 -0.89086491
7.1853585 0.85171533 -0.8884275
7.2300224 0.81097734 -0.89330226
7.2152348 0.7634452 -0.89086491
7.2100124 0.71711338 -0.88964617
7.204493 0.67087734 -0.8884275
7.1986775 0.62473899 -0.88720882
7.1925421 0.57901436 -0.88599008
7.2058897 0.53517383 -0.88720882
7.2090888 0.49020243 -0.88720882
7.2417464 0.44673029 -0.89086491
7.9398584 0.090079121 -0.97495472
7.9799671 0.040739469 -0.97982949
7.9701409 -0.0086938646 -0.97861081
7.9699316 -0.058423225 -0.97861081
7.9594827 -0.10836327 -0.97739214
7.9685678 -0.15856926 -0.97861081
7.9574924 -0.20837405 -0.97739214
7.946106 -0.25804594 -0.9761734
7.9443278 -0.30796745 -0.9761734
7.9422359 -0.35787681 -0.9761734
7.9398303 -0.40777203 -0.9761734
6.8572755 -0.9149555 -0.84942931
7.5591388 -1.0569863 -0.93717521
6.8943858 -1.0079322 -0.85552275
6.8781962 -1.0491334 -0.85430408
6.8812709 -1.0938878 -0.85552275
6.883955 -1.1393225 -0.85674149
6.8863907 -1.1845359 -0.85796016
6.8788123 -1.2277807 -0.85796016
6.8807778 -1.2724819 -0.85917884
6.8532643 -1.3113596 -0.85674149
6.8546853 -1.356021 -0.85796016
6.8557544 -1.4010507 -0.85917884
6.8565278 -1.4461472 -0.86039758
6.8473063 -1.4891983 -0.86039758
6.8474998 -1.5343618 -0.86161625
6.8377237 -1.5773555 -0.86161625
6.8373351 -1.6225786 -0.86283493
6.8462906 -1.6702114 -0.86527234
6.8357363 -1.7128962 -0.86527234
6.8346047 -1.7576892 -0.86649102
6.8331017 -1.8028315 -0.8677097
6.8120584 -1.843137 -0.86649102
6.5707955 -1.8222427 -0.83724236
6.5687642 -1.8662046 -0.83846104
6.6046448 -1.9210141 -0.84455454
5.145287 -1.8534313 -0.67150009
5.0310559 -1.8480774 -0.65809447
4.9078035 -1.8378818 -0.64347011
4.7941556 -1.8297511 -0.63006449
4.7270608 -1.8382533 -0.62275231
4.6600504 -1.8459853 -0.61544019
3.1636586 -1.6609576 -0.43872961
3.1093662 -1.6574581 -0.43263617
3.0552444 -1.6533428 -0.4265427
3.0099983 -1.6533924 -0.42166793
2.9649458 -1.6528099 -0.41679314
2.9028122 -1.6418304 -0.40948099
2.8666136 -1.645215 -0.4058249
2.8217676 -1.6434617 -0.40095013
2.7771332 -1.6410837 -0.39607537
2.7412276 -1.6431913 -0.39241928
2.6969972 -1.6396388 -0.38754451
2.6529903 -1.6354835 -0.38266972
2.6090686 -1.6309603 -0.37779495
2.5736203 -1.6313795 -0.37413889
2.5382705 -1.6314182 -0.3704828
2.5030231 -1.6310774 -0.36682671
2.4595995 -1.6248881 -0.36195195
2.4246006 -1.6237413 -0.35829586
2.3979976 -1.6276894 -0.35585847
2.3633335 -1.6256407 -0.35220239
2.320575 -1.6176512 -0.34732762
2.294152 -1.6207458 -0.34489024
2.2597122 -1.6177949 -0.34123415
2.2254009 -1.6144757 -0.33757809
2.1992893 -1.6165727 -0.33514068
2.1653483 -1.6123847 -0.33148462
2.1393983 -1.6139091 -0.32904723
2.1055577 -1.609238 -0.32539114
2.0797093 -1.6102828 -0.32295376
2.0539312 -1.6110667 -0.32051638
2.0204551 -1.6054159 -0.31686029
1.9948646 -1.6056318 -0.31442291
1.9693508 -1.6055911 -0.31198552
1.9439178 -1.6052924 -0.30954814
1.918636 -1.6046554 -0.30711073
1.8935089 -1.6036826 -0.30467334
1.8683982 -1.6025422 -0.30223596
1.8433057 -1.6012324 -0.29979858
1.8183048 -1.5996699 -0.2973612
1.793396 -1.5978582 -0.29492381
1.7685833 -1.595796 -0.29248643
1.7511941 -1.6001819 -0.29126772
1.7266057 -1.5975951 -0.28883034
1.7094303 -1.6014767 -0.28761163
1.6850034 -1.598449 -0.28517425
1.6606108 -1.5952529 -0.28273687
1.6292118 -1.584892 -0.27908078
1.6121503 -1.5881323 -0.2778621
1.5951135 -1.5912201 -0.2766434
1.5711182 -1.5871038 -0.27420601
1.5541773 -1.5898461 -0.27298734
1.5372634 -1.5924394 -0.27176863
1.5136001 -1.5876319 -0.26933125
1.4969298 -1.5897537 -0.26811254
1.4734638 -1.5845255 -0.26567516
1.4567653 -1.5864419 -0.26445648
1.4401709 -1.5881479 -0.26323777
1.4170599 -1.582253 -0.26080039
1.4005152 -1.5836902 -0.25958169
1.3838701 -1.5851032 -0.25836301
1.3674028 -1.5862491 -0.2571443
1.3511146 -1.587133 -0.25592563
1.3284118 -1.5803373 -0.25348824
1.3121177 -1.5810146 -0.25226954
1.2958671 -1.5815505 -0.25105083
1.2796625 -1.5819443 -0.24983215
1.2635727 -1.5821427 -0.24861346
1.2476004 -1.582147 -0.24739476
1.2316068 -1.5820689 -0.24617606
1.2155949 -1.5819055 -0.24495737
1.1936347 -1.5736964 -0.24251999
1.1837238 -1.5811647 -0.24251999
1.1678671 -1.5805886 -0.2413013
1.1520653 -1.5798753 -0.24008261
1.136318 -1.5790268 -0.23886392
1.1263747 -1.5861349 -0.23886392
1.1049944 -1.5769242 -0.23642652
1.0894203 -1.5756716 -0.23520783
1.0794982 -1.5824857 -0.23520783
1.0639926 -1.5810025 -0.23398913
1.0486168 -1.5793419 -0.23277044
1.0333729 -1.5775057 -0.23155175
1.0181227 -1.5755866 -0.23033306
1.002869 -1.5735821 -0.22911437
-2.2293205 -2.3996646 -0.40216884
-2.2238476 -2.3640199 -0.39851275
-2.2386572 -2.3500004 -0.39851275
-2.2395961 -2.3216014 -0.39607537
-2.2541385 -2.3074844 -0.39607537
-2.2546322 -2.2791626 -0.39363798
-1.6752701 -1.5507748 -0.28029948
-1.655611 -1.5135037 -0.27542472
-1.6723237 -1.5098681 -0.2766434
-1.6965288 -1.512615 -0.27908078
-1.7059997 -1.5019251 -0.27908078
-1.7228934 -1.4976885 -0.28029948
-1.7398012 -1.4932983 -0.28151819
-1.7642936 -1.4951714 -0.28395557
-1.7812649 -1.4904264 -0.28517425
-1.805899 -1.4918473 -0.28761163
-1.8306198 -1.4930179 -0.29004905
-1.8554268 -1.4939353 -0.29248643
-1.8725463 -1.4884245 -0.29370511
-1.9783545 -1.3796061 -0.29614249
-1.9951606 -1.3727747 -0.2973612
-2.0448067 -1.3880855 -0.30345467
-2.078229 -1.3917785 -0.30711073
-2.0952139 -1.3841647 -0.30832943
-2.1371324 -1.3926477 -0.3132042
-2.1541898 -1.3845594 -0.31442291
-2.1796134 -1.3816242 -0.31686029
-2.1966672 -1.3731639 -0.31807899
-2.2221506 -1.3697505 -0.32051638
-2.2476761 -1.3660719 -0.32295376
-2.2816978 -1.3673264 -0.32660982
-2.3072162 -1.3632613 -0.32904723
-2.3414071 -1.3638262 -0.33270329
-2.367146 -1.3589705 -0.33514068
-2.3929148 -1.3538463 -0.33757809
-2.4273818 -1.353284 -0.34123415
-2.4619348 -1.3523414 -0.34489024
-2.4965708 -1.3510182 -0.34854633
-2.5225279 -1.3446423 -0.35098371
-2.5572903 -1.3426083 -0.35463977
-2.6009431 -1.3447472 -0.35951456
-2.6358762 -1.3418881 -0.36317062
-2.6708758 -1.3386413 -0.36682671
-2.7059369 -1.3350085 -0.3704828
-2.7410576 -1.3309859 -0.37413889
-2.7851882 -1.330855 -0.37901366
-2.8294249 -1.3302199 -0.38388842
-2.8647525 -1.3249159 -0.38754451
-2.9091597 -1.3233281 -0.39241928
-2.9536576 -1.3212355 -0.39729404
-2.9982436 -1.3186339 -0.40216884
-3.0520217 -1.3194637 -0.40826228
-3.1416357 -1.3115989 -0.41801184
-3.1956735 -1.3108037 -0.42410532
-3.2497637 -1.3095282 -0.43019879
-4.8241062 -1.2063624 -0.61056542
-4.9183855 -1.1971542 -0.62153363
-5.0223947 -1.1890961 -0.63372058
-5.7648864 -1.3266932 -0.72634125
-5.7440495 -1.2839483 -0.72268522
-6.2660942 -1.3593601 -0.78727597
-6.2647991 -1.3179175 -0.78605723
-6.3215833 -1.2884415 -0.79215074
-6.4171944 -1.2659845 -0.80311894
-6.4250216 -1.2256411 -0.80311894
-6.4716406 -1.19244 -0.80799371
-6.4692326 -1.1500187 -0.80677503
-6.466548 -1.1076713 -0.80555636
-6.5810595 -1.0850616 -0.81896198
-6.7837167 -1.0753469 -0.84333587
-7.0062175 -1.0655322 -0.87014711
-7.2387676 -1.0537648 -0.89817703
-7.4811831 -1.0410972 -0.92742568
-7.7334652 -1.0274014 -0.95789301
-8.01544 -1.0140107 -0.99201643
-8.0139942 1.4202931 -0.99932861
-7.6144285 1.3988827 -0.95058084
-7.2349653 1.3762157 -0.90427053
-6.924273 1.3622539 -0.86649102
-6.6237221 1.3467071 -0.82993019
-6.333312 1.3297335 -0.79458809
-6.0629144 1.3127863 -0.7616834
-5.8221645 1.2984748 -0.73243475
-5.6204743 1.2903568 -0.70806086
-5.4094028 1.2777321 -0.6824683
-5.2276559 1.269532 -0.66053182
-5.0366015 1.2567 -0.63737667
-4.8651528 1.246443 -0.61665887
-3.9603822 1.2025019 -0.50819516
-3.8105636 1.1832111 -0.48991475
1.0177251 0.95062268 0.22057259
1.0236778 0.9442094 0.22057259
1.0441945 0.95106035 0.22370128
1.0501031 0.94453228 0.22370128
1.0707035 0.95112681 0.22682998
1.0766686 0.94436896 0.22682998
1.0901295 0.94395643 0.22839431
1.0960747 0.93704653 0.22839431
1.1094882 0.93651205 0.22995865
1.1153506 0.92952245 0.22995865
1.1364229 0.93504727 0.23308735
1.1422755 0.92788845 0.23308735
1.1557883 0.92687219 0.2346517
1.1692877 0.92577988 0.23621604
1.1827826 0.92460024 0.23778038
1.196353 0.92322999 0.23934473
1.2099872 0.92167985 0.24090907
1.2236489 0.91999459 0.24247342
1.2452685 0.92405951 0.2456021
1.2590184 0.9220528 0.24716645
1.2727919 0.91990972 0.24873079
1.2865878 0.9176296 0.25029513
1.3004051 0.91521215 0.25185949
1.3142425 0.91265714 0.25342384
1.3362466 0.91554677 0.25655252
1.3501555 0.91266412 0.25811687
1.3640805 0.90964276 0.2596812
1.3862723 0.91191012 0.2628099
1.3919746 0.90318197 0.2628099
1.4142603 0.90506601 0.26593858
1.4366239 0.9067052 0.26906729
1.450678 0.90287971 0.27063161
1.4731584 0.9040795 0.27376032
1.4872601 0.89991874 0.27532464
1.5098497 0.90067625 0.27845335
1.5239929 0.89617842 0.28001767
1.5552293 0.90144426 0.28471074
1.5608625 0.89165473 0.28471074
1.5836476 0.8915205 0.28783941
1.597855 0.88634366 0.28940377
1.6207263 0.88575995 0.29253244
1.6349132 0.88032156 0.2940968
1.6665117 0.88406074 0.29878983
1.689508 0.88278425 0.30191851
1.7125863 0.88118923 0.30504721
1.7357105 0.87933868 0.30817589
1.7588785 0.87723196 0.31130457
1.7732216 0.87051594 0.31286892
1.8053361 0.8722477 0.31756195
1.8286211 0.86936891 0.32069066
1.8698336 0.87460124 0.32694802
1.8932374 0.87109238 0.33007672
1.9256685 0.87139547 0.33476976
1.9491533 0.86730963 0.33789843
1.9726621 0.86296278 0.34102714
2.0052662 0.86225605 0.34572017
2.0288401 0.85732865 0.34884885
2.0615525 0.8559261 0.35354188
2.0851808 0.85041595 0.35667059
2.1271579 0.85198706 0.36292794
2.1508527 0.84583431 0.36605665
2.1837673 0.84297407 0.37074968
2.2259662 0.84323204 0.37700707
2.2589948 0.83955163 0.3817001
2.2920642 0.83548939 0.38639313
2.3251295 0.83115828 0.39108616
2.3675184 0.82980376 0.39734355
2.4100192 0.82783723 0.4036009
2.4432564 0.82212812 0.40829393
2.4952774 0.82221574 0.41611567
2.5379941 0.81864941 0.42237306
2.5901818 0.81755126 0.43019477
2.6330171 0.81291527 0.43645215
2.6853499 0.81062716 0.44427386
10.26528 1.4751346 1.6425619
10.607038 1.4562854 1.6957495
10.968539 1.4357604 1.752066
11.359591 1.4144095 1.8130754
11.750792 1.3881993 1.8740848
6.9765916 -0.80135804 1.112249
6.9812651 -0.8460229 1.1138134
6.9856868 -0.8905111 1.1153777
6.989779 -0.93542904 1.116942
6.8566084 -0.96149755 1.0966055
7.9547672 -1.1661022 1.2733765
7.4299302 -1.1362338 1.1904663
6.895927 -1.0990326 1.1059916
6.8790421 -1.1413234 1.1044273
6.8911567 -1.1881419 1.107556
6.9030004 -1.2348952 1.1106846
6.8757448 -1.274305 1.107556
6.8677173 -1.3168821 1.107556
6.8593597 -1.3597449 1.107556
6.8506808 -1.4028165 1.107556
6.8610582 -1.449917 1.1106846
6.8518128 -1.4929966 1.1106846
6.851934 -1.5381815 1.112249
6.8517575 -1.5834268 1.1138134
6.8416734 -1.6264462 1.1138134
6.8409133 -1.671746 1.1153777
6.8399386 -1.7167643 1.116942
6.8387351 -1.761575 1.1185064
6.8371496 -1.8067715 1.1200707
6.8351955 -1.8522781 1.1216351
6.8329391 -1.8978314 1.1231995
6.5905447 -1.9196811 1.0872195
6.5785236 -1.9604789 1.0872195
6.5283618 -1.9900036 1.0809622
3.2087274 -1.6862268 0.5741145
3.163213 -1.6877567 0.56785709
3.1091225 -1.6840776 0.56003535
3.0552049 -1.6797864 0.55221367
3.0101733 -1.6795502 0.54595625
2.9567332 -1.6738397 0.53813457
2.9118819 -1.6727372 0.53187716
2.8670356 -1.671356 0.5256198
2.8224082 -1.6693337 0.51936239
2.7779858 -1.6667086 0.51310503
2.7337911 -1.6634578 0.50684768
2.698215 -1.6648053 0.50215465
2.6459002 -1.6554295 0.49433291
2.6187665 -1.6614391 0.4912042
2.5667429 -1.6511428 0.48338249
2.5314994 -1.6510503 0.47868946
2.4963591 -1.6505812 0.47399643
2.4531214 -1.6442372 0.46773905
2.4264836 -1.6483977 0.46461037
2.3836818 -1.6409976 0.45835298
2.3571868 -1.6445489 0.45522428
2.3145487 -1.6365184 0.44896692
2.2801347 -1.6337706 0.44427386
2.2538397 -1.6364586 0.44114518
2.2276824 -1.6387719 0.4380165
2.193727 -1.6348372 0.43332347
2.159827 -1.6306511 0.42863044
2.1338487 -1.6321881 0.42550173
2.1001298 -1.6274136 0.4208087
2.0743253 -1.628379 0.41768003
2.0485919 -1.6290852 0.41455132
2.0152404 -1.6233368 0.40985829
1.9896955 -1.6234785 0.40672961
1.9642291 -1.6233639 0.4036009
1.9313489 -1.6165593 0.39890787
1.9137615 -1.6221082 0.39734355
1.8811105 -1.6147287 0.39265051
1.8560201 -1.6135558 0.38952181
1.8310192 -1.612132 0.38639313
1.8061099 -1.6104581 0.38326442
1.7886251 -1.6151549 0.3817001
1.7565755 -1.606365 0.37700707
1.73928 -1.6105738 0.37544271
1.7148572 -1.6078081 0.37231401
1.6904575 -1.604885 0.36918533
1.6661001 -1.6017842 0.36605665
1.6418492 -1.5984414 0.36292794
1.62474 -1.6017916 0.36136362
1.600664 -1.5980121 0.35823491
1.5836461 -1.6010157 0.35667059
1.5597522 -1.5968034 0.35354188
1.5428314 -1.5994633 0.35197753
1.5260175 -1.6018991 0.3504132
1.502527 -1.5969365 0.3472845
1.4790789 -1.5918173 0.34415582
1.4623706 -1.5938015 0.34259146
1.4391422 -1.588249 0.33946279
1.4226876 -1.5897751 0.33789843
1.3995731 -1.5838953 0.33476976
1.3829618 -1.5853362 0.3332054
1.372991 -1.5939794 0.3332054
1.3502897 -1.587409 0.33007672
1.3339975 -1.5882475 0.32851237
1.3176872 -1.5889951 0.32694802
1.2889068 -1.574316 0.32225499
1.272781 -1.5747019 0.32069066
1.2567786 -1.574886 0.31912631
1.2408841 -1.5748844 0.31756195
1.2249609 -1.5748067 0.3159976
1.2090269 -1.5746382 0.31443328
1.1931436 -1.574332 0.31286892
1.1773121 -1.5738887 0.31130457
1.1615336 -1.5733088 0.30974025
1.1458091 -1.5725932 0.30817589
1.1301396 -1.5717423 0.30661154
1.1145263 -1.5707569 0.30504721
1.0989702 -1.5696378 0.30348286
1.0834724 -1.5683855 0.30191851
1.0680338 -1.5670006 0.30035415
1.0526558 -1.565484 0.29878983
1.0428759 -1.5720161 0.29878983
1.027707 -1.5701833 0.29722548
1.0178814 -1.5765705 0.29722548
-1.2580835 -1.5357271 0.31443328
-1.2739559 -1.5354419 0.3159976
-1.2899326 -1.5349685 0.31756195
-1.2931498 -1.519312 0.3159976
-1.2962215 -1.5036759 0.31443328
-2.2501221 -2.3306811 0.51310503
-2.2647216 -2.3164971 0.51310503
-1.6699684 -1.525442 0.35823491
-1.6427199 -1.4819859 0.3504132
-1.6740671 -1.4914083 0.35510623
-1.7056525 -1.5004313 0.35979927
-1.7299597 -1.5026386 0.36292794
-1.7468637 -1.4981697 0.3644923
-1.76378 -1.493547 0.36605665
-1.7807069 -1.4887706 0.36762097
-1.8052602 -1.4901277 0.37074968
-1.8222437 -1.484995 0.37231401
-1.8469293 -1.4858987 0.37544271
-1.8639632 -1.4804076 0.37700707
-1.8810008 -1.4747609 0.37857139
-2.010819 -1.3638599 0.38482878
-2.0603924 -1.3786621 0.39265051
-2.1102295 -1.392894 0.40047222
-2.1272166 -1.3849968 0.40203658
-2.1524985 -1.3822777 0.40516526
-2.1778293 -1.3792953 0.40829393
-2.1948299 -1.3708166 0.40985829
-2.2286294 -1.3725373 0.41455132
-2.2540939 -1.3687602 0.41768003
-2.2795312 -1.3648287 0.4208087
-2.3134599 -1.3657422 0.42550173
-2.3390169 -1.3612037 0.42863044
-2.3732262 -1.3612229 0.43332347
-2.4075272 -1.3608654 0.4380165
-2.4419158 -1.3601307 0.44270954
-2.4763896 -1.3590163 0.44740257
-2.5022564 -1.3528246 0.45053124
-2.5368602 -1.3510036 0.45522428
-2.5715389 -1.3488008 0.45991731
-2.6062891 -1.3462149 0.46461037
-2.6499109 -1.3477225 0.47086772
-2.6848214 -1.3443123 0.47556075
-2.7197928 -1.3405162 0.48025379
-2.7637079 -1.3406439 0.48651117
-2.8077304 -1.3402719 0.49276856
-2.8429163 -1.3352003 0.49746159
-2.887114 -1.3338814 0.50371897
-2.9314063 -1.3320591 0.50997633
-2.9757881 -1.3297324 0.51623374
-3.0112123 -1.322927 0.52092677
-3.0648024 -1.3235604 0.52874851
