# .PCD v0.7 - Point Cloud Data file format
VERSION 0.7
FIELDS x y z
SIZE 4 4 4
TYPE F F F
COUNT 1 1 1
WIDTH 1475
HEIGHT 1
VIEWPOINT 0 0 0 1 0 0 0
POINTS 1475
DATA ascii
1.4854379 0.9863621 -0.41166043
1.5079076 0.98768705 -0.41615945
1.5304521 0.98876822 -0.42065847
1.5530691 0.98960465 -0.42515749
1.5757563 0.99019557 -0.42965651
1.5985117 0.99053997 -0.43415552
1.6130183 0.98555702 -0.43640503
1.6358714 0.98545843 -0.44090405
1.6587971 0.98509306 -0.44540307
1.6818575 0.98434931 -0.44990209
1.7049536 0.98338854 -0.45440114
1.7279545 0.98243773 -0.45890015
1.7510192 0.98122019 -0.46339917
1.7742095 0.97961825 -0.46789819
1.7974482 0.97776335 -0.47239721
1.8293211 0.9802568 -0.47914574
1.8526783 0.97783989 -0.48364475
1.8847222 0.97966146 -0.49039328
1.9081981 0.97665834 -0.4948923
1.9317846 0.97325051 -0.49939135
1.9641232 0.97393131 -0.50613987
1.9964732 0.97439218 -0.51288837
2.0289054 0.97448444 -0.51963693
2.0526073 0.97004384 -0.52413595
2.0851679 0.96945167 -0.5308845
2.1178012 0.9684878 -0.537633
2.1504931 0.96717519 -0.54438156
2.1920881 0.96959811 -0.5533796
2.2248802 0.96760768 -0.56012809
2.2578788 0.96490139 -0.56687665
2.2909212 0.96183872 -0.57362521
2.3329496 0.96228713 -0.58262324
2.3841033 0.96590346 -0.59387076
2.4172854 0.96171045 -0.60061932
2.4595947 0.96065629 -0.60961735
2.502058 0.95891613 -0.61861539
3.922761 -1.6308293 -0.98078656
3.8587382 -1.6323265 -0.96728951
3.8127322 -1.6408383 -0.95829147
3.7666445 -1.6491303 -0.94929343
3.0965395 -1.497259 -0.79407722
3.0433447 -1.4952027 -0.78282964
3.042608 -1.5186464 -0.78507918
2.998244 -1.5201087 -0.77608114
2.9453204 -1.516614 -0.76483357
2.8925769 -1.5124835 -0.75358599
2.8487246 -1.5121036 -0.74458796
2.8049564 -1.5112998 -0.73558992
2.7696271 -1.5151094 -0.72884142
2.725879 -1.5137402 -0.71984339
2.6909809 -1.5162511 -0.71309483
2.6476655 -1.5136101 -0.70409679
2.6042571 -1.5108879 -0.69509876
2.5694058 -1.5125897 -0.6883502
2.5347548 -1.5137165 -0.6816017
2.5001919 -1.5144682 -0.67485315
2.4657207 -1.514846 -0.66810465
2.4313445 -1.5148505 -0.66135609
2.3970664 -1.5144839 -0.65460753
2.3710945 -1.519003 -0.65010852
2.3369896 -1.5179485 -0.64336002
2.311147 -1.5218594 -0.638861
2.2692554 -1.5145141 -0.62986296
2.2355993 -1.512192 -0.62311441
2.2099812 -1.5151892 -0.61861539
2.1844144 -1.5179245 -0.61411637
2.1509347 -1.5147886 -0.60736781
2.1255124 -1.5169529 -0.6028688
2.1001487 -1.5188578 -0.59836978
2.0748456 -1.5205045 -0.59387076
2.0496051 -1.5218935 -0.58937174
2.0166435 -1.517168 -0.58262324
1.9993218 -1.5239024 -0.5803737
1.9665715 -1.5185686 -0.57362521
1.9493166 -1.5248916 -0.57137567
1.9244238 -1.5250062 -0.56687665
1.8996071 -1.5248686 -0.56237763
1.8748688 -1.5244799 -0.55787861
1.8502108 -1.5238409 -0.5533796
1.8256359 -1.5229523 -0.54888058
1.8011454 -1.521816 -0.54438156
1.7841617 -1.5267482 -0.54213202
1.75994 -1.525012 -0.537633
1.7357928 -1.5230534 -0.53313398
1.711622 -1.520985 -0.52863497
1.6947889 -1.5251914 -0.52638549
1.6707692 -1.5226834 -0.52188641
1.6540087 -1.5265427 -0.51963693
1.6301476 -1.5235983 -0.51513791
1.6134658 -1.5271128 -0.51288837
1.5897701 -1.523736 -0.50838935
1.5731729 -1.5269084 -0.50613987
1.5496498 -1.5231026 -0.50164086
1.5331433 -1.5259358 -0.49939135
1.5166627 -1.5286217 -0.49714181
1.5002095 -1.5311607 -0.4948923
1.4770088 -1.5265515 -0.49039328
1.4606569 -1.5287567 -0.48814377
1.4443359 -1.5308169 -0.48589426
1.4280469 -1.5327327 -0.48364475
1.4117912 -1.5345045 -0.48139524
1.3955866 -1.5361176 -0.47914574
1.3730274 -1.5302308 -0.47464672
1.3570244 -1.5314455 -0.47239721
1.3408254 -1.5327258 -0.4701477
1.3246993 -1.5338328 -0.46789819
1.3088472 -1.5345978 -0.46564868
1.2867436 -1.5277866 -0.46114966
1.2771189 -1.5358412 -0.46114966
1.2612611 -1.5363044 -0.45890015
1.2454481 -1.5366292 -0.45665064
1.2296815 -1.5368159 -0.45440114
1.2139616 -1.5368657 -0.45215163
1.1982899 -1.5367789 -0.44990209
1.1826673 -1.5365562 -0.44765258
1.1729895 -1.5439569 -0.44765258
1.1515744 -1.5357054 -0.44315356
1.1419026 -1.5429107 -0.44315356
1.1206914 -1.5343184 -0.43865454
1.1110289 -1.5413296 -0.43865454
1.0956748 -1.5403401 -0.43640503
1.0803771 -1.5392187 -0.43415552
1.065137 -1.5379663 -0.43190601
1.0554528 -1.5446283 -0.43190601
1.0402803 -1.5431501 -0.42965651
1.0251683 -1.5415425 -0.427407
1.0101178 -1.5398062 -0.42515749
1.000423 -1.5461226 -0.42515749
-1.8061029 -3.5195842 -0.91330129
-1.8326842 -3.5168076 -0.91555077
-1.8638588 -3.5224478 -0.92004979
-1.8859541 -3.5106673 -0.92004979
-1.91264 -3.5073028 -0.92229933
-1.9440764 -3.5122659 -0.92679834
-1.9756503 -3.5169718 -0.93129736
-2.0217972 -3.5468359 -0.94254488
-1.0071443 -1.5996283 -0.43640503
-1.0171752 -1.5932688 -0.43640503
-1.0867271 -1.4867297 -0.42515749
-1.1076455 -1.4955323 -0.42965651
-1.1287168 -1.5041301 -0.43415552
-1.1440424 -1.504765 -0.43640503
-1.1534745 -1.4975471 -0.43640503
-1.1748493 -1.5056337 -0.44090405
-1.1842698 -1.4982352 -0.44090405
-1.1996197 -1.4984751 -0.44315356
-1.2150338 -1.498569 -0.44540307
-1.2306094 -1.498435 -0.44765258
-1.2462312 -1.4981642 -0.44990209
-1.268176 -1.5052074 -0.45440114
-1.277608 -1.4972099 -0.45440114
-1.2933613 -1.4965249 -0.45665064
-1.3027387 -1.488369 -0.45665064
-1.3249913 -1.4947371 -0.46114966
-1.3473749 -1.5008838 -0.46564868
-1.3567786 -1.4923884 -0.46564868
-1.3727283 -1.4910023 -0.46789819
-1.3953587 -1.4966012 -0.47239721
-1.4047345 -1.4878044 -0.47239721
-1.4746572 -1.5423324 -0.49264279
-1.5182073 -1.5680373 -0.50389034
-1.5416727 -1.5723821 -0.50838935
-1.5721172 -1.5834079 -0.51513791
-1.5889435 -1.5803698 -0.51738739
-1.6057932 -1.5771828 -0.51963693
-1.6226655 -1.573846 -0.52188641
-1.6465957 -1.577099 -0.52638549
-1.6635512 -1.5734174 -0.52863497
-3.1164649 -2.3728216 -0.90430325
-3.1079443 -2.3356323 -0.8975547
-3.1069059 -2.3044493 -0.89305568
-3.0741503 -2.2503505 -0.87955862
-3.0487375 -2.2024612 -0.86831105
-3.0387137 -2.1662939 -0.86156255
-3.0363262 -2.135946 -0.85706353
-3.0256734 -2.1001582 -0.85031497
-3.0468485 -2.0866115 -0.85256445
-3.0518253 -2.0619717 -0.85031497
-3.0485053 -2.0319476 -0.84581596
-3.0367875 -1.996694 -0.8390674
-2.5664449 -1.5742611 -0.69509876
-2.5596106 -1.5480198 -0.69059974
-2.5860245 -1.5418867 -0.69509876
-2.6292622 -1.5453569 -0.70409679
-2.6726444 -1.5483437 -0.71309483
-2.7161663 -1.5508457 -0.72209287
-2.7513323 -1.5480831 -0.72884142
-2.8036129 -1.5543884 -0.74008894
-2.8389773 -1.550755 -0.7468375
-2.8057635 -1.509801 -0.73558992
-2.8496311 -1.5103947 -0.74458796
-2.8245142 -1.4744245 -0.73558992
-2.8250566 -1.4521939 -0.73334044
-2.8602061 -1.4476151 -0.74008894
-2.9302931 -1.4600328 -0.75583553
-2.9744017 -1.4587543 -0.76483357
-3.0629094 -1.454704 -0.78282964
-3.1161268 -1.4560546 -0.79407722
-3.1694803 -1.4567931 -0.80532473
-2.669805 2.0586264 -0.77833062
-2.6644969 2.081358 -0.78058016
-2.6360846 2.0859663 -0.77608114
-1.1216319 1.1238849 0.083214171
-1.1145478 1.1309105 0.083214171
-1.1213503 1.1522038 0.084260888
-1.1348478 1.1808275 0.085830964
-1.1342808 1.1951778 0.086354323
-1.0926048 1.1658486 0.08373753
-1.0513439 1.1360438 0.081120729
-1.0374483 1.1352556 0.080597371
-1.0236049 1.1343373 0.080074012
-1.0297441 1.1556584 0.081120729
-1.0158664 1.1546079 0.080597371
-1.0151408 1.168507 0.081120729
-1.0077791 1.1748619 0.081120729
-1.0003576 1.1811876 0.081120729
1.0001187 0.99116945 0.073793694
1.0063267 0.98486602 0.073793694
1.0196757 0.98546356 0.074317053
1.0330718 0.98593193 0.074840419
1.0465136 0.98627061 0.075363778
1.0600162 0.98646176 0.075887136
1.0736325 0.98644543 0.076410495
1.0872753 0.98631322 0.076933853
1.1008893 0.98612535 0.077457212
1.1145437 0.98580492 0.07798057
1.1282372 0.98535162 0.078503937
1.1419688 0.98476493 0.079027295
1.1481336 0.9775703 0.079027295
1.1695414 0.98318928 0.080074012
1.1910644 0.98857737 0.081120729
1.189528 0.97474468 0.080597371
1.2111566 0.97981316 0.081644088
1.2250922 0.97841591 0.082167447
1.2390577 0.97688192 0.082690813
1.2530519 0.97521091 0.083214171
1.2670738 0.97340238 0.08373753
1.2890793 0.97748971 0.084784247
1.2951956 0.9693709 0.084784247
1.3173416 0.97305924 0.085830964
1.3396541 0.9764114 0.086877689
1.3539386 0.97371006 0.087401047
1.3763176 0.97674292 0.088447765
1.3906076 0.9738043 0.088971123
1.4049145 0.9707244 0.089494482
1.4274888 0.97312802 0.090541206
1.450148 0.97528589 0.091587923
1.4645686 0.97167599 0.092111282
1.4790008 0.96792322 0.092634641
1.5018336 0.96944308 0.093681358
1.516319 0.96535075 0.094204716
1.5477271 0.97173452 0.0957748
1.5622928 0.96724761 0.096298158
1.5853865 0.96781904 0.097344875
1.6085484 0.96813804 0.098391593
1.6317919 0.9681772 0.099438317
1.6551679 0.96784401 0.10048503
1.6699209 0.96232074 0.10100839
1.6932176 0.96182048 0.10205511
1.7165873 0.96104002 0.10310183
1.7400801 0.9598825 0.10414855
1.7723995 0.96323586 0.10571863
1.7960248 0.96150714 0.10676535
1.8196976 0.95951915 0.10781207
1.8611407 0.96647596 0.1099055
1.884975 0.96382517 0.11095223
1.9089171 0.96077669 0.11199895
1.9328804 0.9574936 0.11304566
1.9657868 0.95845985 0.11461575
2.0077844 0.96336979 0.11670918
2.0318587 0.95926231 0.1177559
2.0650167 0.95909685 0.11932598
2.089169 0.95440227 0.1203727
2.1224365 0.95356888 0.12194277
2.1648414 0.95654428 0.12403622
2.1982353 0.95497912 0.1256063
2.2318277 0.95271784 0.12717637
2.2654638 0.95010424 0.12874645
2.2990887 0.94726402 0.13031653
2.3420231 0.94778454 0.13240996
2.3850534 0.94780231 0.13450341
2.4281905 0.94727641 0.13659684
2.4621546 0.94249898 0.13816692
2.5148222 0.94443029 0.14078373
6.0436411 1.5183383 0.32657635
6.0530615 1.4803352 0.32657635
6.0622435 1.4422736 0.32657635
6.0517268 1.3996546 0.32552963
6.0603795 1.3617023 0.32552963
6.0589433 1.3219976 0.32500628
6.0572691 1.2822647 0.32448292
6.0652061 1.2441807 0.32448292
6.0631084 1.204103 0.32395956
6.0607476 1.1641002 0.3234362
6.0679421 1.1259966 0.3234362
6.0650673 1.0860883 0.32291284
6.0619307 1.0462606 0.32238948
6.0683846 1.0081519 0.32238948
6.0745993 0.97000343 0.32238948
6.070703 0.93030393 0.32186612
6.0665483 0.89069176 0.32134277
6.0621357 0.85116857 0.32081941
6.057466 0.81173605 0.32029605
6.0525408 0.77239591 0.31977269
6.0572743 0.73435241 0.31977269
6.0518479 0.69513959 0.31924933
6.0561066 0.65700197 0.31924933
6.0601692 0.61840814 0.31924933
6.0440946 0.57798815 0.31820261
6.0575533 0.54088891 0.31872597
6.0608325 0.50281769 0.31872597
6.053915 0.46396351 0.31820261
6.0567036 0.42601588 0.31820261
6.059227 0.38848075 0.31820261
6.0615234 0.35083222 0.31820261
6.9811277 0.36006227 0.36635169
6.0754294 0.27508757 0.31872597
6.0570803 0.23613124 0.31767926
6.0584478 0.19796978 0.31767926
6.059586 0.15937039 0.31767926
6.0604763 0.12086461 0.31767926
6.0611157 0.082783319 0.31767926
6.0615163 0.044698756 0.31767926
6.0516915 0.0066015357 0.3171559
6.0616002 -0.031374879 0.31767926
6.0612893 -0.068931572 0.31767926
6.0507593 -0.10640848 0.3171559
6.0499716 -0.14442424 0.3171559
6.0489445 -0.18243429 0.3171559
6.0476789 -0.22043715 0.3171559
6.0461745 -0.25843048 0.3171559
6.0444312 -0.29641443 0.3171559
6.0424495 -0.33438668 0.3171559
6.0402293 -0.37234575 0.3171559
6.0477338 -0.41096711 0.31767926
6.0450325 -0.44895786 0.31767926
6.0420923 -0.48693088 0.31767926
6.0389132 -0.52488464 0.31767926
6.0354962 -0.56281769 0.31767926
6.0020294 -0.59775954 0.31610918
5.9584322 -0.6312511 0.31401575
5.9543486 -0.66867638 0.31401575
5.9401131 -0.7048977 0.31349236
5.9553847 -0.74468458 0.3145391
5.9505882 -0.78208852 0.3145391
5.9752355 -0.82355201 0.31610918
5.9798412 -0.86240679 0.31663254
5.9743829 -0.89944094 0.31663254
5.9686646 -0.93663532 0.31663254
5.9625769 -0.97463971 0.31663254
5.9562635 -1.0125062 0.31663254
5.9497843 -1.0499103 0.31663254
5.9528933 -1.0890702 0.3171559
5.9557447 -1.1283104 0.31767926
5.9485378 -1.1657083 0.31767926
5.9410963 -1.2030609 0.31767926
5.95297 -1.2444527 0.31872597
5.9450336 -1.2818316 0.31872597
5.9466105 -1.321326 0.31924933
5.947926 -1.3608907 0.31977269
5.9489784 -1.400524 0.32029605
5.9497671 -1.4402242 0.32081941
5.9406247 -1.4774817 0.32081941
5.9410324 -1.5167314 0.32134277
5.9411559 -1.5561392 0.32186612
5.7865963 -1.5545734 0.31401575
5.6900635 -1.5670372 0.30930549
5.7089386 -1.6108937 0.31087556
2.9921346 -1.5184885 0.17584881
2.9914112 -1.5418338 0.17637217
2.9286036 -1.5327657 0.17323202
2.883775 -1.53214 0.17113857
2.8302286 -1.5263706 0.16852178
2.7941699 -1.5299811 0.1669517
2.7495029 -1.5282524 0.16485827
2.7138863 -1.530542 0.16328818
2.6696298 -1.5275773 0.16119474
2.6339366 -1.5295088 0.15962467
2.5983536 -1.5310053 0.15805459
2.5629673 -1.5319303 0.1564845
2.5191338 -1.5272946 0.15439107
2.4924743 -1.5326309 0.15334435
2.4573743 -1.5324084 0.15177427
2.4223766 -1.5318063 0.1502042
2.3874843 -1.5308255 0.14863411
2.3527009 -1.5294675 0.14706403
2.3180549 -1.5276953 0.14549395
2.2919366 -1.5309348 0.14444724
2.2575734 -1.5283482 0.14287716
2.2314577 -1.5312023 0.14183044
2.1971974 -1.5280871 0.14026035
2.1630654 -1.5246028 0.13869028
2.1453171 -1.5323591 0.13816692
2.111378 -1.5282422 0.13659684
2.085629 -1.5296661 0.13555013
2.0519304 -1.5248706 0.13398005
2.0263536 -1.5257195 0.13293333
2.0008473 -1.5263078 0.1318866
1.9833164 -1.5327425 0.13136324
1.9500574 -1.5267055 0.12979317
1.9247774 -1.5265177 0.12874645
1.8995777 -1.5260725 0.12769973
1.8744603 -1.5253713 0.12665302
1.8494277 -1.5244148 0.1256063
1.8168154 -1.5168048 0.12403622
1.8072492 -1.5281903 0.12403622
1.7824671 -1.5264941 0.1229895
1.7578856 -1.524424 0.12194277
1.7408776 -1.5287257 0.12141941
1.7163136 -1.5263611 0.1203727
1.6918485 -1.5237486 0.11932598
1.674863 -1.5276191 0.11880262
1.65056 -1.5245607 0.1177559
1.6263621 -1.5212578 0.11670918
1.6095216 -1.5245789 0.11618582
1.5927039 -1.5277488 0.11566246
1.5759102 -1.5307678 0.1151391
1.5520222 -1.5266335 0.11409238
1.5282491 -1.52226 0.11304566
1.511624 -1.5247399 0.1125223
1.4950278 -1.5270717 0.11199895
1.4784623 -1.5292555 0.11147559
1.4619287 -1.5312916 0.11095223
1.4385778 -1.5259144 0.1099055
1.4221573 -1.5276139 0.10938215
1.3990139 -1.5218159 0.10833543
1.3827374 -1.5231591 0.10781207
1.366607 -1.5242621 0.10728871
1.3504665 -1.5252676 0.10676535
1.3341502 -1.5263211 0.10624199
1.3114016 -1.5196248 0.10519527
1.3019607 -1.5277213 0.10519527
1.2860148 -1.5281392 0.10467191
1.2636241 -1.5208274 0.10362519
1.24771 -1.5210161 0.10310183
1.2381289 -1.5288253 0.10310183
1.2222626 -1.5287746 0.10257848
1.2064461 -1.5285852 0.10205511
1.1906804 -1.5282576 0.10153175
1.1749667 -1.5277927 0.10100839
1.1532681 -1.5192368 0.099961676
1.1377118 -1.5184611 0.099438317
1.1281486 -1.5255796 0.099438317
1.1067667 -1.5165048 0.098391593
1.0972165 -1.5234288 0.098391593
1.0818377 -1.5221528 0.097868234
1.0665184 -1.5207441 0.097344875
1.0512598 -1.5192033 0.096821517
1.0360628 -1.517531 0.096298158
1.0265075 -1.5240108 0.096298158
1.011385 -1.5221128 0.0957748
-1.1214424 -1.4932141 0.097868234
-1.1428965 -1.502033 0.098914959
-1.1523116 -1.4948224 0.098914959
-1.1739739 -1.503294 0.099961676
-1.4801961 -1.5275773 0.11147559
-1.5457186 -1.5752702 0.11566246
-1.5696634 -1.5796949 0.11670918
-1.5795579 -1.5698012 0.11670918
-1.6036446 -1.5738353 0.1177559
-1.6278439 -1.577628 0.11880262
-1.6232949 -1.5535595 0.1177559
-1.6620557 -1.5707663 0.11984934
-1.6864939 -1.5739194 0.12089606
-1.7110368 -1.5768268 0.12194277
-1.7356822 -1.5794874 0.1229895
-2.0266869 -1.5418266 0.13345669
-2.0682771 -1.5530474 0.13555013
-2.1100867 -1.5638056 0.13764356
-2.1198707 -1.5505167 0.13764356
-2.1457655 -1.5488561 0.13869028
-2.1717224 -1.5469309 0.139737
-2.2059093 -1.5504826 0.14130709
-2.2402256 -1.5536653 0.14287716
-2.2664263 -1.5508378 0.14392388
-2.309233 -1.5589168 0.14601731
-2.5555849 -1.5442144 0.1564845
-2.5823958 -1.5383483 0.15753123
-2.6350672 -1.5473763 0.16014802
-2.6793094 -1.5507996 0.16224146
-2.7063487 -1.5438308 0.16328818
-2.7334056 -1.5365831 0.16433489
-2.8041561 -1.5532498 0.16799842
-2.8401577 -1.5499516 0.16956849
-3.1038067 -1.4488127 0.17951232
-3.1854515 -1.4626185 0.18369921
-4.2137971 -1.4425772 0.23341836
-4.2984209 -1.4417777 0.23760524
-4.3263702 -1.4209739 0.23865196
-4.3352127 -1.3937627 0.23865196
-4.3438845 -1.3664963 0.23865196
-4.3142061 -1.3274289 0.23655851
-4.2363944 -1.274405 0.23184828
-6.710063 -1.566731 0.36111808
-7.2359591 -1.6415206 0.38885614
-7.2950325 -1.6061287 0.39147294
-7.3050909 -1.5597417 0.39147294
-7.3734207 -1.5259567 0.39461312
-7.4318218 -1.489408 0.39722991
-7.4312291 -1.4407846 0.39670655
-7.4401121 -1.3941854 0.39670655
-7.6942744 -1.3925202 0.40979052
-7.9782267 -1.3927823 0.42444459
-8.2921114 -1.3939497 0.44066873
-8.5865984 -1.3880341 0.45584616
-8.930666 -1.3861338 0.47364038
-11.803723 -1.7559814 0.62541467
-12.318894 -1.7524842 0.65210599
-12.765154 -1.7335021 0.67513382
-12.795458 -1.65694 0.67618054
-12.775795 -1.5735483 0.67461044
-12.765722 -1.4898163 0.67356372
-12.755078 -1.4064804 0.672517
-12.912656 -1.3417963 0.68036741
-13.278639 -1.2955511 0.69920838
-13.271727 -0.039961956 0.69554484
-13.421509 0.043920863 0.70339525
-13.420968 0.12824583 0.70339525
-13.409912 0.21241473 0.70287186
-13.403526 0.46512976 0.70287186
-13.200781 0.54115981 0.69240469
-13.187145 0.6236164 0.69188136
-13.192939 0.70699888 0.69240469
-13.208173 0.79106873 0.6934514
-13.202942 0.87404567 0.6934514
-13.197189 0.956981 0.6934514
-13.180961 1.0391008 0.69292808
-12.855762 1.0947795 0.67618054
-11.903878 1.0890995 0.62646139
-11.330286 1.1084465 0.59662992
-10.300046 1.0730381 0.54272383
-9.6479206 1.0664171 0.5087055
-9.0657415 1.0597678 0.47835064
-8.5336065 1.0519518 0.45061257
-8.0910788 1.0490538 0.42758477
-7.6588373 1.0419806 0.40508029
-7.2962255 1.0393822 0.38623935
-6.9537182 1.0352073 0.36844513
-6.6411681 1.0313724 0.35222098
-6.3683858 1.0300272 0.33809027
-6.0958929 1.0252998 0.32395956
-5.8630714 1.0240602 0.31192228
-5.650167 1.0235002 0.30093175
-5.4473248 1.0221453 0.29046455
-5.2741399 1.0239961 0.28156745
-5.1011539 1.0237097 0.27267033
-4.8599195 1.0071867 0.26010969
-4.8729358 1.0423027 0.26115641
-1.2220048 1.1650729 -0.32819146
-1.2076496 1.1658567 -0.32628337
-1.1861602 1.1598012 -0.32246721
-1.1369234 1.1258652 -0.31101865
-1.1367582 1.1399375 -0.31292674
-1.1157984 1.1330687 -0.30911058
-1.1155003 1.1470947 -0.31101865
-1.101472 1.1470004 -0.30911058
-1.080734 1.1396531 -0.30529439
-1.060133 1.1320904 -0.30147821
-1.0463341 1.1315223 -0.29957011
-1.0325851 1.130825 -0.29766202
-1.0254593 1.1372908 -0.29766202
-1.0182936 1.1437113 -0.29766202
-1.0110871 1.1500871 -0.29766202
-1.0102761 1.1638298 -0.29957011
-1.0093315 1.1776081 -0.30147821
1.0113735 1.0015366 -0.27667305
1.0176464 0.99516225 -0.27667305
1.0309403 0.9955675 -0.27858114
1.0442792 0.99584472 -0.28048921
1.0648084 1.0027231 -0.28430539
1.0711093 0.99598956 -0.28430539
1.0846635 0.99578452 -0.28621349
1.1055096 1.0020634 -0.29002967
1.111784 0.99509764 -0.29002967
1.1253697 0.99459308 -0.29193777
1.1389927 0.99395686 -0.29384586
1.1526519 0.99318844 -0.29575393
1.1738226 0.99864817 -0.29957011
1.1800741 0.99125314 -0.29957011
1.2013907 0.99635178 -0.3033863
1.2152225 0.99500239 -0.30529439
1.2290843 0.99351823 -0.30720249
1.2353024 0.98577607 -0.30720249
1.2568939 0.99014401 -0.31101865
1.2708393 0.98825318 -0.31292674
1.2848102 0.98622596 -0.31483483
1.3066298 0.98999006 -0.31865102
1.3206854 0.98763955 -0.32055911
1.3347844 0.98512214 -0.32246721
1.3569031 0.98815644 -0.32628337
1.3711208 0.98525029 -0.32819146
1.3852917 0.9822939 -0.33009955
1.4075222 0.98482567 -0.33391574
1.4298385 0.9871164 -0.33773193
1.4360126 0.978113 -0.33773193
1.4665726 0.98549604 -0.34345618
1.4890995 0.98710924 -0.34727237
1.5034881 0.98310566 -0.34918046
1.5178847 0.97896004 -0.35108855
1.540571 0.97994059 -0.35490471
1.5550133 0.97545797 -0.3568128
1.586156 0.98116046 -0.36253709
1.60067 0.97628647 -0.36444518
1.6320099 0.98138601 -0.37016943
1.6550534 0.9810878 -0.37398562
1.6782213 0.98042792 -0.37780181
1.6928977 0.97468847 -0.3797099
1.7159787 0.97387105 -0.38352609
1.7391351 0.9727667 -0.38734224
1.7710042 0.97603434 -0.39306653
1.8029819 0.97893935 -0.39879081
1.8264091 0.97685087 -0.40260696
1.8498805 0.97450626 -0.40642315
1.8646803 0.96738452 -0.40833125
1.896968 0.96900487 -0.41405553
1.9294126 0.97012979 -0.41977978
1.9531285 0.96656895 -0.42359596
1.9856381 0.96717387 -0.42932025
2.0093796 0.96316475 -0.4331364
2.0420268 0.96308243 -0.43886068
2.0747511 0.96262741 -0.44458497
2.1075494 0.96179867 -0.45030922
2.1493528 0.96466148 -0.45794159
2.1822295 0.96321756 -0.46366584
2.2242167 0.96521384 -0.47129822
2.2574096 0.96257573 -0.47702247
2.2906368 0.95960349 -0.48274675
2.3238535 0.95639998 -0.48847103
2.3662202 0.95649529 -0.49610338
2.4086785 0.95609534 -0.50373572
2.4512444 0.9551459 -0.5113681
2.4939551 0.95353371 -0.51900047
2.5458927 0.95497358 -0.52854091
3.8410151 -1.6283374 -0.81093824
3.7857478 -1.632751 -0.80139774
3.7304688 -1.6367849 -0.7918573
3.0830805 -1.4937403 -0.66592336
3.0560205 -1.504411 -0.66210723
3.00261 -1.501629 -0.65256673
2.9756124 -1.5115733 -0.64875054
2.9311614 -1.5122368 -0.64111823
2.8868537 -1.5123396 -0.63348585
2.8340933 -1.5071517 -0.62394542
2.7987204 -1.5108167 -0.61822116
2.7546062 -1.5097435 -0.61058879
2.7106869 -1.5080519 -0.60295641
2.6756461 -1.5103418 -0.59723216
2.6320977 -1.5074925 -0.58959979
2.5969803 -1.5094314 -0.58387554
2.5619791 -1.5109283 -0.57815123
2.5187397 -1.5068374 -0.57051891
2.484046 -1.507356 -0.5647946
2.4494464 -1.5074987 -0.55907035
2.4149439 -1.5072669 -0.5533461
2.3888369 -1.5119112 -0.54952991
2.3545058 -1.5109856 -0.5438056
2.3202817 -1.5096891 -0.53808135
2.2862008 -1.5079727 -0.5323571
2.2604926 -1.5111974 -0.52854091
2.2266731 -1.5087045 -0.52281666
2.2009661 -1.5115509 -0.51900047
2.175312 -1.5141343 -0.51518428
2.1416917 -1.5107969 -0.50946003
2.1082001 -1.5070976 -0.50373572
2.0748403 -1.5030377 -0.49801147
2.0495291 -1.5044274 -0.49419528
2.0242829 -1.5055587 -0.4903791
2.0069437 -1.5123404 -0.48847103
1.9739947 -1.5070503 -0.48274675
1.9489571 -1.5074122 -0.47893056
1.9239936 -1.5075195 -0.47511441
1.8991063 -1.507373 -0.47129822
1.8742974 -1.5069737 -0.46748203
1.8571804 -1.5125217 -0.46557394
1.8249234 -1.5054212 -0.45984969
1.8003632 -1.5042691 -0.4560335
1.7758898 -1.502869 -0.45221731
1.7589916 -1.5075709 -0.45030922
1.7347896 -1.5055727 -0.44649303
1.7106479 -1.5033698 -0.44267687
1.6938356 -1.5075622 -0.44076878
1.6770386 -1.5116029 -0.43886068
1.6530077 -1.5088743 -0.4350445
1.629078 -1.5059041 -0.43122831
1.6124177 -1.5094017 -0.42932025
1.5957781 -1.5127496 -0.42741215
1.5791603 -1.5159483 -0.42550406
1.555527 -1.5121558 -0.42168787
1.5320042 -1.5081267 -0.41787168
1.5155462 -1.5107925 -0.41596359
1.4991153 -1.5133113 -0.41405553
1.4827135 -1.5156832 -0.41214743
1.4663407 -1.5179093 -0.41023934
1.4499987 -1.5199898 -0.40833125
1.4336889 -1.5219252 -0.40642315
1.4174122 -1.523716 -0.40451506
1.4011699 -1.5253625 -0.40260696
1.3849964 -1.5268351 -0.40069887
1.3689594 -1.5280759 -0.39879081
1.3528941 -1.5292357 -0.39688271
1.33021 -1.5230365 -0.39306653
1.3141373 -1.5239877 -0.39115843
1.298305 -1.5246272 -0.38925034
1.2824827 -1.525157 -0.38734224
1.2666043 -1.5256324 -0.38543415
1.2507708 -1.5259686 -0.38352609
1.2349833 -1.5261664 -0.38161799
1.2192433 -1.526226 -0.3797099
1.2035512 -1.5261488 -0.37780181
1.1879084 -1.5259349 -0.37589371
1.1782973 -1.5333686 -0.37589371
1.1627074 -1.5329207 -0.37398562
1.1471701 -1.5323378 -0.37207752
1.131686 -1.5316205 -0.37016943
1.1162566 -1.5307693 -0.36826137
1.1008828 -1.5297852 -0.36635327
1.0855656 -1.5286684 -0.36444518
1.0703061 -1.52742 -0.36253709
1.0551053 -1.5260404 -0.36062899
1.0454961 -1.5326397 -0.36062899
1.030365 -1.5310347 -0.3587209
1.0152956 -1.5293003 -0.3568128
1.0002888 -1.5274373 -0.35490471
-1.0471663 -1.6374091 -0.37780181
-1.0520931 -1.622561 -0.37589371
-1.0461253 -1.5912877 -0.37016943
-1.1170782 -1.5057942 -0.36444518
-1.1265173 -1.4987457 -0.36444518
-1.1418591 -1.4994476 -0.36635327
-1.1572539 -1.5000156 -0.36826137
-1.1727008 -1.5004492 -0.37016943
-1.1881657 -1.5007733 -0.37207752
-1.2035825 -1.5010409 -0.37398562
-1.2190804 -1.5011486 -0.37589371
-1.2347243 -1.5010402 -0.37780181
-1.2441312 -1.4932526 -0.37780181
-1.2661505 -1.5004102 -0.38161799
-1.2819301 -1.4998876 -0.38352609
-1.2913289 -1.4918034 -0.38352609
-1.3136187 -1.4984232 -0.38734224
-1.3230076 -1.49014 -0.38734224
-1.3454708 -1.4963969 -0.39115843
-1.3614553 -1.4951717 -0.39306653
-1.3774773 -1.4938043 -0.39497462
-1.4002353 -1.4994689 -0.39879081
-1.4028844 -1.4835092 -0.39688271
-1.4529138 -1.5172038 -0.40833125
-1.5170877 -1.5644205 -0.42359596
-1.540643 -1.5688652 -0.42741215
-1.5573918 -1.5661147 -0.42932025
-1.5741665 -1.5632153 -0.43122831
-1.5979747 -1.5670396 -0.4350445
-1.6148407 -1.5637972 -0.43695259
-1.6388234 -1.5671887 -0.44076878
-1.655775 -1.5636005 -0.44267687
-3.0517716 -2.0584464 -0.71553373
-3.0564725 -2.033793 -0.71362561
-3.052778 -2.0037756 -0.70980942
-2.5700617 -1.5737029 -0.5857836
-2.5378809 -1.5321569 -0.57624316
-2.5727634 -1.5312423 -0.58196741
-2.6246669 -1.5398837 -0.59150785
-2.6597836 -1.5381044 -0.59723216
-2.7035089 -1.5408045 -0.60486448
-2.7559307 -1.547822 -0.61440498
-2.7913678 -1.5447346 -0.62012923
-3.0068681 -1.4484012 -0.64875054
-3.060261 -1.4505018 -0.65829104
-3.1226938 -1.4561362 -0.66973954
-4.3745136 -1.4348843 -0.89489418
-4.4769068 -1.4373782 -0.91397506
-4.4858494 -1.4092207 -0.91397506
-4.4946156 -1.3810076 -0.91397506
-4.4844012 -1.3470918 -0.91015887
-4.4927769 -1.318889 -0.91015887
-4.491539 -1.2879283 -0.90825081
-4.8152676 -1.2184501 -0.9654935
-4.7751718 -1.1764302 -0.95595306
-4.8248372 1.0019212 -0.95786113
-4.8279552 1.0346932 -0.95976925
-4.8500681 1.07157 -0.9654935
-4.8624792 1.105955 -0.96930969
-1.132079 1.1361369 0.14032075
-1.0899831 1.1077232 0.13596296
-1.1385398 1.1717067 0.14293541
-1.1173611 1.1644608 0.1411923
-1.1031703 1.1642275 0.14032075
-1.0890273 1.1638614 0.13944918
-1.0411294 1.1267807 0.13421984
-1.0340294 1.1332997 0.13421984
-1.0268879 1.1397747 0.13421984
-1.0263281 1.1536468 0.13509139
-1.0190589 1.1600729 0.13509139
-1.0052228 1.1589272 0.13421984
-1.004401 1.1727868 0.13509139
-1.0034127 1.1867085 0.13596296
1.0117695 0.98863828 0.12376115
1.02513 0.98917896 0.12463271
1.031325 0.98271841 0.12463271
1.0519894 0.98987246 0.12637582
1.065513 0.989995 0.12724738
1.0791391 0.98992133 0.12811893
1.0853966 0.98305631 0.12811893
1.0989774 0.98285812 0.1289905
1.1125982 0.98252785 0.12986206
1.1337664 0.98861206 0.13160516
1.147505 0.98796868 0.13247673
1.16128 0.9871915 0.13334829
1.1674597 0.9798755 0.13334829
1.1889344 0.98523355 0.13509139
1.1951014 0.97774386 0.13509139
1.2089709 0.97647506 0.13596296
1.2228713 0.97507024 0.13683452
1.2446294 0.97969067 0.13857763
1.2586268 0.97796339 0.13944918
1.2726513 0.97609866 0.14032075
1.2867018 0.97409618 0.1411923
1.3087572 0.97791821 0.14293541
1.32292 0.97555232 0.14380698
1.337163 0.97296631 0.14467853
1.3594921 0.97608495 0.14642164
1.3737267 0.97328287 0.14729321
1.3879795 0.97034019 0.14816476
1.4104495 0.97291309 0.14990787
1.4330059 0.97524148 0.151651
1.4473759 0.97177142 0.15252255
1.470064 0.97366005 0.15426566
1.4844925 0.96985281 0.15513723
1.5073048 0.97129858 0.15688033
1.5217855 0.96715218 0.15775189
1.5447143 0.9681524 0.15949501
1.5677152 0.96890223 0.16123812
1.5907856 0.96940088 0.16298124
1.6053845 0.96451706 0.1638528
1.6371535 0.96959639 0.16646747
1.6605042 0.9691909 0.16821058
1.6752276 0.96365124 0.16908213
1.6984978 0.96308059 0.17082526
1.7218506 0.96221131 0.17256837
1.7453156 0.96098351 0.17431149
1.7688322 0.95949841 0.1760546
1.7923986 0.95775539 0.1777977
1.8248277 0.96039331 0.18041238
1.8750488 0.97182918 0.18477017
1.8988907 0.96903396 0.18651329
1.9228294 0.96586066 0.1882564
1.9467776 0.96247452 0.18999952
1.9707021 0.9589411 0.19174263
2.003643 0.95944762 0.19435731
2.0366673 0.9595772 0.19697197
2.0697711 0.95932919 0.19958664
2.1029513 0.95870262 0.20220132
2.1270878 0.9536792 0.20394443
2.1603014 0.95253932 0.20655911
2.1936333 0.95090425 0.20917378
2.2271421 0.94862181 0.21178845
2.2698739 0.94985783 0.21527468
2.3034384 0.94694036 0.21788935
2.346292 0.94736803 0.22137558
2.3892407 0.94729394 0.22486182
2.4230218 0.94303769 0.22747648
2.4662058 0.94179887 0.23096271
2.5187485 0.94367927 0.23532051
2.5619476 0.94180447 0.23880672
6.0397573 1.5123198 0.54472339
6.04914 1.4743413 0.54472339
6.067977 1.4386034 0.54559493
6.0671887 1.3982118 0.54472339
6.0660958 1.3580526 0.54385185
6.0646591 1.3183253 0.54298025
6.0629983 1.2785033 0.54210871
6.0709114 1.2403833 0.54210871
6.0688128 1.2002815 0.54123718
6.0664496 1.1602552 0.54036558
6.0638237 1.120306 0.53949404
6.0805507 1.0839322 0.54036558
6.067605 1.0423325 0.5386225
6.0642056 1.0025634 0.5377509
6.0605469 0.96287811 0.53687936
6.0566287 0.92327845 0.53600782
6.0721679 0.8866449 0.53687936
6.0677524 0.84709764 0.53600782
6.0630803 0.80764169 0.53513622
6.0581527 0.76827717 0.53426468
6.0529695 0.72900653 0.53339314
6.0574307 0.69096041 0.53339314
6.0517654 0.65165579 0.53252161
6.0557942 0.61308974 0.53252161
6.0496435 0.57372373 0.53165001
6.0531292 0.53570157 0.53165001
6.0464473 0.49684241 0.53077847
6.0593829 0.45959526 0.53165001
6.0522013 0.42098835 0.53077847
6.0546937 0.38348201 0.53077847
6.0470171 0.34522781 0.52990693
6.8847933 0.34967244 0.6031177
6.040926 0.26877058 0.52903533
6.0524497 0.23118946 0.52990693
6.0537882 0.19299197 0.52990693
6.0449362 0.15416838 0.52903533
6.0457926 0.115821 0.52903533
6.046401 0.077832058 0.52903533
6.0567322 0.039905686 0.52990693
6.0469017 0.0018464711 0.52903533
6.0467949 -0.035982121 0.52903533
6.0464559 -0.073446184 0.52903533
6.0458817 -0.11107328 0.52903533
6.0550232 -0.14930385 0.52990693
6.0539656 -0.18734476 0.52990693
6.0427141 -0.22500837 0.52903533
6.0411811 -0.26297122 0.52903533
6.0394096 -0.30092371 0.52903533
6.0373993 -0.33886433 0.52903533
6.035151 -0.37679154 0.52903533
6.0326648 -0.41470391 0.52903533
6.0398741 -0.45334551 0.52990693
6.0369062 -0.49128601 0.52990693
6.0337005 -0.52920711 0.52990693
6.040174 -0.56804007 0.53077847
5.9533138 -0.63543725 0.52380598
5.9986982 -0.67842788 0.52816379
5.9547505 -0.71137846 0.52467757
5.9600472 -0.75002289 0.52554911
5.9650931 -0.78876185 0.52642065
5.9797544 -0.82896173 0.52816379
5.9645929 -0.86492437 0.52729225
5.9492698 -0.90037256 0.52642065
5.9533663 -0.93909246 0.52729225
5.9570932 -0.97861427 0.52816379
5.9507656 -1.0163816 0.52816379
5.954071 -1.05549 0.52903533
5.9473219 -1.0928787 0.52903533
5.9403377 -1.1302251 0.52903533
5.9428935 -1.1694503 0.52990693
5.9451909 -1.2087522 0.53077847
5.947228 -1.248129 0.53165001
5.9490051 -1.2875791 0.53252161
5.9505205 -1.3271005 0.53339314
5.9420648 -1.3644624 0.53339314
5.9430695 -1.4040608 0.53426468
5.9438105 -1.4437257 0.53513622
5.9443283 -1.4832929 0.53600782
5.9446745 -1.5225661 0.53687936
5.9350839 -1.5595317 0.53687936
5.7808862 -1.557909 0.52380598
5.6941652 -1.5729798 0.51683354
5.6937551 -1.611439 0.51770508
3.0014083 -1.5261608 0.29458642
2.9740572 -1.5358471 0.29284328
2.9379232 -1.5405436 0.29022861
2.8843532 -1.5353127 0.28587082
2.8396432 -1.5343682 0.2823846
2.7948749 -1.5332612 0.27889836
2.7503211 -1.5314968 0.27541214
2.7060859 -1.5289065 0.27192593
2.6705492 -1.5309273 0.26931125
2.6349099 -1.5328808 0.26669657
2.5993967 -1.5343719 0.2640819
2.5555172 -1.5302031 0.26059568
2.5203087 -1.5307152 0.257981
2.4851956 -1.5308464 0.25536633
2.4501815 -1.5305972 0.25275165
2.4152694 -1.5299692 0.25013697
2.3804629 -1.5289634 0.24752231
2.3457654 -1.5275813 0.24490763
2.3195357 -1.5312495 0.24316452
2.2851651 -1.5289723 0.24054985
2.2508709 -1.5263903 0.23793517
2.2248166 -1.529217 0.23619206
2.1988163 -1.531777 0.23444894
2.1647341 -1.5283256 0.23183428
2.138885 -1.5303035 0.23009115
2.105032 -1.52617 0.22747648
2.0873728 -1.5334682 0.22660492
2.0537231 -1.5287083 0.22399026
2.0281706 -1.529585 0.22224714
2.0026884 -1.5302017 0.22050403
1.9772792 -1.5305591 0.21876091
1.9519448 -1.5306581 0.2170178
1.9266883 -1.5304996 0.21527468
1.8937501 -1.5238394 0.21266001
1.8764163 -1.5294142 0.21178845
1.8514057 -1.5284888 0.21004534
1.8264811 -1.5273104 0.20830221
1.8016449 -1.5258796 0.20655911
1.7769413 -1.5241489 0.204816
1.7524213 -1.5220648 0.20307288
1.7354348 -1.5263618 0.20220132
1.7109325 -1.5239837 0.2004582
1.6939263 -1.5280311 0.19958664
1.676937 -1.5319251 0.19871509
1.6453407 -1.5221362 0.19610041
1.6284745 -1.5256332 0.19522886
1.6116295 -1.5289787 0.19435731
1.594807 -1.5321729 0.19348575
1.570868 -1.5282698 0.19174263
1.5541382 -1.5311182 0.19087107
1.5374348 -1.5338169 0.18999952
1.5137514 -1.5292861 0.1882564
1.4971493 -1.5316432 0.18738484
1.4805776 -1.5338522 0.18651329
1.4571642 -1.528703 0.18477017
1.4407023 -1.5305744 0.18389861
1.4242748 -1.5322998 0.18302706
1.3944101 -1.519201 0.18041238
1.378189 -1.5205132 0.17954083
1.3554525 -1.5141785 0.1777977
1.3459618 -1.522621 0.1777977
1.3296845 -1.5236589 0.17692615
1.3135325 -1.5244794 0.1760546
1.2976056 -1.5250018 0.17518304
1.2752733 -1.5177933 0.17343992
1.2657115 -1.5257761 0.17343992
1.2497878 -1.5259917 0.17256837
1.2276485 -1.5183207 0.17082526
1.2118697 -1.5182185 0.16995369
1.1961409 -1.5179783 0.16908213
1.1804632 -1.5176007 0.16821058
1.1648377 -1.5170863 0.16733903
1.1492655 -1.5164357 0.16646747
1.1337478 -1.5156497 0.1655959
1.1242024 -1.5227432 0.1655959
1.1028798 -1.5136738 0.1638528
1.0933473 -1.5205735 0.1638528
1.078007 -1.5192887 0.16298124
1.0627263 -1.5178714 0.16210967
1.0531683 -1.5245186 0.16210967
1.0323476 -1.5146422 0.16036656
1.0228103 -1.5210987 0.16036656
1.0132329 -1.5274953 0.16036656
-1.9272898 -5.0863252 0.47587034
-1.9663866 -5.0927014 0.47761345
-2.0092859 -5.1080575 0.48022813
-2.0487504 -5.1138268 0.48197126
-1.1258664 -1.4966553 0.1638528
-1.1412864 -1.4974749 0.16472435
-1.1567609 -1.4981595 0.1655959
-1.1661513 -1.4908619 0.1655959
-1.2993984 -1.4440151 0.16995369
-1.3352857 -1.465275 0.17343992
-1.3714902 -1.4861399 0.17692615
-1.5194112 -1.5655855 0.19087107
-1.5501662 -1.5773231 0.19348575
-1.5670735 -1.574613 0.19435731
-1.5840075 -1.5717525 0.19522886
-1.615198 -1.5826855 0.19784354
-1.6251104 -1.5725057 0.19784354
-1.656566 -1.5829105 0.2004582
-1.666479 -1.5724708 0.2004582
-1.6836145 -1.5687602 0.20132977
-1.7227616 -1.5851318 0.204816
-2.0943513 -1.5907078 0.23009115
-2.1122754 -1.5834926 0.23096271
-2.1301913 -1.5761149 0.23183428
-2.1480975 -1.5685742 0.23270583
-2.1417465 -1.5433981 0.23096271
-2.1919942 -1.558777 0.23532051
-2.2098997 -1.5506958 0.23619206
-2.5590932 -1.543592 0.26146722
-2.6029913 -1.5478487 0.26495346
-2.6470425 -1.551614 0.26843968
-2.6739907 -1.5449189 0.27018279
-2.7096157 -1.5428752 0.27279747
-2.7453196 -1.5404443 0.27541214
-2.8072534 -1.5520854 0.2806415
-2.851943 -1.5534775 0.28412771
-2.9890835 -1.4615885 0.29110017
-3.0071845 -1.4470985 0.29197174
-3.0882466 -1.462281 0.29894421
-3.124464 -1.4554678 0.30155885
-4.148623 -1.4454405 0.38435683
-4.2234912 -1.4422427 0.39045772
-4.3174105 -1.444376 0.39830175
-4.3358674 -1.4203217 0.39917329
-4.3352199 -1.3900092 0.39830175
-4.3343625 -1.3597609 0.39743018
-4.2571073 -1.3062012 0.38958615
-4.2366042 -1.2708406 0.3869715
-6.714334 -1.5621667 0.6031177
-6.9281125 -1.5658842 0.62142044
-7.28825 -1.5985516 0.65279651
-7.3274751 -1.558507 0.65541118
-7.3663936 -1.5184683 0.65802586
-7.4441733 -1.4858053 0.66412675
-7.4435811 -1.4371126 0.66325521
-7.4426327 -1.3886923 0.66238362
-7.7354126 -1.3937794 0.68765879
-8.0187521 -1.3933704 0.71206242
-8.3221111 -1.3922708 0.73820913
-8.6355953 -1.3889985 0.76522744
-8.9690466 -1.3848757 0.79398882
-11.884736 -1.7583613 1.0510982
-12.42834 -1.7579582 1.0981623
-12.764983 -1.7234118 1.1269237
-12.805058 -1.6481011 1.1295384
-12.785444 -1.5644025 1.1269237
-12.775359 -1.4806306 1.1251806
-12.774591 -1.3984816 1.1243091
-13.030861 -1.343739 1.146098
-13.267105 -1.2839113 1.1661438
-13.294754 -1.2023177 1.167887
-13.302045 -1.1187645 1.167887
-13.308812 -1.0351601 1.167887
-13.32499 -0.95223194 1.1687585
-13.33071 -0.86848664 1.1687585
-13.325959 -0.78412896 1.167887
-13.320675 -0.69985825 1.1670154
-13.314841 -0.61605364 1.1661438
-13.328357 -0.53394085 1.1670154
-13.321477 -0.45027927 1.1661438
-13.314117 -0.36513606 1.1652722
-13.316165 -0.28068337 1.1652722
-13.307705 -0.1968594 1.1644007
-13.30868 -0.11324469 1.1644007
-13.31909 -0.029640589 1.1652722
-13.319014 0.054042351 1.1652722
-13.30845 0.13762723 1.1644007
-13.317283 0.22140563 1.1652722
-13.30567 0.30485114 1.1644007
-13.313449 0.38873392 1.1652722
-13.3207 0.47273356 1.1661438
-13.526484 0.56514972 1.1844466
-13.194302 0.63434428 1.1556852
-13.219897 0.71885276 1.1582998
-13.225063 0.80250818 1.1591713
-13.209821 0.88491809 1.1582998
-13.194064 0.96717519 1.1574283
-13.197658 1.0508436 1.1582998
-12.734228 1.0945075 1.1182082
-11.784719 1.0875279 1.0354102
-11.361272 1.1204897 0.99880481
-10.224551 1.0732883 0.89944726
-9.5839558 1.0669689 0.84366757
-8.9933367 1.0584617 0.79224569
-8.4823151 1.0523947 0.74779624
-8.0408926 1.0489665 0.70944774
-7.599865 1.0400393 0.67109919
-7.2381744 1.0369112 0.63972312
-6.9063935 1.0337088 0.61096174
-6.5946374 1.0294492 0.58394349
-6.3323836 1.0293099 0.56128299
-6.0704026 1.0259137 0.5386225
-5.8283477 1.0227146 0.51770508
-5.6061845 1.0200795 0.49853083
-5.4234509 1.0220771 0.4828428
-5.250699 1.0237235 0.46802634
-5.0683808 1.0212756 0.45233831
-4.8570213 1.0106231 0.4340356
-4.8797045 1.0478173 0.43665028
-4.8729897 1.0786136 0.43665028
-4.9050651 1.1176388 0.44013649
-4.8688865 1.1414542 0.43752182
-1.0590383 1.1327037 -0.2456021
-1.0519006 1.1393352 -0.2456021
-1.044721 1.1459222 -0.2456021
-1.0308924 1.1451229 -0.24403776
-1.0171148 1.1441959 -0.24247342
-1.0164213 1.1579868 -0.24403776
-1.0155939 1.1718143 -0.2456021
-1.0017897 1.1706678 -0.24403776
1.0043626 0.99303257 -0.22370128
1.0176491 0.99360245 -0.22526562
1.0309821 0.9940443 -0.22682998
1.0515138 1.0011681 -0.22995865
1.0649793 1.0013071 -0.23152301
1.0712823 0.9945609 -0.23152301
1.0848774 0.99439001 -0.23308735
1.1058041 1.0007493 -0.23621604
1.1194348 1.000363 -0.23778038
1.1256981 0.9933098 -0.23778038
1.1468107 0.99919379 -0.24090907
1.153066 0.99196845 -0.24090907
1.1743315 0.99749237 -0.24403776
1.1805757 0.99009418 -0.24403776
1.2019885 0.99525505 -0.24716645
1.215865 0.99393427 -0.24873079
1.2374582 0.99868119 -0.25185949
1.2437086 0.99088633 -0.25185949
1.2576734 0.98915827 -0.25342384
1.2716651 0.98729366 -0.25498816
1.2935224 0.99129987 -0.25811687
1.3076024 0.98911148 -0.2596812
1.3296201 0.9926939 -0.2628099
1.343815 0.99013513 -0.26437426
1.3500953 0.98155445 -0.26437426
1.3643143 0.97873539 -0.26593858
1.3865597 0.98155737 -0.26906729
1.4007968 0.97848195 -0.27063161
1.423182 0.9808712 -0.27376032
1.4456519 0.98301739 -0.276889
1.4682043 0.98491943 -0.28001767
1.4826003 0.98112583 -0.28158203
1.5052772 0.98258871 -0.28471074
1.5280302 0.983805 -0.28783941
1.5425193 0.97947919 -0.28940377
1.5737562 0.98549396 -0.2940968
1.588321 0.98077559 -0.29566112
1.6113245 0.98104936 -0.29878983
1.6343936 0.98107237 -0.30191851
1.6575578 0.9807896 -0.30504721
1.6723044 0.97518587 -0.30661154
1.6955464 0.97446573 -0.30974025
1.7187389 0.97367841 -0.31286892
1.7420179 0.97258377 -0.3159976
1.7654022 0.97114021 -0.31912631
1.7975203 0.97414678 -0.32381934
1.8210316 0.9721362 -0.32694802
1.8533301 0.97446477 -0.33164105
1.8769579 0.97188383 -0.33476976
1.9006574 0.96898192 -0.33789843
1.9332749 0.97014391 -0.34259146
1.9659516 0.97099334 -0.3472845
1.9897795 0.96725804 -0.3504132
2.0225475 0.96752346 -0.35510623
2.0553958 0.96741515 -0.35979927
2.0793593 0.96278149 -0.36292794
2.1123335 0.96197814 -0.36762097
2.1543612 0.96490544 -0.37387836
2.1874149 0.96348298 -0.37857139
2.2296596 0.96546632 -0.38482878
2.2630301 0.96284348 -0.38952181
2.2964253 0.95990914 -0.39421484
2.3389575 0.96046871 -0.40047222
2.3815858 0.96053112 -0.40672961
2.4243059 0.96009517 -0.41298699
2.4671443 0.95907927 -0.41924435
6.1840773 1.2609752 -0.99961621
6.1724977 1.2182698 -0.9964875
6.1994343 1.1831663 -0.99961621
6.1970325 1.1424003 -0.99805188
6.2040882 1.1034408 -0.99805188
6.2011638 1.0627694 -0.9964875
6.1882286 1.0205711 -0.99335885
6.1847639 0.98012346 -0.99179447
6.181035 0.93975967 -0.99023014
6.1868176 0.90090472 -0.99023014
6.1825738 0.86065239 -0.98866582
6.1780682 0.82048905 -0.98710144
6.1831017 0.78165591 -0.98710144
5.9453964 -0.59919441 -0.94642848
5.942853 -0.71232426 -0.94799286
5.9676576 -0.75336117 -0.95268589
5.9823885 -0.79343921 -0.95581454
5.9675026 -0.82965171 -0.95425022
5.9622002 -0.86693478 -0.95425022
5.9567142 -0.90385878 -0.95425022
5.9509382 -0.94113874 -0.95425022
5.9545674 -0.98063427 -0.95581454
5.9482331 -1.0183531 -0.95581454
5.9611664 -1.0591624 -0.95894325
5.9543939 -1.0965964 -0.95894325
5.9473863 -1.1339864 -0.95894325
5.9498339 -1.1732432 -0.96050757
5.952023 -1.2125753 -0.96207196
5.9539523 -1.2519814 -0.96363628
5.9556208 -1.2914593 -0.96520066
5.9473891 -1.328854 -0.96520066
5.9485478 -1.3684103 -0.96676499
5.9590549 -1.4103084 -0.96989369
5.9500761 -1.4477222 -0.96989369
5.9600754 -1.4896742 -0.97302234
5.941164 -1.5241188 -0.97145802
5.8455911 -1.5384703 -0.95737892
5.7023101 -1.5391355 -0.93547809
5.6925273 -1.5749335 -0.93547809
5.9063034 -1.7950349 -0.97771537
5.9514995 -1.8496979 -0.98710144
5.9397602 -1.8870556 -0.98710144
3.9009001 -1.6288326 -0.66953951
3.8452809 -1.6336601 -0.66171777
3.7896993 -1.6379863 -0.65389603
3.7431669 -1.6458632 -0.64763868
3.1009359 -1.5053993 -0.54595625
3.0559845 -1.5073766 -0.5396989
3.011132 -1.5088484 -0.53344154
2.9751854 -1.5142976 -0.52874851
2.9480641 -1.5238905 -0.5256198
2.912245 -1.5285169 -0.52092677
2.8591344 -1.5233101 -0.51310503
2.806102 -1.5176889 -0.5052833
2.7617469 -1.5165181 -0.49902594
2.7262483 -1.5194753 -0.49433291
2.6737945 -1.5120283 -0.48651117
2.647141 -1.5189093 -0.48338249
2.6032701 -1.5158616 -0.47712511
2.5680997 -1.517258 -0.47243208
2.5331001 -1.5181317 -0.46773905
2.4897521 -1.5134957 -0.46148166
2.4633787 -1.5187421 -0.45835298
2.4286635 -1.5184815 -0.45365995
2.3940499 -1.5178452 -0.44896692
2.3678493 -1.5221756 -0.44583821
2.3251402 -1.5154507 -0.43958083
2.3073821 -1.5245095 -0.4380165
2.2650652 -1.5167938 -0.43175912
2.239229 -1.5197796 -0.42863044
2.2052236 -1.5170254 -0.42393738
2.1713424 -1.5139045 -0.41924435
2.1456547 -1.516118 -0.41611567
2.1200254 -1.518069 -0.41298699
2.086463 -1.5139577 -0.40829393
2.0689518 -1.5211867 -0.40672961
2.0435121 -1.5223551 -0.4036009
2.0102565 -1.517314 -0.39890787
1.9849918 -1.5179151 -0.39577919
1.9597994 -1.5182595 -0.39265051
1.9346817 -1.5183477 -0.38952181
1.9096408 -1.5181806 -0.38639313
1.884679 -1.5177594 -0.38326442
1.8597984 -1.5170848 -0.38013574
1.8350015 -1.5161581 -0.37700707
1.8178649 -1.5213184 -0.37544271
1.800736 -1.526324 -0.37387836
1.768677 -1.5182502 -0.36918533
1.7517819 -1.5227 -0.36762097
1.7348498 -1.5270556 -0.36605665
1.7104753 -1.5247811 -0.36292794
1.6861986 -1.5222611 -0.35979927
1.6620215 -1.5194968 -0.35667059
1.6451939 -1.5231994 -0.35510623
1.6211805 -1.5199953 -0.35197753
1.5972728 -1.5165501 -0.34884885
1.5805928 -1.5197105 -0.3472845
1.5639364 -1.5227214 -0.34572017
1.5402715 -1.518649 -0.34259146
1.5237098 -1.5213182 -0.34102714
1.50023 -1.5168172 -0.33789843
1.4837692 -1.5191473 -0.33633408
1.4673381 -1.5213311 -0.33476976
1.4509385 -1.5233686 -0.3332054
1.4345714 -1.5252603 -0.33164105
1.4182382 -1.5270069 -0.33007672
1.3952639 -1.5213295 -0.32694802
1.3857273 -1.5300212 -0.32694802
1.3630514 -1.5238543 -0.32381934
1.3469448 -1.5249562 -0.32225499
1.3307115 -1.5260618 -0.32069066
1.3146191 -1.5269365 -0.31912631
1.2987355 -1.5275276 -0.31756195
1.2828453 -1.5280228 -0.3159976
1.260613 -1.5208445 -0.31286892
1.2510325 -1.528735 -0.31286892
1.2351954 -1.5288825 -0.31130457
1.2194066 -1.5288912 -0.30974025
1.2097763 -1.5365227 -0.30974025
1.187976 -1.5284967 -0.30661154
1.1723368 -1.5280944 -0.30504721
1.1567497 -1.5275563 -0.30348286
1.1471291 -1.5347941 -0.30348286
1.1315999 -1.5340232 -0.30191851
1.1161258 -1.5331179 -0.30035415
1.1064711 -1.5401005 -0.30035415
1.0967726 -1.5470221 -0.30035415
1.081369 -1.5457896 -0.29878983
1.060414 -1.5362965 -0.29566112
1.0507402 -1.5429288 -0.29566112
1.035517 -1.541302 -0.2940968
1.0203558 -1.5395449 -0.29253244
1.0052578 -1.5376587 -0.29096809
-1.1074924 -1.4904252 -0.2940968
-1.134657 -1.5071092 -0.29878983
-1.1500942 -1.5078033 -0.30035415
-1.1595452 -1.5005474 -0.30035415
-1.181127 -1.5087867 -0.30348286
-1.1905348 -1.5013744 -0.30348286
-1.2059988 -1.5016701 -0.30504721
-1.2215612 -1.5017915 -0.30661154
-1.2372534 -1.5017095 -0.30817589
-1.2529927 -1.5014893 -0.30974025
-1.268778 -1.5011302 -0.31130457
-1.2846073 -1.5006322 -0.31286892
-1.2940106 -1.4925312 -0.31286892
-1.3163966 -1.499215 -0.3159976
-1.3323537 -1.4982951 -0.31756195
-1.348351 -1.4972335 -0.31912631
-1.3643873 -1.4960297 -0.32069066
-1.5513951 -1.5773344 -0.3504132
-1.5682451 -1.5745536 -0.35197753
-1.5851212 -1.5716231 -0.35354188
-1.6090794 -1.5754523 -0.35667059
-1.6331476 -1.5790418 -0.35979927
-1.6573241 -1.5823907 -0.36292794
-2.5871735 -1.5813886 -0.48025379
-2.5378423 -1.5294154 -0.4693034
-2.6068411 -1.5487531 -0.48025379
-2.6506121 -1.5523088 -0.48651117
-2.6688671 -1.5405616 -0.48807552
-2.7128339 -1.5432976 -0.49433291
-3.0176764 -1.4506887 -0.53031284
-3.0803022 -1.4570394 -0.5396989
-3.1341701 -1.4584922 -0.54752064
-4.402657 -1.4402869 -0.73367763
-4.5056844 -1.4427152 -0.7493211
-4.5052352 -1.411424 -0.74775672
-4.5045705 -1.3801956 -0.7461924
-4.5131536 -1.3518654 -0.7461924
-4.5120797 -1.3207073 -0.74462801
-4.5107923 -1.2896162 -0.74306369
-5.9080553 -1.4113119 -0.96207196
-6.0863347 1.0310673 -0.97771537
-5.8462749 1.0282261 -0.94017112
-5.6162162 1.0241857 -0.9041912
-5.4252696 1.0246252 -0.87446862
-5.2442393 1.0246038 -0.84631044
-5.0731125 1.0243015 -0.81971657
-4.8344865 1.0079412 -0.78217232
-4.8279676 1.0387176 -0.78217232
-4.8406081 1.0734125 -0.78530103
-4.8723812 1.1121765 -0.79155838
-1.1340441 1.1398975 0.19742833
-1.1268592 1.1470007 0.19742833
-1.1127192 1.1469342 0.19620964
-1.1192234 1.1682373 0.19864702
-1.1186826 1.1824564 0.19986571
-1.1044549 1.1822094 0.19864702
-1.0566248 1.1453537 0.19133486
-1.036039 1.1372955 0.18889748
-1.0355109 1.1511617 0.19011617
-1.0150744 1.1428038 0.18767878
-1.0078743 1.1491588 0.18767878
-1.013629 1.1704751 0.19011617
-1.006255 1.1768206 0.19011617
-1.0051979 1.1907427 0.19133486
1.0088373 0.98422533 0.17305447
1.0292972 0.99163997 0.17549185
1.0355076 0.9851532 0.17549185
1.0489109 0.98542351 0.17671055
1.0623957 0.98552346 0.17792924
1.0686524 0.97873557 0.17792924
1.0821904 0.97860616 0.17914793
1.1031247 0.98500896 0.18158531
1.1092919 0.9780584 0.18158531
1.1303873 0.98410374 0.18402271
1.144075 0.98345202 0.1852414
1.157799 0.98266685 0.18646009
1.1715579 0.98174781 0.18767878
1.1853507 0.98069447 0.18889748
1.1991761 0.97950625 0.19011617
1.2130331 0.97818279 0.19133486
1.2346859 0.98290539 0.19377226
1.2408373 0.97512829 0.19377226
1.2547821 0.97339636 0.19499095
1.2766341 0.97756195 0.19742833
1.2827511 0.96952134 0.19742833
1.3047287 0.97331214 0.19986571
1.3108553 0.96504509 0.19986571
1.3330371 0.96834159 0.20230311
1.3552765 0.97144592 0.20474049
1.3694568 0.96864295 0.20595919
1.3917941 0.97138047 0.20839657
1.4060446 0.9682458 0.20961526
1.4285203 0.97054797 0.21205266
1.442835 0.96707946 0.21327135
1.4654413 0.96894336 0.21570873
1.4798141 0.96513879 0.21692742
1.5025439 0.96656138 0.21936481
1.5169684 0.96241879 0.22058351
1.539814 0.96339738 0.2230209
1.5627311 0.96412659 0.22545828
1.5857176 0.96460533 0.22789566
1.6087711 0.96483284 0.23033306
1.6319262 0.96474612 0.23277044
1.6551911 0.9643234 0.23520783
1.6698352 0.95882893 0.23642652
1.7016575 0.96313143 0.24008261
1.724965 0.96217453 0.24251999
1.7396748 0.95609784 0.24373868
1.7718325 0.95932549 0.24739476
1.7953407 0.95751548 0.24983215
1.8364692 0.96467894 0.25470692
1.8601255 0.96224201 0.2571443
1.8838599 0.95947349 0.25958169
1.9165527 0.96079743 0.26323777
1.9404001 0.95742571 0.26567516
1.9731625 0.95822251 0.26933125
