# .PCD v0.7 - Point Cloud Data file format
VERSION 0.7
FIELDS x y z
SIZE 4 4 4
TYPE F F F
COUNT 1 1 1
WIDTH 1488
HEIGHT 1
VIEWPOINT 0 0 0 1 0 0 0
POINTS 1488
DATA ascii
2.2068851 -1.1812766 -0.48656294
2.1650214 -1.1761833 -0.47893056
2.1490703 -1.1848825 -0.47702247
2.1244504 -1.1887751 -0.47320631
2.0998411 -1.1924514 -0.46939012
2.0751922 -1.1960009 -0.46557394
2.0506363 -1.1991957 -0.46175775
2.0262814 -1.2018626 -0.45794159
1.9935348 -1.1992575 -0.45221731
1.9775808 -1.2066466 -0.45030922
1.9532655 -1.2087173 -0.44649303
1.9290031 -1.2105305 -0.44267687
1.9048221 -1.2120453 -0.43886068
1.889027 -1.218503 -0.43695259
1.8649826 -1.2194804 -0.4331364
1.84092 -1.220327 -0.42932025
1.8250685 -1.2263948 -0.42741215
1.8092138 -1.2323116 -0.42550406
1.7852788 -1.232501 -0.42168787
1.7614137 -1.2324387 -0.41787168
1.7456547 -1.2377658 -0.41596359
1.72998 -1.2428304 -0.41405553
1.7142824 -1.2477862 -0.41214743
1.6906084 -1.2468796 -0.40833125
1.6827407 -1.2574774 -0.40833125
1.6591542 -1.2561747 -0.40451506
1.6434674 -1.2605643 -0.40260696
1.6201221 -1.258678 -0.39879081
1.6045506 -1.2626566 -0.39688271
1.5889095 -1.2665944 -0.39497462
1.5732827 -1.2703859 -0.39306653
1.5500728 -1.2678164 -0.38925034
1.5345172 -1.2712684 -0.38734224
1.5189795 -1.2745751 -0.38543415
1.5034893 -1.2777041 -0.38352609
1.4881034 -1.280592 -0.38161799
1.4727118 -1.2833706 -0.3797099
1.4572593 -1.2861031 -0.37780181
1.4418308 -1.2886924 -0.37589371
1.4191499 -1.2845513 -0.37207752
1.411079 -1.2934119 -0.37207752
1.3958428 -1.2954526 -0.37016943
1.3806078 -1.2973841 -0.36826137
1.3653178 -1.2992661 -0.36635327
1.350059 -1.3010074 -0.36444518
1.3348325 -1.3026085 -0.36253709
1.3196394 -1.30407 -0.36062899
1.304481 -1.3053921 -0.3587209
1.2893872 -1.306547 -0.3568128
1.2744153 -1.3074816 -0.35490471
1.2594533 -1.3083084 -0.35299665
1.2444448 -1.3090812 -0.35108855
1.2294767 -1.3097175 -0.34918046
1.2145499 -1.3102176 -0.34727237
1.2062937 -1.3178231 -0.34727237
1.1848251 -1.3108118 -0.34345618
1.1765944 -1.3182046 -0.34345618
1.1619134 -1.3181056 -0.34154809
1.1472502 -1.3179005 -0.33963999
1.1325483 -1.3176385 -0.33773193
1.1242471 -1.3247285 -0.33773193
1.1095968 -1.3242421 -0.33582383
1.0950264 -1.3236002 -0.33391574
1.0868043 -1.3303597 -0.33391574
1.0723486 -1.3294508 -0.33200765
1.0639743 -1.3361623 -0.33200765
1.0494915 -1.3351036 -0.33009955
1.0410821 -1.3416715 -0.33009955
1.0207229 -1.3325779 -0.32628337
1.0124469 -1.3388766 -0.32628337
1.0041026 -1.3451457 -0.32628337
-1.333581 -1.6632422 0.18651329
-1.3502854 -1.6625631 0.18738484
-1.3607049 -1.6540463 0.18738484
-1.3774477 -1.6531174 0.1882564
-1.4006574 -1.6596563 0.18999952
-1.4110577 -1.650823 0.18999952
-1.4409628 -1.6645198 0.19261418
-1.4579601 -1.6629238 0.19348575
-1.4749485 -1.6612201 0.19435731
-1.4985331 -1.6668663 0.19610041
-1.5088774 -1.6575083 0.19610041
-1.5395188 -1.6699682 0.19871509
-1.5567335 -1.6675868 0.19958664
-1.5738791 -1.665149 0.2004582
-1.5910991 -1.6625192 0.20132977
-1.6015135 -1.6524892 0.20132977
-1.6327981 -1.6637238 0.20394443
-1.6713085 -1.6816957 0.20743066
-1.6747754 -1.6641397 0.20655911
-1.966494 -1.5764452 0.22050403
-1.9841719 -1.5702404 0.22137558
-2.041101 -1.5945396 0.22660492
-2.0747459 -1.5999337 0.2292196
-2.1085379 -1.6049674 0.23183428
-2.1424744 -1.6096388 0.23444894
-3.4610934 -1.8084544 0.34165052
-3.5166786 -1.8094614 0.3460083
-3.599071 -1.8233465 0.35298076
-4.6814528 -1.8419498 0.44013649
-4.8044491 -1.8555684 0.45059517
-4.9277968 -1.8677125 0.46105388
-5.0514822 -1.878378 0.47151256
-5.1380563 -1.8739082 0.47848502
-5.1402979 -1.8383746 0.47761345
-5.1515894 -1.806491 0.47761345
-5.0873637 -1.7484928 0.47064102
-5.0321608 -1.6942428 0.46454009
-5.0710897 -1.6719495 0.46715477
-5.1573381 -1.6645324 0.47412723
-5.158195 -1.6290951 0.47325566
-6.5484543 -2.0230155 0.59963149
-6.7707801 -2.0453887 0.61880577
-8.1495419 -2.4069006 0.74343848
-8.0973635 -2.3368022 0.73733759
-8.1310625 -2.2912831 0.73908067
-8.2029305 -2.2559993 0.74431002
-8.2169437 -2.2044144 0.74431002
-8.3655605 -2.1880336 0.75651181
-8.7652788 -2.233835 0.79137415
-9.1562185 -2.2722967 0.82536489
-9.5867081 -2.3152821 0.86284184
-13.034174 -3.0613389 1.1713731
-13.470776 -3.0747018 1.2088501
-13.518924 -2.9968402 1.2114648
-13.517755 -2.9088271 1.2097217
-13.51609 -2.8205836 1.2079786
-13.523782 -2.7336268 1.2071071
-14.009971 -2.7403975 1.2489418
-14.056278 -2.6578653 1.2515564
-14.0531 -2.5659201 1.2498133
-14.078756 -2.4792957 1.2506849
-14.084169 -2.389508 1.2498133
-14.098704 -2.3021958 1.2498133
-14.093074 -2.2113307 1.2480702
-14.116542 -2.1242166 1.2489418
-14.129609 -2.0354822 1.2489418
-14.14212 -1.9466596 1.2489418
-14.144195 -1.8564714 1.2480702
-14.155581 -1.7675608 1.2480702
-14.166406 -1.678588 1.2480702
-14.176674 -1.5895414 1.2480702
-14.196287 -1.5014874 1.2489418
-14.215355 -1.413242 1.2498133
-14.214034 -1.3229774 1.2489418
-14.222067 -1.2336385 1.2489418
-14.229537 -1.1442585 1.2489418
-14.236445 -1.0548258 1.2489418
-14.232827 -0.96507186 1.2480702
-14.139102 -0.87074238 1.2393546
-14.144247 -0.78274214 1.2393546
-14.188685 -0.69580418 1.2428409
-14.182808 -0.60660434 1.2419693
-14.186295 -0.51871502 1.2419693
-14.199217 -0.43033668 1.2428409
-14.20167 -0.33987558 1.2428409
-13.386786 -0.23542288 1.1713731
-11.535789 -0.057887174 1.0092635
-10.918285 0.013816592 0.9552269
-10.220669 0.07687334 0.89421791
-9.6522188 0.13241097 0.84453911
-9.0934496 0.18134807 0.7957319
-8.6340389 0.22646691 0.75564027
-8.2341776 0.26775831 0.72077799
-7.8242002 0.30365247 0.68504411
-7.4837756 0.33754376 0.65541118
-7.1730938 0.3687079 0.62839288
-6.8822193 0.39712581 0.6031177
-6.6111646 0.4231801 0.57958567
-6.3798275 0.44846302 0.55953985
-6.1484694 0.47050196 0.53949404
-5.9270067 0.49067125 0.52031976
-5.9436517 0.52967197 0.5220629
-5.950139 0.56778979 0.52293444
-5.9365959 0.60363859 0.5220629
-5.9624376 0.64377677 0.52467757
-5.9681726 0.68236017 0.52554911
-10.671449 1.2883748 0.94041044
-10.663025 1.3563282 0.94041044
-2.2334812 0.98410702 0.21353157
-2.2544656 1.0104779 0.21614625
-2.2480719 1.0246238 0.21614625
-2.1693079 1.0051616 0.20917378
-2.1540256 1.0143393 0.20830221
-2.1207137 1.0148233 0.20568755
-2.1411719 1.041198 0.20830221
-2.1256566 1.0502175 0.20743066
-2.1101122 1.0590845 0.20655911
-2.0767908 1.0587475 0.20394443
-2.0347111 1.053455 0.2004582
-2.0015993 1.0523109 0.19784354
-1.9861593 1.060176 0.19697197
-1.9882178 1.0773801 0.19784354
-1.9726803 1.0850505 0.19697197
-1.9658241 1.0974232 0.19697197
-1.9675574 1.114664 0.19784354
-1.943242 1.1170744 0.19610041
-1.884553 1.0991489 0.19087107
-1.8690364 1.1058947 0.18999952
-1.8449676 1.1073635 0.1882564
-1.8380042 1.1188834 0.1882564
-1.8310362 1.1302503 0.1882564
-1.8239676 1.1416224 0.1882564
-1.7915255 1.137046 0.18564174
-1.775969 1.1428884 0.18477017
-1.7687527 1.1540251 0.18477017
-1.7531583 1.1596193 0.18389861
-1.7623856 1.1817081 0.18564174
-1.7631654 1.1983575 0.18651329
-1.6677276 1.1958469 0.17954083
-1.5876484 1.1535999 0.17169681
-1.2098491 0.97538668 0.13596296
-1.1960398 0.9765957 0.13509139
-1.1975565 0.99044061 0.13596296
-1.183646 0.9915809 0.13509139
-1.1773053 0.99910086 0.13509139
-1.1558353 0.99356079 0.13334829
-1.1495695 1.0008037 0.13334829
-1.1283144 0.99483007 0.13160516
-1.1220411 1.0019001 0.13160516
-1.1083353 1.0022483 0.13073361
-1.094669 1.0024648 0.12986206
-1.0956811 1.0160668 0.13073361
-1.0821019 1.0160173 0.12986206
-1.0613189 1.0090033 0.12811893
-1.054958 1.0156522 0.12811893
-1.0414228 1.0153061 0.12724738
-1.0279335 1.0148309 0.12637582
-1.014492 1.0142261 0.12550427
-1.0080992 1.0205805 0.12550427
1.0172532 1.2010965 0.13770607
1.0312656 1.2022426 0.13857763
1.0453326 1.2032597 0.13944918
1.0594527 1.2041471 0.14032075
1.0736248 1.2049043 0.1411923
1.0811416 1.1981642 0.1411923
1.095264 1.1987972 0.14206386
1.1162331 1.2065833 0.14380698
1.1306031 1.206816 0.14467853
1.1381633 1.1996884 0.14467853
1.1525804 1.1996973 0.14555009
1.1739888 1.2067125 0.14729321
1.188539 1.2064089 0.14816476
1.2031314 1.2059697 0.14903632
1.217765 1.2053945 0.14990787
1.2395625 1.2116463 0.151651
1.2543186 1.2107526 0.15252255
1.2691119 1.2097211 0.1533941
1.2839416 1.2085512 0.15426566
1.3061031 1.2140247 0.15600878
1.3210444 1.2125305 0.15688033
1.3433994 1.2175863 0.15862344
1.3584465 1.215765 0.15949501
1.380988 1.2203993 0.16123812
1.4036409 1.2247977 0.16298124
1.4188559 1.2224567 0.1638528
1.4416844 1.2264274 0.1655959
1.45699 1.2237519 0.16646747
1.4799869 1.2272913 0.16821058
1.5030851 1.2305895 0.16995369
1.5262828 1.2336454 0.17169681
1.5495437 1.2365003 0.17343992
1.5728252 1.2392062 0.17518304
1.5883696 1.2355107 0.1760546
1.6198057 1.2437069 0.17866927
1.6434669 1.2455391 0.18041238
1.6831689 1.2590567 0.18389861
1.7070754 1.26029 0.18564174
1.7310632 1.2612721 0.18738484
1.7551301 1.2620021 0.18912795
1.7792737 1.2624789 0.19087107
1.8116528 1.2684153 0.19348575
1.8441757 1.273994 0.19610041
1.8686075 1.2736027 0.19784354
1.8848398 1.2673956 0.19871509
1.9176359 1.2721001 0.20132977
1.9504871 1.2765604 0.20394443
1.9835012 1.2806079 0.20655911
2.0083141 1.2788213 0.20830221
2.0416188 1.2820712 0.21091689
2.0750427 1.2849522 0.21353157
2.1085823 1.2874632 0.21614625
2.1422343 1.2896028 0.21876091
2.1759956 1.2913697 0.22137558
2.2184613 1.2977929 0.22486182
2.2524621 1.2987567 0.22747648
2.2952228 1.3042656 0.23096271
4.8551588 2.560647 0.48022813
4.8269491 2.5071318 0.47587034
4.8426065 2.4767542 0.47587034
4.8580728 2.4462783 0.47587034
4.8732815 2.4158387 0.47587034
4.8792033 2.3812289 0.4749988
4.875968 2.3421922 0.47325566
4.8905883 2.3115096 0.47325566
4.8869491 2.2723351 0.47151256
4.8920703 2.2374413 0.47064102
4.8969469 2.2025731 0.46976945
4.9015784 2.1677322 0.46889788
4.9059663 2.13292 0.46802634
4.91011 2.0981386 0.46715477
4.914011 2.0633893 0.4662832
4.9176693 2.0286741 0.46541166
4.9210858 1.9939946 0.46454009
4.9150052 1.9556693 0.46279699
4.9271955 1.9247496 0.46279699
4.9298902 1.8901869 0.46192542
4.9322948 1.8558011 0.46105388
4.9343534 1.8217549 0.46018231
4.9455948 1.7910128 0.46018231
4.9473624 1.7565703 0.45931077
4.9488931 1.7221764 0.4584392
4.9596162 1.6910478 0.4584392
4.9606943 1.6566968 0.45756763
4.9710054 1.6254953 0.45756763
4.9621449 1.5881563 0.45582452
4.9625192 1.5539701 0.45495296
4.9721847 1.5227592 0.45495296
4.9721112 1.4886309 0.45408142
4.9718051 1.4545637 0.45320985
4.9808459 1.4232963 0.45320985
4.9704618 1.3867548 0.45146674
4.9789581 1.3559321 0.45146674
4.9776721 1.3223629 0.45059517
4.9858828 1.2910613 0.45059517
4.993896 1.2597095 0.45059517
4.9920378 1.2259313 0.44972363
4.9996419 1.1945413 0.44972363
5.0070486 1.1631043 0.44972363
4.994792 1.1273714 0.44798052
5.0016813 1.096403 0.44798052
4.9986634 1.0631827 0.44710895
5.0052447 1.0317544 0.44710895
5.0116286 1.0002853 0.44710895
5.0080333 0.96688825 0.44623739
5.0139842 0.93553978 0.44623739
5.0196843 0.90445614 0.44623739
5.0154247 0.87135822 0.44536585
5.020874 0.83938974 0.44536585
5.0162396 0.80608106 0.44449428
5.030983 0.77650553 0.44536585
5.035718 0.74518156 0.44536585
5.030437 0.71213031 0.44449428
5.034812 0.68050921 0.44449428
5.0389886 0.64886129 0.44449428
5.0429487 0.61732543 0.44449428
5.0466771 0.58606845 0.44449428
5.0502415 0.55451322 0.44449428
5.0437622 0.52130592 0.44362271
5.0568833 0.49026307 0.44449428
5.0598636 0.45848021 0.44449428
5.062633 0.42681745 0.44449428
5.0552483 0.39466682 0.44362271
5.067543 0.36391273 0.44449428
5.0697293 0.33206537 0.44449428
5.0717158 0.30020493 0.44449428
5.0735021 0.26833263 0.44449428
5.0750813 0.23658828 0.44449428
5.0764499 0.20513952 0.44449428
5.0776329 0.17340568 0.44449428
5.0885925 0.14133166 0.44536585
5.0794272 0.10883809 0.44449428
5.0899715 0.077071942 0.44536585
5.0405021 -0.049486469 0.44100806
5.040092 -0.081155747 0.44100806
5.0394826 -0.11282182 0.44100806
5.048636 -0.14463116 0.4418796
5.0476427 -0.17590874 0.4418796
5.0364966 -0.20690911 0.44100806
5.0350976 -0.2385501 0.44100806
5.0334992 -0.27018169 0.44100806
5.0416465 -0.30239907 0.4418796
5.0495958 -0.3345916 0.44275117
5.0474262 -0.36587149 0.44275117
5.0549827 -0.39805776 0.44362271
5.0523815 -0.42981115 0.44362271
5.0595021 -0.46245432 0.44449428
5.066411 -0.49520391 0.44536585
5.0631995 -0.52702719 0.44536585
5.0597882 -0.55882967 0.44536585
5.0660882 -0.59162754 0.44623739
5.0722127 -0.6242215 0.44710895
5.0781093 -0.65705329 0.44798052
5.0837522 -0.69028723 0.44885206
5.0793147 -0.72221494 0.44885206
5.0845304 -0.75557911 0.44972363
5.0895271 -0.78903723 0.45059517
5.0844688 -0.82099998 0.45059517
5.0890346 -0.85458004 0.45146674
5.0933781 -0.88824981 0.45233831
5.077919 -0.91832304 0.45146674
4.9937978 -0.93509901 0.44449428
2.2054403 -1.1992478 0.21963246
2.1892123 -1.2081362 0.21876091
2.1728866 -1.2169995 0.21788935
2.1305211 -1.2109959 0.21440312
2.105505 -1.2145882 0.21266001
2.0719993 -1.2127655 0.21004534
2.0558791 -1.2204945 0.20917378
2.0311754 -1.2229879 0.20743066
1.9979453 -1.2201496 0.204816
1.9817705 -1.2274332 0.20394443
1.9571472 -1.2292637 0.20220132
1.9326136 -1.2307807 0.2004582
1.9082121 -1.2319249 0.19871509
1.8838375 -1.2328659 0.19697197
1.8677529 -1.2391707 0.19610041
1.8433974 -1.2397627 0.19435731
1.8191088 -1.2400979 0.19261418
1.8030853 -1.2458402 0.19174263
1.7870619 -1.2514304 0.19087107
1.7629497 -1.2510551 0.18912795
1.7470763 -1.2561384 0.1882564
1.7231213 -1.2552552 0.18651329
1.7071854 -1.260141 0.18564174
1.6832788 -1.2589098 0.18389861
1.6673956 -1.2634449 0.18302706
1.6357526 -1.2556533 0.18041238
1.6200769 -1.2596492 0.17954083
1.5965539 -1.2573797 0.1777977
1.5808347 -1.2611735 0.17692615
1.5651312 -1.2648197 0.1760546
1.5494446 -1.2683188 0.17518304
1.5261072 -1.2653124 0.17343992
1.5028694 -1.2620634 0.17169681
1.4873563 -1.2649862 0.17082526
1.4719417 -1.2676764 0.16995369
1.4640242 -1.2768121 0.16995369
1.4410398 -1.2727959 0.16821058
1.4255892 -1.2751836 0.16733903
1.4101658 -1.2774274 0.16646747
1.3948059 -1.2794899 0.1655959
1.3795521 -1.2813282 0.16472435
1.3715514 -1.2898886 0.16472435
1.3562059 -1.2916106 0.1638528
1.3337226 -1.2862754 0.16210967
1.3184875 -1.2876697 0.16123812
1.3103708 -1.2959285 0.16123812
1.2951639 -1.2970864 0.16036656
1.2800297 -1.29807 0.15949501
1.2650114 -1.2988397 0.15862344
1.249998 -1.2995074 0.15775189
1.2418083 -1.3073357 0.15775189
1.2267543 -1.3078465 0.15688033
1.2117431 -1.3082201 0.15600878
1.196776 -1.308457 0.15513723
1.181854 -1.3085577 0.15426566
1.1736449 -1.3159255 0.15426566
1.1523 -1.3082207 0.15252255
1.1441363 -1.3153665 0.15252255
1.1293585 -1.3149719 0.151651
1.1146311 -1.3144441 0.15077943
1.0999552 -1.3137832 0.14990787
1.091715 -1.3206385 0.14990787
1.0772117 -1.3196602 0.14903632
1.062727 -1.3185821 0.14816476
1.0544212 -1.3252332 0.14816476
1.0399203 -1.3239979 0.14729321
1.0254769 -1.3226329 0.14642164
1.0171828 -1.3290222 0.14642164
1.0089289 -1.3352989 0.14642164
-1.3125473 -1.6567283 -0.33476976
-1.3228409 -1.6485208 -0.33476976
-1.3394026 -1.6478411 -0.33633408
-1.3560076 -1.647018 -0.33789843
-1.3726548 -1.6460509 -0.33946279
-1.376597 -1.6298482 -0.33789843
-1.4381738 -1.6812099 -0.3504132
-1.4293064 -1.6497457 -0.34572017
-1.8202651 -1.6975363 -0.39421484
-1.8453332 -1.6995481 -0.39734355
-1.9811507 -1.5869179 -0.40203658
-2.0143247 -1.5928173 -0.40672961
-2.0476501 -1.5983618 -0.41142264
-2.0732999 -1.5975213 -0.41455132
-2.1068809 -1.6024003 -0.41924435
-4.6789651 -1.8388501 -0.79625142
-4.8010063 -1.8520733 -0.81502354
-4.932631 -1.8673307 -0.83536005
-5.0461144 -1.8741277 -0.85256779
-5.1877155 -1.8897126 -0.87446862
-5.3389449 -1.9070871 -0.89793384
-5.3133717 -1.8609124 -0.89167643
-5.3155174 -1.8245751 -0.8901121
-5.3175149 -1.787993 -0.88854772
-5.3286443 -1.7545469 -0.88854772
-5.3301625 -1.7180016 -0.88698339
-5.3314323 -1.6815065 -0.88541907
-5.3513303 -1.6508868 -0.88698339
-5.6263118 -1.6972785 -0.93078506
-6.1745696 0.47490427 -0.98084408
-5.8958912 0.49042886 -0.93704242
-5.9123683 0.52922356 -0.94017112
-5.9384408 0.56899399 -0.94486415
-5.8856721 0.60076332 -0.93704242
-5.7639832 0.62464148 -0.91827029
-2.1414385 0.99325556 -0.37387836
-2.1263089 1.0022937 -0.37231401
-2.1022096 1.0069844 -0.36918533
-2.104722 1.0244951 -0.37074968
-2.1159496 1.0464567 -0.37387836
-2.0828562 1.0464283 -0.36918533
-2.0234542 1.0325588 -0.35979927
-2.0344653 1.0543407 -0.36292794
-2.0452814 1.0763024 -0.36605665
-2.0297673 1.0844771 -0.3644923
-1.9534566 1.0595371 -0.35197753
-1.9381089 1.067026 -0.3504132
-1.9313661 1.0791829 -0.3504132
-1.9245476 1.0912962 -0.3504132
-1.9005306 1.0935159 -0.3472845
-1.8850929 1.1004556 -0.34572017
-1.8866394 1.1173117 -0.3472845
-1.8711156 1.1240569 -0.34572017
-1.8640532 1.1357303 -0.34572017
-1.8485777 1.1420671 -0.34415582
-1.8497986 1.1588023 -0.34572017
-1.8424815 1.1704016 -0.34572017
-1.835091 1.1819555 -0.34572017
-1.8028191 1.177261 -0.34102714
-1.7706792 1.1722093 -0.33633408
-1.7632794 1.1833111 -0.33633408
-1.7558093 1.1943672 -0.33633408
-1.7482706 1.2053751 -0.33633408
-1.7568544 1.2276512 -0.33946279
-1.7168649 1.2158326 -0.3332054
-1.6289477 1.1690097 -0.31756195
-1.6135828 1.1734121 -0.3159976
-1.2222043 0.98612857 -0.24873079
-1.2313346 1.0062217 -0.25185949
-1.209771 1.0013427 -0.24873079
-1.1882851 0.99627215 -0.2456021
-1.189442 1.010216 -0.24716645
-1.1755283 1.0112927 -0.2456021
-1.1617044 1.0121702 -0.24403776
-1.1479156 1.0129148 -0.24247342
-1.1267996 1.0069443 -0.23934473
-1.1204503 1.0140046 -0.23934473
-1.1140573 1.0210242 -0.23934473
-1.0931746 1.0145301 -0.23621604
-1.0868675 1.021284 -0.23621604
-1.0733297 1.0212257 -0.2346517
-1.0597796 1.0210961 -0.23308735
-1.0462734 1.0208374 -0.23152301
-1.0398389 1.027391 -0.23152301
-1.0193985 1.0199327 -0.22839431
-1.0129702 1.0263174 -0.22839431
-1.0065014 1.032662 -0.22839431
1.0002869 1.2106441 -0.24873079
1.0142126 1.2119098 -0.25029513
1.0281935 1.2130479 -0.25185949
1.0422283 1.2140578 -0.25342384
1.0563164 1.214939 -0.25498816
1.0704564 1.2156907 -0.25655252
1.0846472 1.2163125 -0.25811687
1.0988481 1.2168396 -0.2596812
1.1130313 1.2172971 -0.26124555
1.1273018 1.2175884 -0.2628099
1.1416854 1.2176867 -0.26437426
1.1561145 1.2176518 -0.26593858
1.1774334 1.2246034 -0.26906729
1.1919947 1.2242578 -0.27063161
1.2135323 1.2308106 -0.27376032
1.2282202 1.2301509 -0.27532464
1.2429475 1.2293551 -0.276889
1.2647787 1.2353238 -0.28001767
1.2796245 1.2342093 -0.28158203
1.2945058 1.2329569 -0.28314638
1.3094218 1.2315658 -0.28471074
1.3316081 1.2367572 -0.28783941
1.3466316 1.235042 -0.28940377
1.3616859 1.2331866 -0.29096809
1.3841321 1.2377744 -0.2940968
1.4066892 1.2421283 -0.29722548
1.429355 1.2462471 -0.30035415
1.4446423 1.2436855 -0.30191851
1.4599537 1.2409809 -0.30348286
1.4828533 1.244482 -0.30661154
1.5058539 1.247744 -0.30974025
1.5289534 1.2507656 -0.31286892
1.5521498 1.2535456 -0.3159976
1.5753998 1.2561346 -0.31912631
1.5909129 1.252459 -0.32069066
1.6220784 1.2607089 -0.32538369
1.637804 1.2565043 -0.32694802
1.6614145 1.2581142 -0.33007672
1.6930206 1.2653896 -0.33476976
1.708886 1.2605902 -0.33633408
1.7407278 1.2672676 -0.34102714
1.7646986 1.2678311 -0.34415582
1.7887446 1.2681429 -0.3472845
1.8209566 1.2738638 -0.35197753
1.8451816 1.2736186 -0.35510623
1.8776385 1.2786783 -0.35979927
1.9020324 1.2778717 -0.36292794
1.9346805 1.2823284 -0.36762097
1.9673876 1.2865336 -0.37231401
2.000262 1.2903167 -0.37700707
2.03333 1.2936286 -0.3817001
2.0581505 1.2913259 -0.38482878
2.0998209 1.2991552 -0.39108616
2.1416693 1.3065112 -0.39734355
2.1752276 1.3083009 -0.40203658
2.2088921 1.3097199 -0.40672961
2.2426593 1.3107669 -0.41142264
2.2850845 1.3163711 -0.41768003
2.3190777 1.3166167 -0.42237306
4.9632459 2.6151624 -0.88854772
4.9795794 2.583926 -0.88854772
4.9869208 2.5480938 -0.88698339
4.994009 2.5122712 -0.88541907
4.9919124 2.4722404 -0.88229036
4.9893785 2.4326069 -0.87916166
4.9955292 2.3972092 -0.87759733
4.9926295 2.3573408 -0.87446862
5.0073423 2.3259249 -0.87446862
4.9769397 2.2738945 -0.86664695
4.9821191 2.2385306 -0.86508256
4.9870515 2.2031918 -0.86351824
4.9917364 2.1678793 -0.86195391
4.9870911 2.1287179 -0.85882521
4.9912596 2.0935209 -0.85726088
5.0134473 2.0658817 -0.85882521
4.9988623 2.0232241 -0.85413218
4.9931188 1.9844797 -0.85100347
5.0330925 1.9638386 -0.8556965
5.0176611 1.9215798 -0.85100347
4.9925919 1.8762815 -0.84474611
5.0411887 1.8589807 -0.85100347
5.0062299 1.8107473 -0.84318173
5.0268168 1.7825583 -0.84474611
5.0285883 1.7476964 -0.84318173
5.0114212 1.7065151 -0.8384887
5.0033054 1.668744 -0.83536005
5.004303 1.6342084 -0.83379567
4.97684 1.5907053 -0.82753831
4.9867363 1.5594037 -0.82753831
4.9869909 1.5251518 -0.82597399
4.9964752 1.4937878 -0.82597399
4.9773207 1.4540558 -0.82128096
4.9958563 1.4254638 -0.82284528
4.9951539 1.3915592 -0.82128096
4.9846182 1.3554003 -0.81815225
4.983417 1.3217943 -0.81658787
4.9820609 1.2879845 -0.81502354
4.9804773 1.254244 -0.81345922
4.9882598 1.2229267 -0.81345922
4.9958448 1.1915606 -0.81345922
5.003233 1.1601474 -0.81345922
5.0007515 1.1266817 -0.81189483
5.0172849 1.0977875 -0.81345922
5.0723333 1.0767701 -0.82128096
5.0886726 1.0468688 -0.82284528
5.1242099 1.0206635 -0.82753831
5.0820289 0.97910452 -0.81971657
5.0394993 0.93828136 -0.81189483
5.0549374 0.90878725 -0.81345922
5.0605283 0.87711817 -0.81345922
5.0757556 0.8464877 -0.81502354
5.0809917 0.81446826 -0.81502354
5.0761786 0.78146899 -0.81345922
5.0711765 0.74839383 -0.81189483
5.075779 0.71651608 -0.81189483
5.0801806 0.68461007 -0.81189483
5.0843821 0.652677 -0.81189483
5.0687537 0.61849219 -0.80876619
5.052866 0.58480424 -0.80563748
5.0466099 0.55208111 -0.80407315
5.0500245 0.51992112 -0.80407315
5.0532184 0.48790488 -0.80407315
5.0561843 0.45614511 -0.80407315
5.0589366 0.42453304 -0.80407315
5.0614696 0.3931807 -0.80407315
5.0638204 0.36164671 -0.80407315
5.0659928 0.32982281 -0.80407315
5.0778251 0.29856563 -0.80563748
5.0796008 0.26665497 -0.80563748
5.0811682 0.23490024 -0.80563748
5.0825262 0.20341381 -0.80563748
5.0738287 0.17125267 -0.80407315
5.0846901 0.1391973 -0.80563748
5.0854702 0.10696902 -0.80563748
5.0860419 0.075014792 -0.80563748
4.9777694 0.042300317 -0.78842968
4.987566 -0.050925486 -0.78999406
5.02665 -0.082913712 -0.79625142
5.0260296 -0.11449529 -0.79625142
5.0350885 -0.1461944 -0.79781574
5.0439568 -0.17773584 -0.79938012
5.0526204 -0.20955895 -0.80094445
5.0512042 -0.24130121 -0.80094445
5.0397258 -0.27250066 -0.79938012
5.0379138 -0.30416065 -0.79938012
5.0457697 -0.33630052 -0.80094445
5.0435891 -0.36755666 -0.80094445
5.0510478 -0.39974374 -0.80250877
5.0484366 -0.43147236 -0.80250877
5.0554614 -0.46408686 -0.80407315
5.0524459 -0.49584192 -0.80407315
5.0590539 -0.52860385 -0.80563748
5.0654497 -0.56146836 -0.8072018
5.061841 -0.59311849 -0.8072018
5.0776739 -0.62688971 -0.81033051
5.0736709 -0.65850478 -0.81033051
5.0792198 -0.6917032 -0.81189483
5.0747733 -0.72360307 -0.81189483
5.0896649 -0.758385 -0.81502354
5.0847993 -0.79034919 -0.81502354
5.0992332 -0.82543868 -0.81815225
5.093946 -0.85746169 -0.81815225
5.0884581 -0.88945079 -0.81815225
4.9758949 -0.90186238 -0.80094445
3.6371229 -1.1429429 -0.60383701
3.573447 -1.1476521 -0.59445095
3.5192423 -1.1546862 -0.58662921
3.4744573 -1.1642231 -0.58037186
3.3942785 -1.1850029 -0.56942147
3.3588924 -1.1962541 -0.56472844
2.2195907 -1.1902899 -0.39890787
2.1948228 -1.1945758 -0.39577919
2.1614027 -1.1938968 -0.39108616
2.1366279 -1.1977941 -0.38795745
2.1032658 -1.1966125 -0.38326442
2.0870469 -1.2050481 -0.3817001
2.0623631 -1.2081978 -0.37857139
2.0293646 -1.2058169 -0.37387836
2.013355 -1.2133358 -0.37231401
1.9888372 -1.2156597 -0.36918533
1.9643703 -1.2177241 -0.36605665
1.9399568 -1.219529 -0.36292794
1.9239675 -1.2263219 -0.36136362
1.8997408 -1.2274984 -0.35823491
1.8755338 -1.2284839 -0.35510623
1.8513218 -1.2293166 -0.35197753
1.8271741 -1.229894 -0.34884885
1.8112516 -1.2357836 -0.3472845
1.7872039 -1.2359041 -0.34415582
1.7713151 -1.2414403 -0.34259146
1.7554684 -1.2467684 -0.34102714
1.7316759 -1.2460831 -0.33789843
1.7158999 -1.2510264 -0.33633408
1.7000614 -1.2559141 -0.33476976
1.6763225 -1.254734 -0.33164105
1.6605358 -1.2592736 -0.33007672
1.6448001 -1.263611 -0.32851237
1.6213495 -1.2616463 -0.32538369
1.6057028 -1.2656065 -0.32381934
1.5822822 -1.263345 -0.32069066
1.5666336 -1.2670507 -0.31912631
1.5510012 -1.27061 -0.31756195
1.5353862 -1.2740231 -0.3159976
1.5197898 -1.2772903 -0.31443328
1.5042553 -1.2803628 -0.31286892
1.4888121 -1.28321 -0.31130457
1.4733495 -1.2859635 -0.30974025
1.4578403 -1.2886541 -0.30817589
1.4423558 -1.2912008 -0.30661154
1.4195796 -1.28697 -0.30348286
1.4042317 -1.2891387 -0.30191851
1.3889831 -1.2910899 -0.30035415
1.3809146 -1.2997162 -0.30035415
1.3655714 -1.3015527 -0.29878983
1.3431534 -1.2963886 -0.29566112
1.3279181 -1.2978987 -0.2940968
1.3127171 -1.2992685 -0.29253244
1.3045276 -1.3074908 -0.29253244
1.2893976 -1.3085837 -0.29096809
1.2743765 -1.3094693 -0.28940377
1.2661958 -1.3173814 -0.28940377
1.251094 -1.3181473 -0.28783941
1.236033 -1.3187757 -0.28627506
1.2210135 -1.319267 -0.28471074
1.2060372 -1.3196222 -0.28314638
1.1911047 -1.3198414 -0.28158203
1.1762606 -1.3198868 -0.28001767
1.1615348 -1.3197351 -0.27845335
1.1532922 -1.3269441 -0.27845335
1.1384999 -1.326669 -0.276889
1.1237568 -1.3262606 -0.27532464
1.109064 -1.3257196 -0.27376032
1.1007557 -1.3326261 -0.27376032
1.0924778 -1.3394206 -0.27376032
1.077919 -1.3385066 -0.27219597
1.0633413 -1.3375216 -0.27063161
1.0549164 -1.3441763 -0.27063161
1.0343522 -1.335162 -0.26750293
1.0259867 -1.3416011 -0.26750293
1.0117035 -1.3400495 -0.26593858
1.0033373 -1.3463249 -0.26593858
-1.2989231 -1.6174124 0.25470692
-1.3403771 -1.6477174 0.26080039
-1.3696387 -1.6622432 0.26445648
-1.3800558 -1.6536049 0.26445648
-1.3968258 -1.6524813 0.26567516
-1.413636 -1.651212 0.26689386
-1.4369873 -1.6572955 0.26933125
-1.4408228 -1.6407758 0.26811254
-3.8841863 -4.1543183 0.69831133
-3.896204 -4.115757 0.69587392
-1.9527755 -1.5629302 0.30711073
-2.0092847 -1.5875496 0.31442291
-2.0348728 -1.5871021 0.31686029
-2.0683985 -1.5924501 0.32051638
-2.1020708 -1.5974388 0.32417244
-2.1279464 -1.5961109 0.32660982
-3.4586318 -1.8037118 0.47894651
-3.5405307 -1.8182187 0.48869607
-3.5873151 -1.8138517 0.49357083
-3.6430688 -1.8133907 0.49966431
-4.6842251 -1.8387935 0.61787754
-4.8160882 -1.8557185 0.63372058
-4.9390602 -1.8675467 0.64834487
-5.053061 -1.8744493 0.6617505
-5.1300302 -1.8664175 0.67028135
-5.3005071 -1.8910429 0.69099915
-5.4620233 -1.9106008 0.71049827
-5.0419307 -1.7284516 0.65443838
-5.043282 -1.6935786 0.65321964
-5.0632524 -1.6649579 0.65443838
-6.1884861 -1.9919707 0.79824418
-6.3618188 -2.0037379 0.81896198
-6.5545082 -2.019248 0.84211713
-6.7950764 -2.0469871 0.87136579
-6.9980521 -2.0609264 0.89573967
-7.2206101 -2.0776401 0.92255092
-7.4819651 -2.10203 0.95423692
-7.7630463 -2.128464 0.98836035
-8.0543327 -2.1540103 1.0237025
-8.403862 -2.1910012 1.0663568
-8.7734013 -2.2285686 1.1114484
-9.172636 -2.2687221 1.1601962
-9.6113043 -2.3132379 1.2138187
-13.056479 -3.0557563 1.6464548
-13.472232 -3.0639081 1.6964213
-13.510487 -2.9839945 1.6988586
-13.519011 -2.8981447 1.6976399
-13.51738 -2.8097725 1.6952026
-13.515306 -2.7208712 1.6927651
-14.028996 -2.7326775 1.7549185
-14.184148 -1.3988943 1.7500437
-14.182774 -1.3088297 1.7488251
-14.210495 -1.2213949 1.7512624
-14.217889 -1.1320803 1.7512624
-14.221052 -0.95321 1.7500437
-14.444643 -0.87833035 1.776855
-14.112873 -0.76988488 1.7354194
-14.176915 -0.68407035 1.7427316
-14.190828 -0.59593761 1.7439502
-14.194248 -0.50799876 1.7439502
-14.187234 -0.41866633 1.7427316
-14.199535 -0.32851136 1.7439502
-13.288318 -0.22324836 1.6318305
-12.346591 -0.12983954 1.5160546
-11.592835 -0.04906553 1.4234339
-10.838581 0.022225123 1.3308132
-10.133548 0.084066458 1.2442859
-9.5472918 0.13836691 1.1723831
-9.0401535 0.18739037 1.1102297
-8.5724707 0.23158705 1.0529511
-8.1740484 0.27223179 1.0042033
-7.805222 0.30905321 0.95911169
-7.4561 0.34216535 0.91645747
-7.1465321 0.37296838 0.87867796
-6.8467917 0.40047875 0.84211713
-6.5767136 0.42615968 0.80921245
-6.3462129 0.45103949 0.78118247
-6.1156898 0.47275788 0.75315255
-5.9049134 0.49351344 0.72755998
-5.9214673 0.53238118 0.72999734
-5.9476666 0.57220227 0.73365343
-5.9538808 0.61005515 0.7348721
-5.9302273 0.64501268 0.73243475
-5.9161978 0.68112367 0.73121607
-10.651045 1.2945172 1.3174076
-10.672118 1.3661214 1.3210636
-10.663308 1.4332653 1.3210636
-10.673881 1.5020747 1.323501
-10.683949 1.5714741 1.3259385
-10.683675 1.6400751 1.3271571
-14.018157 2.7877471 1.7549185
-13.796193 2.8338284 1.729326
-2.2209795 1.0143822 0.29979858
-2.1965964 1.019873 0.2973612
-2.1453531 1.0122862 0.29126772
-2.1121516 1.0127662 0.28761163
-2.1414373 1.0434067 0.29248643
-2.1259437 1.0524383 0.29126772
-2.1015549 1.0568559 0.28883034
-2.0506771 1.0474653 0.28273687
-2.0264342 1.051188 0.28029948
-1.9846624 1.0453976 0.27542472
-1.9868076 1.0625271 0.2766434
-1.9713693 1.0702544 0.27542472
-1.9559131 1.0778289 0.27420601
-1.9577647 1.0949423 0.27542472
-1.9422146 1.1023219 0.27420601
-1.9180477 1.1045972 0.27176863
-1.8682207 1.0915898 0.26567516
-1.8527867 1.098246 0.26445648
-1.8373437 1.1047506 0.26323777
-1.8388828 1.121371 0.26445648
-1.8234575 1.1275233 0.26323777
-1.8079839 1.1335961 0.2620191
-1.7589463 1.1183068 0.25592563
-1.7602271 1.1347146 0.2571443
-1.7530631 1.1457516 0.2571443
-1.7458292 1.1567442 0.2571443
-1.7467666 1.1732243 0.25836301
-1.7557693 1.1953483 0.26080039
-1.6526214 1.186982 0.24983215
-1.5809308 1.1506164 0.24008261
-1.1969429 0.96651202 0.18889748
-1.2139441 0.9928056 0.19255356
-1.2000389 0.99408132 0.19133486
-1.1785238 0.98888797 0.18889748
-1.179763 1.0028037 0.19011617
-1.1583457 0.99730229 0.18767878
-1.1445761 0.99803728 0.18646009
-1.1308426 0.9986394 0.1852414
-1.1245459 1.0057247 0.1852414
-1.1108477 1.0061078 0.18402271
-1.0971899 1.0063583 0.18280402
-1.0836112 1.006436 0.18158531
-1.0701239 1.0063313 0.18036662
-1.0638298 1.0129828 0.18036662
-1.0502994 1.0127572 0.17914793
-1.0368136 1.0124024 0.17792924
-1.0233746 1.0119179 0.17671055
-1.0099823 1.0113052 0.17549185
-1.0105779 1.0246978 0.17671055
1.00056 1.1946424 0.19133486
1.0144671 1.1959012 0.19255356
1.0284292 1.1970321 0.19377226
1.0424453 1.1980344 0.19499095
1.0565144 1.1989075 0.19620964
1.0706353 1.1996509 0.19742833
1.0847611 1.2003052 0.19864702
1.1055782 1.2082061 0.20108442
1.1130887 1.2012904 0.20108442
1.1274064 1.2015109 0.20230311
1.1417702 1.2015988 0.2035218
1.1630615 1.2087054 0.20595919
1.1775599 1.2084825 0.20717788
1.1921011 1.208125 0.20839657
1.206684 1.2076321 0.20961526
1.2213075 1.2070034 0.21083397
1.2430737 1.2131706 0.21327135
1.2578183 1.212224 0.21449004
1.2725999 1.2111396 0.21570873
1.29465 1.2167144 0.21814612
1.3095444 1.2153076 0.21936481
1.3317896 1.2204672 0.2218022
1.3467913 1.2187351 0.2230209
1.3618233 1.2168623 0.22423959
1.3843274 1.2214153 0.22667697
1.4069419 1.2257329 0.22911437
1.4221401 1.2233415 0.23033306
1.4449286 1.2272323 0.23277044
1.4602163 1.2245071 0.23398913
1.4831716 1.2279676 0.23642652
1.5062275 1.2311875 0.23886392
1.5293818 1.2341658 0.2413013
1.5525851 1.2369604 0.24373868
1.5758215 1.2395902 0.24617606
1.5913578 1.2358302 0.24739476
1.6306005 1.2499608 0.25226954
1.6542522 1.2516686 0.25470692
1.677989 1.2531279 0.2571443
1.7018089 1.2543379 0.25958169
1.7257096 1.2552978 0.2620191
1.749689 1.2560061 0.26445648
1.7737447 1.2564623 0.26689386
1.8060098 1.2623516 0.27054992
1.8302472 1.2622494 0.27298734
1.8627598 1.2674755 0.2766434
1.8789277 1.2612784 0.2778621
1.9198689 1.2714413 0.28273687
1.944328 1.2703797 0.28517425
1.9772382 1.2743651 0.28883034
2.0103352 1.2778904 0.29248643
2.0435538 1.2810494 0.29614249
2.0684478 1.2786218 0.29857987
2.1018665 1.2810974 0.30223596
2.1439047 1.2883152 0.30711073
2.1775756 1.2899957 0.31076682
2.2199223 1.2963085 0.31564158
2.2538304 1.2971882 0.31929767
2.2964699 1.3025892 0.32417244
4.8218136 2.5382218 0.66906267
4.837666 2.5078759 0.66906267
4.8444877 2.472918 0.667844
4.8510613 2.4379735 0.66662532
4.8572955 2.40323 0.66540658
4.8631692 2.3687422 0.66418791
4.8688917 2.3340878 0.66296923
4.8744836 2.299216 0.6617505
4.8798304 2.2643659 0.66053182
4.884932 2.2295392 0.65931314
4.8897891 2.1947381 0.65809447
4.8853211 2.1559567 0.65565705
4.8987713 2.1252191 0.65565705
4.8937674 2.0866115 0.65321964
4.9067812 2.0558219 0.65321964
4.9012446 2.0173955 0.65078229
4.9138231 1.9865605 0.65078229
4.9169831 1.9519846 0.64956361
4.910655 1.9138435 0.6471262
4.9133124 1.879406 0.64590752
4.9156609 1.8451979 0.64468884
4.9269991 1.8147054 0.64468884
4.9288816 1.7805821 0.64347011
4.9493279 1.7528923 0.64468884
4.9508672 1.7185055 0.64347011
4.9521699 1.6841688 0.64225143
4.9532375 1.6498836 0.64103276
4.9446335 1.6125742 0.63859534
4.954668 1.5814745 0.63859534
4.9550323 1.5473537 0.63737667
4.9646568 1.5161899 0.63737667
4.9740853 1.4849663 0.63737667
4.9737892 1.4509046 0.63615799
4.9828072 1.4196248 0.63615799
4.9820132 1.3858199 0.63493925
4.9809251 1.3523245 0.63372058
4.9796643 1.3187062 0.6325019
4.9878516 1.287392 0.6325019
4.995842 1.2560272 0.6325019
4.9939942 1.2222539 0.63128316
4.9919195 1.1885527 0.63006449
4.9896193 1.1549261 0.62884581
4.9967341 1.1237437 0.62884581
5.0036011 1.0927627 0.62884581
5.0103159 1.0615488 0.62884581
5.0168872 1.0300473 0.62884581
5.013525 0.99657005 0.62762713
5.0099406 0.96317571 0.6264084
5.0060992 0.93005723 0.62518972
5.011766 0.89902186 0.62518972
5.0173063 0.86756921 0.62518972
5.0227313 0.83558953 0.62518972
5.0180898 0.80239236 0.62397105
5.0327759 0.77279156 0.62518972
5.0178561 0.73851168 0.62275231
5.0322256 0.70835263 0.62397105
5.0267401 0.67539871 0.62275231
5.0308847 0.64380157 0.62275231
5.0348067 0.61237144 0.62275231
5.0385046 0.58116436 0.62275231
5.0420504 0.54955089 0.62275231
5.0454493 0.51741999 0.62275231
5.0486245 0.4854604 0.62275231
5.0416894 0.45284161 0.62153363
5.0543098 0.42217392 0.62275231
5.0568285 0.39084962 0.62275231
5.0492663 0.35861447 0.62153363
5.0613246 0.32752302 0.62275231
5.0632825 0.29571548 0.62275231
5.0749526 0.2644127 0.62397105
5.0665898 0.23226024 0.62275231
5.0679317 0.20086351 0.62275231
5.0790119 0.16940315 0.62397105
5.0700665 0.13677686 0.62275231
5.0708308 0.104669 0.62275231
5.0813127 0.072949268 0.62397105
5.9552212 -0.025724456 0.73121607
5.0215673 -0.084802307 0.61665887
5.040781 -0.11681181 0.61909628
5.0300322 -0.14799699 0.61787754
5.038938 -0.17951329 0.61909628
5.067471 -0.21216825 0.62275231
5.0462103 -0.24304876 0.62031496
5.0445833 -0.27475008 0.62031496
5.0328503 -0.30583853 0.61909628
5.0407457 -0.3379263 0.62031496
5.0484538 -0.36987719 0.62153363
5.0460501 -0.40134218 0.62153363
5.0533175 -0.43388847 0.62275231
5.0603752 -0.46654189 0.62397105
5.057344 -0.49832779 0.62397105
5.0639844 -0.53112936 0.62518972
5.0704122 -0.56403404 0.6264084
5.0667906 -0.59568745 0.6264084
5.0728531 -0.62828952 0.62762713
5.0688376 -0.65990156 0.62762713
5.0842595 -0.6944232 0.63006449
5.0797958 -0.72635466 0.63006449
5.0849485 -0.75972342 0.63128316
5.0898819 -0.79318625 0.6325019
5.094595 -0.82674104 0.63372058
5.0990868 -0.86038625 0.63493925
5.1033568 -0.89412045 0.63615799
5.0683765 -0.9206515 0.6325019
5.0040483 -0.94103098 0.62518972
2.1877205 -1.1918089 0.30589205
2.1802483 -1.2054241 0.30589205
2.1639755 -1.2142422 0.30467334
2.1303816 -1.2131624 0.30101728
2.105423 -1.2167763 0.29857987
2.0720363 -1.2149426 0.29492381
2.055938 -1.2226841 0.29370511
2.0227785 -1.2200978 0.29004905
1.9981391 -1.2224236 0.28761163
1.9735512 -1.2244884 0.28517425
1.9574177 -1.2315782 0.28395557
1.9329529 -1.233102 0.28151819
1.9086065 -1.2342751 0.27908078
1.8842734 -1.235266 0.2766434
1.8599421 -1.2360933 0.27420601
1.8356754 -1.2366641 0.27176863
1.8196722 -1.2425762 0.27054992
1.8036675 -1.2483364 0.26933125
1.7876627 -1.2539448 0.26811254
1.7555271 -1.247833 0.26445648
1.7397077 -1.2528858 0.26323777
1.7158276 -1.2520058 0.26080039
1.6999463 -1.2568612 0.25958169
1.6761281 -1.2556158 0.2571443
1.6602997 -1.2601218 0.25592563
1.6445293 -1.2644159 0.25470692
1.6288326 -1.2684826 0.25348824
1.597515 -1.2601706 0.24983215
1.5818115 -1.2639872 0.24861346
1.5661236 -1.2676563 0.24739476
1.5504524 -1.2711785 0.24617606
1.5347989 -1.2745541 0.24495737
1.5115688 -1.2713945 0.24251999
1.4960439 -1.2743729 0.2413013
1.4806037 -1.2771348 0.24008261
1.4651378 -1.2798105 0.23886392
1.4496336 -1.2824146 0.23764521
1.4267623 -1.2782514 0.23520783
1.4113519 -1.2805213 0.23398913
1.4033275 -1.2893103 0.23398913
1.388045 -1.2912201 0.23277044
1.3727434 -1.2930428 0.23155175
1.3574098 -1.2947916 0.23033306
1.3349699 -1.2895035 0.22789566
1.319746 -1.2909253 0.22667697
1.3045572 -1.2922071 0.22545828
1.289405 -1.2933489 0.22423959
1.2743392 -1.2943034 0.2230209
1.2593758 -1.2950584 0.2218022
1.2444026 -1.2957257 0.22058351
1.2362368 -1.3035189 0.22058351
1.2144529 -1.2967715 0.21814612
1.2062811 -1.3043766 0.21814612
1.1913686 -1.3046008 0.21692742
1.183148 -1.3120606 0.21692742
1.1683307 -1.3120111 0.21570873
1.1536247 -1.3117714 0.21449004
1.1389164 -1.3114438 0.21327135
1.1306539 -1.318574 0.21327135
1.1159333 -1.3180768 0.21205266
1.1012639 -1.3174471 0.21083397
1.0930148 -1.3242989 0.21083397
1.0722479 -1.3156577 0.20839657
1.064025 -1.3223168 0.20839657
1.049522 -1.3212043 0.20717788
1.0412 -1.3277725 0.20717788
1.0206859 -1.3185908 0.20474049
1.0124316 -1.3249391 0.20474049
1.0042031 -1.3311865 0.20474049
-1.7269527 -1.6694473 -0.29492381
-1.7733043 -1.692832 -0.30101728
-1.7838327 -1.6817341 -0.30101728
-1.7942182 -1.6706495 -0.30101728
-1.85575 -1.7064501 -0.30954814
-2.0076501 -1.6055564 -0.31564158
-2.0332787 -1.6052114 -0.31807899
-2.0668113 -1.6107072 -0.32173505
-2.0847573 -1.6037418 -0.32295376
-2.1185079 -1.6086175 -0.32660982
-2.1444576 -1.6071805 -0.32904723
-4.6941872 -1.8405777 -0.61909628
-4.8168168 -1.8538265 -0.63372058
-4.9397931 -1.8656077 -0.64834487
-5.0631042 -1.8759125 -0.66296923
-5.196063 -1.8881323 -0.67881221
-5.3479877 -1.9056467 -0.69709265
-5.3034711 -1.8528351 -0.68978047
-5.3055387 -1.8164917 -0.6885618
-5.3074365 -1.7799658 -0.68734306
-5.3090858 -1.743485 -0.68612438
-5.3199353 -1.7100942 -0.68612438
-5.3305755 -1.676633 -0.68612438
-5.350491 -1.6460271 -0.68734306
-5.5982757 -1.6840903 -0.71781039
-8.1342611 0.2741034 -0.99932861
-7.785265 0.31132811 -0.95667434
-7.4361353 0.34417444 -0.91402006
-7.1265612 0.37473515 -0.87624055
-6.8367257 0.40258297 -0.84089845
-6.5666413 0.42809916 -0.80799371
-6.3361373 0.45278937 -0.77996379
-6.125402 0.47589478 -0.75437123
-5.8948283 0.49500084 -0.72634125
-5.8916016 0.53203076 -0.72634125
-5.9276857 0.57259667 -0.73121607
-5.8746572 0.60423642 -0.72512257
-5.7721043 0.63010681 -0.71293563
-5.5116744 0.63674682 -0.68124962
-5.3104858 0.64757526 -0.65687573
-5.1388941 0.65990293 -0.63615799
-5.0362816 0.67891687 -0.62397105
-2.21505 0.97914773 -0.2973612
-2.2178633 0.99721205 -0.29857987
-2.1303129 0.97398466 -0.28761163
-2.1331954 0.99144042 -0.28883034
-2.1359863 1.0088779 -0.29004905
-2.1117537 1.0135952 -0.28761163
-2.1142642 1.0311953 -0.28883034
-2.0899568 1.0356447 -0.28639296
-2.0745425 1.0442935 -0.28517425
-2.0325911 1.0392334 -0.28029948
-2.026021 1.0519845 -0.28029948
-2.045711 1.0785803 -0.28395557
-1.9863898 1.063308 -0.2766434
-1.9535069 1.0615501 -0.27298734
-1.9381071 1.0690101 -0.27176863
-1.9226916 1.0763177 -0.27054992
-1.9245209 1.0932801 -0.27176863
-1.9004155 1.0954366 -0.26933125
-1.8763592 1.0973347 -0.26689386
-1.877964 1.1141664 -0.26811254
-1.8709261 1.1259445 -0.26811254
-1.8638648 1.1375957 -0.26811254
-1.8483404 1.1438992 -0.26689386
-1.8579817 1.1659608 -0.26933125
-1.842245 1.1722836 -0.26811254
-1.8181629 1.1730731 -0.26567516
-1.7858374 1.168174 -0.2620191
-1.7619189 1.1684003 -0.25958169
-1.7463052 1.1739109 -0.25836301
-1.7470975 1.1904484 -0.25958169
-1.74775 1.2070431 -0.26080039
-1.7482632 1.2236918 -0.2620191
-1.7081577 1.2116824 -0.2571443
-1.6279774 1.1702508 -0.24617606
-1.5965239 1.1629254 -0.24251999
-1.2289157 1.0058552 -0.19499095
-1.199648 0.99455297 -0.19133486
-1.193332 1.0021228 -0.19133486
-1.1793634 1.0032736 -0.19011617
-1.1654733 1.0042359 -0.18889748
-1.1591402 1.0115392 -0.18889748
-1.1378877 1.0056561 -0.18646009
-1.1315463 1.0127861 -0.18646009
-1.1178067 1.0132097 -0.1852414
-1.1041062 1.0135014 -0.18402271
-1.0904913 1.013613 -0.18280402
-1.0769621 1.013548 -0.18158531
-1.063432 1.0134003 -0.18036662
-1.0570434 1.0200623 -0.18036662
-1.0435148 1.0197464 -0.17914793
-1.0300318 1.0193017 -0.17792924
-1.0165962 1.0187274 -0.17671055
-1.0032084 1.0180253 -0.17549185
1.0137811 1.2094628 -0.19377226
1.0277839 1.2106357 -0.19499095
1.0418413 1.2116801 -0.19620964
1.0559521 1.2125952 -0.19742833
1.0701153 1.2133806 -0.19864702
1.0843298 1.2140356 -0.19986571
1.0985416 1.2146075 -0.20108442
1.1127492 1.2150978 -0.20230311
1.1270581 1.2154089 -0.2035218
1.1482613 1.2227741 -0.20595919
1.1627613 1.2227279 -0.20717788
1.1773057 1.2225474 -0.20839657
1.1918936 1.222232 -0.20961526
1.2134978 1.2288437 -0.21205266
1.2211949 1.2211949 -0.21205266
1.2429683 1.2274461 -0.21449004
1.257762 1.2265416 -0.21570873
1.2797425 1.2323844 -0.21814612
1.2946529 1.2311591 -0.21936481
1.3023629 1.2230003 -0.21936481
1.3245773 1.2282909 -0.2218022
1.3395889 1.2266471 -0.2230209
1.3619939 1.2315198 -0.22545828
1.3845124 1.236159 -0.22789566
1.3996973 1.2339993 -0.22911437
1.4149094 1.2316973 -0.23033306
1.4452016 1.2421921 -0.23398913
1.4605455 1.2395095 -0.23520783
1.4835204 1.2430575 -0.23764521
1.5065968 1.2463653 -0.24008261
1.5220855 1.243153 -0.2413013
1.5453194 1.2460253 -0.24373868
1.5685947 1.2487226 -0.24617606
1.5919083 1.251247 -0.24861346
1.6153678 1.2534595 -0.25105083
1.6468506 1.2613912 -0.25470692
1.6705785 1.2629904 -0.2571443
1.6864359 1.2584047 -0.25836301
1.7182854 1.2654411 -0.2620191
1.7422601 1.2662909 -0.26445648
1.7663127 1.2668887 -0.26689386
1.790441 1.2672338 -0.26933125
1.8227801 1.2730085 -0.27298734
1.8552616 1.2784261 -0.2766434
1.8796738 1.2779046 -0.27908078
1.9041522 1.2771266 -0.28151819
1.936916 1.2816522 -0.28517425
1.9697534 1.2859038 -0.28883034
1.9944282 1.2843361 -0.29126772
2.0275939 1.2877433 -0.29492381
2.0524685 1.2855153 -0.2973612
2.1027286 1.2986717 -0.30345467
2.1362786 1.3009214 -0.30711073
2.1784487 1.3079093 -0.31198552
2.2037065 1.3043069 -0.31442291
2.2375772 1.3054401 -0.31807899
2.2801528 1.3111461 -0.32295376
2.3228869 1.316368 -0.32782853
4.8228097 2.5363283 -0.66906267
4.8474641 2.5105407 -0.67028135
4.8719845 2.4845428 -0.67150009
4.8697586 2.4449754 -0.66906267
4.8671236 2.4057465 -0.66662532
4.8730111 2.371201 -0.66540658
4.8787599 2.3364627 -0.66418791
4.8843646 2.3015325 -0.66296923
4.8807192 2.2624495 -0.66053182
4.885807 2.2276208 -0.65931314
4.8997073 2.1968787 -0.65931314
4.8952498 2.158042 -0.65687573
4.8996053 2.1232951 -0.65565705
4.903718 2.0885789 -0.65443838
4.907588 2.053895 -0.65321964
4.9020362 2.0154707 -0.65078229
4.9146032 1.9846307 -0.65078229
4.9177494 1.9500537 -0.64956361
4.9299045 1.9191163 -0.64956361
4.9325933 1.8845613 -0.64834487
4.9256687 1.8467788 -0.64590752
4.937017 1.8162235 -0.64590752
4.9295802 1.7786465 -0.64347011
4.9406586 1.7476387 -0.64347011
4.9327855 1.7100592 -0.64103276
4.9434328 1.679032 -0.64103276
4.9444671 1.6448054 -0.63981402
4.9452662 1.6106324 -0.63859534
4.9458318 1.5765144 -0.63737667
4.9556398 1.5454079 -0.63737667
4.9557581 1.511345 -0.63615799
4.9651566 1.4801774 -0.63615799
4.9743586 1.4489514 -0.63615799
4.9738178 1.4149522 -0.63493925
4.9729862 1.3812344 -0.63372058
4.9814487 1.3503956 -0.63372058
4.9801817 1.3167505 -0.6325019
4.978745 1.2829566 -0.63128316
4.9770813 1.2492328 -0.63006449
4.9944735 1.2202927 -0.63128316
5.0020423 1.1888876 -0.63128316
5.0094137 1.1574355 -0.63128316
5.0068536 1.1239828 -0.63006449
5.0137215 1.0929391 -0.63006449
5.0301538 1.0636883 -0.63128316
5.0172911 1.0280772 -0.62884581
5.0431232 1.0003951 -0.63128316
5.0200663 0.96307838 -0.62762713
5.0259776 0.93173707 -0.62762713
5.0316539 0.9005785 -0.62762713
5.0274324 0.86725885 -0.6264084
5.032855 0.83521461 -0.6264084
5.0380034 0.80357593 -0.6264084
5.0330744 0.77084273 -0.62518972
5.037786 0.73942393 -0.62518972
5.0325036 0.70637655 -0.62397105
5.04668 0.67606044 -0.62518972
5.0508285 0.64433801 -0.62518972
5.0547504 0.61281097 -0.62518972
5.0485897 0.58034676 -0.62397105
5.0422688 0.54754275 -0.62275231
5.0357804 0.51440257 -0.62153363
5.0389342 0.48253173 -0.62153363
5.0517526 0.45174584 -0.62275231
5.0544729 0.42021674 -0.62275231
5.0470834 0.38813043 -0.62153363
5.0593076 0.35733098 -0.62275231
5.0614529 0.32553551 -0.62275231
5.0633984 0.29372719 -0.62275231
5.0651441 0.26190728 -0.62275231
5.0666795 0.23029833 -0.62275231
5.0680094 0.19890107 -0.62275231
5.069159 0.16705406 -0.62275231
5.0701203 0.13475825 -0.62275231
5.0807948 0.1028787 -0.62397105
5.0714164 0.07081534 -0.62275231
4.9824333 0.03848106 -0.6117841
5.2902122 -0.02492927 -0.64956361
4.9922051 -0.054894004 -0.61300278
5.01161 -0.086602695 -0.61544019
5.0208893 -0.11832355 -0.61665887
5.0398955 -0.15024048 -0.61909628
5.0487871 -0.18182169 -0.62031496
5.0475545 -0.21331996 -0.62031496
5.0461144 -0.2450303 -0.62031496
5.0345645 -0.2761873 -0.61909628
5.0327296 -0.30781481 -0.61909628
5.0406141 -0.33987817 -0.62031496
5.0483103 -0.37183204 -0.62153363
5.0458918 -0.40332365 -0.62153363
5.0432582 -0.43501979 -0.62153363
5.0601916 -0.46852899 -0.62397105
5.0472708 -0.49933651 -0.62275231
5.0539045 -0.53207868 -0.62397105
5.0603261 -0.56492382 -0.62518972
5.0567026 -0.59648663 -0.62518972
5.0726094 -0.63025379 -0.62762713
5.0685782 -0.661892 -0.62762713
5.0839863 -0.69641966 -0.63006449
5.0795102 -0.72834939 -0.63006449
5.08465 -0.76172018 -0.63128316
5.0797634 -0.79365277 -0.63128316
5.0844731 -0.82714778 -0.6325019
5.0987487 -0.86238849 -0.63493925
5.0834537 -0.89269096 -0.63372058
4.9703703 -0.90483725 -0.62031496
2.2208369 -1.1931736 -0.30954814
2.1959732 -1.1974076 -0.30711073
2.162406 -1.1966684 -0.30345467
2.1288826 -1.1956503 -0.29979858
2.1040292 -1.1992655 -0.2973612
2.0791636 -1.2027049 -0.29492381
2.0544453 -1.2056974 -0.29248643
2.0298777 -1.20825 -0.29004905
2.0138023 -1.2157621 -0.28883034
1.9807297 -1.212842 -0.28517425
1.9646382 -1.2200271 -0.28395557
1.9401362 -1.2217687 -0.28151819
1.9157438 -1.2231678 -0.27908078
1.8914635 -1.2242279 -0.2766434
1.867191 -1.2251159 -0.27420601
1.8511922 -1.2313266 -0.27298734
1.82696 -1.231836 -0.27054992
1.8109896 -1.2376903 -0.26933125
1.7868589 -1.2377411 -0.26689386
1.7627997 -1.2375379 -0.26445648
1.746956 -1.2427592 -0.26323777
1.7231185 -1.2419524 -0.26080039
1.7073202 -1.2468259 -0.25958169
1.691474 -1.2516247 -0.25836301
1.675635 -1.256274 -0.2571443
1.6598047 -1.2607738 -0.25592563
1.6361734 -1.2589997 -0.25348824
1.6205127 -1.2630117 -0.25226954
1.5970198 -1.260798 -0.24983215
1.5890669 -1.270807 -0.24983215
1.5579131 -1.2620238 -0.24617606
1.5422802 -1.2654911 -0.24495737
1.5190315 -1.2624688 -0.24251999
1.5034763 -1.2655959 -0.2413013
1.4955499 -1.2749525 -0.2413013
1.480109 -1.2777079 -0.24008261
1.464635 -1.2803861 -0.23886392
1.4491302 -1.2829835 -0.23764521
1.43365 -1.2854377 -0.23642652
1.4108491 -1.2810752 -0.23398913
1.3955216 -1.2831357 -0.23277044
1.3802803 -1.2849942 -0.23155175
1.3722357 -1.2935815 -0.23155175
1.3497217 -1.2884711 -0.22911437
1.3344636 -1.2900274 -0.22789566
1.3263315 -1.2983868 -0.22789566
1.3040498 -1.2927191 -0.22545828
1.2959018 -1.3008871 -0.22545828
1.2807988 -1.3018721 -0.22423959
1.2727081 -1.3097827 -0.22423959
1.2507663 -1.3033755 -0.2218022
1.2357247 -1.3040044 -0.22058351
1.2207255 -1.3044953 -0.21936481
1.2125047 -1.31214 -0.21936481
1.1975466 -1.3124002 -0.21814612
1.1892766 -1.3198991 -0.21814612
1.1744205 -1.3198785 -0.21692742
1.1596681 -1.3196741 -0.21570873
1.1449066 -1.3193873 -0.21449004
1.1301358 -1.319018 -0.21327135
1.1218263 -1.3260925 -0.21327135
1.1071091 -1.3254974 -0.21205266
1.092502 -1.3247221 -0.21083397
1.0780058 -1.3237692 -0.20961526
1.0697249 -1.3304698 -0.20961526
1.055174 -1.3293904 -0.20839657
1.0406784 -1.3281814 -0.20717788
