# .PCD v0.7 - Point Cloud Data file format
VERSION 0.7
FIELDS x y z
SIZE 4 4 4
TYPE F F F
COUNT 1 1 1
WIDTH 1485
HEIGHT 1
VIEWPOINT 0 0 0 1 0 0 0
POINTS 1485
DATA ascii
-6.1040468 -1.0058692 0.54123718
-6.4251065 -1.0173497 0.56912696
-7.564002 -1.1490144 0.66935611
-7.8273849 -1.1387531 0.6920166
-9.2256298 -1.2830366 0.81490618
-9.2335091 -1.2250428 0.81490618
-9.3102083 -1.1757425 0.82100707
-9.3174124 -1.1172193 0.82100707
-9.6112995 -1.0912483 0.84628224
-10.113228 -1.0839161 0.88986009
-10.635217 -1.0726104 0.93518108
-14.658315 -1.3866659 1.2881619
-14.646813 -1.2936718 1.2864188
-14.664581 -1.2024283 1.2872903
-14.651979 -1.1087652 1.2855471
-14.648719 -1.0159895 1.2846756
-15.141981 -0.95464742 1.327382
-15.152121 -0.0046336893 1.3256388
-15.151851 0.090573549 1.3256388
-15.170905 0.18601342 1.327382
-15.149516 0.28096548 1.3256388
-15.177328 0.37688455 1.3282535
-15.194575 0.47286239 1.3299966
-15.181365 0.56753409 1.329125
-15.167604 0.66115415 1.3282535
-15.173146 0.75602061 1.329125
-15.168097 0.85134494 1.329125
-15.281759 0.95407641 1.3395838
-15.036939 1.0336825 1.3186663
-15.050015 1.1296288 1.3204095
-15.062478 1.2257881 1.3221526
-15.044556 1.3195294 1.3212811
-15.02605 1.4131019 1.3204095
-14.491571 1.4543504 1.2742169
-13.184622 1.4057556 1.1600429
-13.185518 1.4888902 1.1609144
-11.692129 1.3947165 1.0301808
-10.902284 1.3700242 0.96132785
-10.261382 1.3550339 0.90554816
-9.6902008 1.3416051 0.85586935
-9.15905 1.3267729 0.80967683
-8.7072887 1.3172381 0.77045673
-8.2855473 1.3067417 0.73385131
-7.923315 1.3004631 0.70247525
-7.5517569 1.2875804 0.67022765
-7.2590837 1.2844212 0.64495248
-6.9666033 1.2784907 0.61967731
-6.7332592 1.2798684 0.59963149
-6.734859 1.3240727 0.60050309
-6.7361698 1.3683441 0.60137463
-6.7079391 1.4065545 0.59963149
-6.7282195 1.454806 0.60224617
-11.312191 2.5934291 1.0153644
-11.324759 2.6713183 1.017979
-2.9209542 1.3257703 0.2806415
-2.9035211 1.3399235 0.27976993
-2.895045 1.3581395 0.27976993
-2.8325016 1.3505782 0.27454057
-2.7791355 1.346628 0.27018279
-2.7527442 1.3552635 0.26843968
-2.744175 1.3725319 0.26843968
-2.7266152 1.3852354 0.26756811
-2.6558874 1.370364 0.26146722
-2.611928 1.3685313 0.257981
-2.5944831 1.380236 0.25710943
-2.0165854 1.1890894 0.204816
-1.9663992 1.1760488 0.2004582
-1.9845226 1.2038819 0.20307288
-1.942981 1.1954455 0.19958664
-1.9185278 1.1970835 0.19784354
-1.8857137 1.1931343 0.19522886
-1.8530253 1.1888216 0.19261418
-1.8371688 1.1950086 0.19174263
-1.8046744 1.1900761 0.18912795
-1.7805979 1.1903185 0.18738484
-1.7565897 1.1903065 0.18564174
-1.7326533 1.1900395 0.18389861
-1.7169654 1.1952115 0.18302706
-1.6768618 1.1830045 0.17954083
-1.6450838 1.1761363 0.17692615
-1.6376618 1.1864489 0.17692615
-1.6060833 1.1790302 0.17431149
-1.5906506 1.1831522 0.17343992
-1.5672735 1.1811324 0.17169681
-1.543986 1.1788652 0.16995369
-1.5286684 1.1824484 0.16908213
-1.5055265 1.1797405 0.16733903
-1.4902815 1.1829834 0.16646747
-1.4750882 1.1860408 0.1655959
-1.4599863 1.1888674 0.16472435
-1.4295036 1.1789147 0.16210967
-1.4144223 1.1814872 0.16123812
-1.3993659 1.1839162 0.16036656
-1.3843346 1.1862037 0.15949501
-1.3617741 1.1818569 0.15775189
-1.346736 1.1839303 0.15688033
-1.3243511 1.1791635 0.15513723
-1.3096205 1.1806761 0.15426566
-1.2948909 1.1820862 0.1533941
-1.2801228 1.1834368 0.15252255
-1.2653897 1.1846479 0.151651
-1.2434622 1.1788678 0.14990787
-1.2288448 1.1797578 0.14903632
-1.2142649 1.1805117 0.14816476
-1.1997249 1.1811286 0.14729321
-1.1852248 1.1816103 0.14642164
-1.170799 1.1819242 0.14555009
-1.1564865 1.1820352 0.14467853
-1.1421535 1.1820765 0.14380698
-1.1346003 1.1893283 0.14380698
-1.1202029 1.1892498 0.14293541
-1.0991386 1.1816764 0.1411923
-1.0917249 1.1885291 0.1411923
-1.0709528 1.1805143 0.13944918
-1.0635861 1.1871556 0.13944918
-1.049505 1.1863538 0.13857763
-1.0354769 1.1854217 0.13770607
-1.0215017 1.1843609 0.13683452
-1.0075814 1.183171 0.13596296
-1.0001272 1.1894788 0.13596296
1.0107088 1.1498584 -0.24247342
1.0244431 1.1508961 -0.24403776
1.0315542 1.1445267 -0.24403776
1.052017 1.1526357 -0.24716645
1.0593383 1.1459106 -0.24716645
1.0733299 1.1463838 -0.24873079
1.0805117 1.1396173 -0.24873079
1.0944541 1.1399661 -0.25029513
1.1083804 1.1402454 -0.25185949
1.1223894 1.1403589 -0.25342384
1.1295323 1.1332842 -0.25342384
1.1436468 1.1331165 -0.25498816
1.1648633 1.1397233 -0.25811687
1.1791044 1.1392447 -0.2596812
1.1933852 1.1386318 -0.26124555
1.2005159 1.1311111 -0.26124555
1.2220614 1.1370014 -0.26437426
1.2364544 1.1359829 -0.26593858
1.2508826 1.1348281 -0.26750293
1.2653449 1.1335366 -0.26906729
1.27984 1.1321079 -0.27063161
1.3018057 1.1370388 -0.27376032
1.3164037 1.1352874 -0.27532464
1.331031 1.1333972 -0.276889
1.345686 1.1313677 -0.27845335
1.3603678 1.1291987 -0.28001767
1.3750752 1.1268895 -0.28158203
1.389807 1.1244397 -0.28314638
1.4122792 1.1280131 -0.28627506
1.4270948 1.1252327 -0.28783941
1.4419309 1.1223104 -0.28940377
1.4646184 1.1252633 -0.29253244
1.4795295 1.1220069 -0.2940968
1.4944571 1.1186073 -0.29566112
1.5173445 1.1209328 -0.29878983
1.5323385 1.1171957 -0.30035415
1.5553623 1.1190827 -0.30348286
1.5704165 1.115006 -0.30504721
1.5935696 1.1164513 -0.30817589
1.6167656 1.1177022 -0.31130457
4.139586 2.60129 -0.77435058
4.1474528 2.5700266 -0.77278626
4.1550903 2.5387673 -0.77122188
4.1540389 2.5024173 -0.76809323
4.1442037 2.4611375 -0.7634002
4.1425381 2.4250705 -0.76027149
4.1320286 2.3841858 -0.75557846
4.4101181 2.2224004 -0.78217232
4.4770827 2.2209828 -0.79155838
4.5086999 2.2014761 -0.79468709
4.2681856 1.82538 -0.73524195
4.2704649 1.7946995 -0.73367763
4.226881 1.745216 -0.72429156
4.2194571 1.7111995 -0.72116286
4.2484779 1.691963 -0.72429156
4.2590246 1.6652358 -0.72429156
4.2232976 1.620749 -0.71646982
4.2333975 1.5941819 -0.71646982
4.2248006 1.5607061 -0.71334118
4.2252374 1.5307659 -0.71177679
4.2254648 1.500882 -0.71021247
4.2348113 1.4743031 -0.71021247
4.2345958 1.4446161 -0.70864809
4.2528324 1.4214826 -0.71021247
4.2898107 1.4040427 -0.7149055
4.2610426 1.3646368 -0.70864809
4.2696056 1.337604 -0.70864809
4.2495952 1.3020705 -0.70395505
4.2198048 1.2641459 -0.6976977
4.2180777 1.2352008 -0.69613338
4.2066975 1.2034703 -0.69300467
4.1951504 1.1717014 -0.68987596
4.2024298 1.1453196 -0.68987596
4.1999974 1.1163558 -0.68831164
4.1878061 1.0849903 -0.68518293
4.1945405 1.0586562 -0.68518293
4.1915178 1.0299236 -0.68361861
4.1883001 1.0012708 -0.68205428
4.1848564 0.97283626 -0.6804899
4.1908035 0.94688904 -0.6804899
4.1869726 0.91865075 -0.67892557
4.1830015 0.89026916 -0.67736125
4.1884847 0.86410636 -0.67736125
4.193758 0.8381387 -0.67736125
4.1989236 0.8118633 -0.67736125
4.1943011 0.78328496 -0.67579687
4.1991811 0.75668681 -0.67579687
4.1941218 0.72859728 -0.67423254
4.1888523 0.70073849 -0.67266816
4.183362 0.67320246 -0.67110384
4.1874743 0.64713252 -0.67110384
4.1914573 0.6208092 -0.67110384
4.1854963 0.59307569 -0.66953951
4.202414 0.54169691 -0.67110384
4.2841635 0.52489078 -0.68361861
4.2834711 0.44303149 -0.68205428
4.2173557 0.40942839 -0.67110384
4.2788634 0.38827756 -0.6804899
4.2713771 0.36055437 -0.67892557
4.2637 0.33308029 -0.67736125
4.2558308 0.30594862 -0.67579687
4.247798 0.27878758 -0.67423254
4.2494659 0.25209251 -0.67423254
4.2509661 0.22538748 -0.67423254
4.2621641 0.19913451 -0.67579687
4.2534623 0.17195179 -0.67423254
4.2544589 0.1452238 -0.67423254
4.2454143 0.11821459 -0.67266816
4.2460732 0.091537662 -0.67266816
4.2268133 0.064555459 -0.66953951
4.1876292 0.037641361 -0.6632821
4.1680293 0.011412187 -0.66015345
4.158143 -0.014378174 -0.65858907
4.1678491 -0.040373366 -0.66015345
4.1675134 -0.066559814 -0.66015345
4.1670127 -0.092743628 -0.66015345
4.1762209 -0.11920559 -0.66171777
4.1655183 -0.14509924 -0.66015345
4.1645246 -0.17126897 -0.66015345
4.1633663 -0.19743194 -0.66015345
4.1620436 -0.22358713 -0.66015345
4.1605649 -0.24959718 -0.66015345
4.1589384 -0.27537045 -0.66015345
4.1571426 -0.30126986 -0.66015345
4.1551676 -0.32738388 -0.66015345
4.1530285 -0.35348496 -0.66015345
4.1507254 -0.37957156 -0.66015345
4.0845881 -0.52868301 -0.65233171
4.0714164 -0.55287397 -0.65076739
4.0874701 -0.5808683 -0.65389603
4.0837531 -0.60645044 -0.65389603
4.0798068 -0.63245314 -0.65389603
4.0854888 -0.6597383 -0.65546042
4.0715818 -0.68340355 -0.65389603
4.0672464 -0.70875096 -0.65389603
4.072432 -0.73604876 -0.65546042
4.0677271 -0.76162195 -0.65546042
4.0628614 -0.78716511 -0.65546042
4.0578351 -0.81267715 -0.65546042
4.0623212 -0.84015751 -0.65702474
4.0666218 -0.86772621 -0.65858907
4.0610895 -0.89325976 -0.65858907
4.0554271 -0.91862571 -0.65858907
4.0592766 -0.94597638 -0.66015345
4.0533056 -0.97124201 -0.66015345
4.0567136 -0.99905223 -0.66171777
4.0599313 -1.0269434 -0.6632821
4.0533991 -1.0524324 -0.6632821
4.0562859 -1.080289 -0.66484648
4.0590429 -1.1080012 -0.6664108
4.052063 -1.1332623 -0.6664108
4.0543575 -1.1614195 -0.66797513
4.0564575 -1.1896503 -0.66953951
4.058363 -1.2179533 -0.67110384
4.0506301 -1.2434286 -0.67110384
4.0521612 -1.2718124 -0.67266816
4.0534949 -1.3002646 -0.67423254
4.0546312 -1.3287835 -0.67579687
4.0462465 -1.3541006 -0.67579687
1.1837658 -1.3789296 -0.28783941
1.1686921 -1.3788058 -0.28627506
1.1727294 -1.4012321 -0.28940377
1.151441 -1.3932445 -0.28627506
1.1364963 -1.3927369 -0.28471074
1.1215268 -1.3921586 -0.28314638
1.1066549 -1.3914117 -0.28158203
1.0919126 -1.3904736 -0.28001767
1.0771793 -1.3894418 -0.27845335
1.0684279 -1.3961824 -0.27845335
1.0477284 -1.3871055 -0.27532464
1.0389923 -1.3936611 -0.27532464
1.0243617 -1.3922063 -0.27376032
1.0097907 -1.390623 -0.27219597
-1.0014015 -1.3354405 -0.26437426
-1.0157475 -1.3369868 -0.26593858
-1.0240847 -1.3306116 -0.26593858
-1.0383817 -1.3320307 -0.26750293
-1.052779 -1.3332889 -0.26906729
-1.0673048 -1.3343608 -0.27063161
-1.0818855 -1.3353026 -0.27219597
-1.0965199 -1.3361136 -0.27376032
-1.1112069 -1.3367929 -0.27532464
-1.1195843 -1.3297848 -0.27532464
-1.1343261 -1.3302394 -0.276889
-1.1491175 -1.330561 -0.27845335
-1.1639138 -1.3307872 -0.28001767
-1.1786851 -1.3309444 -0.28158203
-1.1935463 -1.3309302 -0.28314638
-1.2085254 -1.3307164 -0.28471074
-1.2235487 -1.3303666 -0.28627506
-1.238615 -1.3298801 -0.28783941
-1.2536798 -1.3292978 -0.28940377
-1.2687129 -1.328648 -0.29096809
-1.2838292 -1.3278205 -0.29253244
-1.3059665 -1.3338426 -0.29566112
-1.3143214 -1.3256106 -0.29566112
-1.3296225 -1.3242964 -0.29722548
-1.3520004 -1.3297678 -0.30035415
-1.3674139 -1.3281282 -0.30191851
-1.3828598 -1.3263471 -0.30348286
-1.3983371 -1.3244241 -0.30504721
-1.4138017 -1.3224047 -0.30661154
-1.4364778 -1.327024 -0.30974025
-1.4447154 -1.3180511 -0.30974025
-1.4676448 -1.3221693 -0.31286892
-1.4833028 -1.3194864 -0.31443328
-1.5064055 -1.3231767 -0.31756195
-1.5146465 -1.3137352 -0.31756195
-1.5302583 -1.3107508 -0.31912631
-1.5610162 -1.3203293 -0.32381934
-1.5768622 -1.3168261 -0.32538369
-1.5927256 -1.3131756 -0.32694802
-1.6086051 -1.3093774 -0.32851237
-1.6321985 -1.3116182 -0.33164105
-1.6558828 -1.3136138 -0.33476976
-1.67188 -1.3092732 -0.33633408
-1.695702 -1.310824 -0.33946279
-1.7117567 -1.3061353 -0.34102714
-1.7278192 -1.3012962 -0.34259146
-1.7518148 -1.302199 -0.34572017
-1.7758894 -1.3028512 -0.34884885
-1.799998 -1.3033108 -0.35197753
-1.82411 -1.3036189 -0.35510623
-1.8402656 -1.2979246 -0.35667059
-1.8645983 -1.2976201 -0.35979927
-1.8889991 -1.2970604 -0.36292794
-1.921643 -1.3017844 -0.36762097
-1.9379963 -1.2951728 -0.36918533
-1.9708343 -1.2992795 -0.37387836
-1.9872391 -1.2922552 -0.37544271
-2.0202608 -1.2957402 -0.38013574
-4.5809035 -1.2958336 -0.75401413
-4.6841617 -1.2933123 -0.76965755
-4.8299775 -1.2046973 -0.78842968
-4.9622273 -1.2046148 -0.80876619
-5.056211 -1.1938407 -0.82284528
-5.217639 -1.1973944 -0.84787476
-5.3600235 -1.1946706 -0.86977559
-5.512229 -1.1922888 -0.89324081
-5.654943 -1.1860157 -0.91514158
-5.826829 -1.1838921 -0.94173545
-6.008595 -1.1815629 -0.96989369
-6.190556 -1.1769917 -0.99805188
-2.9931846 1.3148503 -0.51779807
-2.9037049 1.2973684 -0.50371897
-2.8865035 1.3115023 -0.50215465
-2.8782065 1.329612 -0.50215465
-2.7982738 1.3140839 -0.48963988
-2.8077896 1.3401481 -0.49276856
-2.8082001 1.3620745 -0.49433291
-2.7287114 1.3447623 -0.48181814
-2.702544 1.3530381 -0.47868946
-2.6851859 1.365514 -0.47712511
-2.6590016 1.3732946 -0.47399643
-2.6415739 1.3853863 -0.47243208
-2.0159214 1.1897502 -0.37074968
-1.9999974 1.1972104 -0.36918533
-1.9586658 1.1892483 -0.36292794
-1.9427445 1.196353 -0.36136362
-1.9100572 1.1928401 -0.35667059
-1.8858355 1.1942496 -0.35354188
-1.861673 1.1954013 -0.3504132
-1.8375703 1.196298 -0.3472845
-1.8052878 1.1914977 -0.34259146
-1.7895565 1.1973252 -0.34102714
-1.7656499 1.1974577 -0.33789843
-1.7418123 1.1973382 -0.33476976
-1.7180473 1.1969662 -0.33164105
-1.6943556 1.1963439 -0.32851237
-1.6707408 1.1954708 -0.32538369
-1.6552 1.2001474 -0.32381934
-1.6317079 1.1988273 -0.32069066
-1.6082976 1.1972606 -0.31756195
-1.5928582 1.2013943 -0.3159976
-1.5695821 1.1993853 -0.31286892
-1.5463953 1.1971309 -0.30974025
-1.5310708 1.2007289 -0.30817589
-1.5080296 1.1980371 -0.30504721
-1.4928169 1.2012476 -0.30348286
-1.4700325 1.1979949 -0.30035415
-1.4549247 1.2008408 -0.29878983
-1.4321958 1.1972885 -0.29566112
-1.4171066 1.1998816 -0.2940968
-1.4020424 1.2023319 -0.29253244
-1.3795071 1.1982094 -0.28940377
-1.3644301 1.2004495 -0.28783941
-1.3494604 1.2024572 -0.28627506
-1.3273175 1.1975627 -0.28314638
-1.3125408 1.1991448 -0.28158203
-1.2977309 1.2006601 -0.28001767
-1.2829534 1.2020376 -0.27845335
-1.2682108 1.2032763 -0.276889
-1.2463807 1.1975352 -0.27376032
-1.2317531 1.1984547 -0.27219597
-1.2171627 1.1992387 -0.27063161
-1.202612 1.1998862 -0.26906729
-1.1950889 1.2073796 -0.26906729
-1.1806803 1.2076987 -0.26750293
-1.1662356 1.2079617 -0.26593858
-1.1448866 1.2010685 -0.2628099
-1.1304822 1.2011082 -0.26124555
-1.1229135 1.2081871 -0.26124555
-1.1019825 1.2006291 -0.25811687
-1.0945221 1.2074341 -0.25811687
-1.0803926 1.206869 -0.25655252
-1.0662472 1.2062329 -0.25498816
-1.0521522 1.2054676 -0.25342384
-1.0381097 1.2045726 -0.25185949
-1.0241196 1.2035495 -0.25029513
-1.0101843 1.2023979 -0.24873079
1.0101231 1.1339241 0.18646009
1.0171294 1.1276438 0.18646009
1.0308762 1.1285703 0.18767878
1.0447854 1.1292658 0.18889748
1.0519152 1.1226274 0.18889748
1.0726119 1.1303958 0.19133486
1.086527 1.1308326 0.19255356
1.1004336 1.1311933 0.19377226
1.1074642 1.1243111 0.19377226
1.1285255 1.131385 0.19620964
1.1356119 1.124272 0.19620964
1.1497506 1.1240532 0.19742833
1.1639311 1.1237009 0.19864702
1.1781524 1.1232144 0.19986571
1.1924132 1.1225933 0.20108442
1.2067125 1.1218371 0.20230311
1.221049 1.1209452 0.2035218
1.2354215 1.1199173 0.20474049
1.2498293 1.1187527 0.20595919
1.2642708 1.117451 0.20717788
1.2862231 1.1225381 0.20961526
1.2932507 1.1144344 0.20961526
1.3153462 1.1191505 0.21205266
1.3299518 1.1172483 0.21327135
1.3445851 1.1152064 0.21449004
1.3592448 1.1130244 0.21570873
1.37393 1.1107019 0.21692742
1.3886393 1.1082387 0.21814612
1.4033717 1.1056342 0.21936481
1.4259608 1.1089814 0.2218022
1.4486467 1.1120878 0.22423959
1.4556055 1.1029639 0.22423959
1.4863521 1.11163 0.22789566
1.5012928 1.1081636 0.22911437
1.5162485 1.104553 0.23033306
1.5392767 1.1065917 0.23277044
1.5542945 1.1026413 0.23398913
1.5774542 1.1042377 0.23642652
1.5924859 1.1000061 0.23764521
1.6156737 1.1012988 0.24008261
4.1435485 2.5653558 0.59837848
4.1511135 2.5340991 0.59715974
4.1414413 2.4926121 0.59350371
4.1484852 2.4614768 0.59228498
4.1553016 2.4303517 0.5910663
4.1532922 2.3942811 0.58862895
4.1682534 2.3681381 0.58862895
4.2718949 2.0179193 0.58009809
4.2303119 1.9663104 0.57278591
4.2244349 1.9316454 0.5703485
4.2183833 1.8969232 0.56791115
4.2120633 1.8623537 0.56547374
4.2145791 1.8318952 0.56425506
4.2168784 1.801479 0.56303638
4.2189622 1.7711062 0.56181765
4.2208314 1.7407786 0.56059897
4.2224865 1.7104975 0.55938029
4.223928 1.6802645 0.55816156
4.2066655 1.6428597 0.55450553
4.2076368 1.6128436 0.55328679
4.2176876 1.5863751 0.55328679
4.2182598 1.5564076 0.55206811
4.2186227 1.5264957 0.55084944
4.2187762 1.4966408 0.5496307
4.2187214 1.4668444 0.54841202
4.2090096 1.4340681 0.54597467
4.217814 1.4079617 0.54597467
4.2171278 1.3783953 0.54475594
4.2163696 1.3484792 0.54353726
4.2153511 1.3187892 0.54231858
4.2140632 1.2893735 0.54109985
4.2125239 1.2601871 0.53988117
4.2107244 1.2312768 0.53866249
4.2087746 1.2022768 0.53744382
4.2066851 1.1731426 0.53622508
4.213973 1.1466881 0.53622508
4.2115011 1.1176431 0.5350064
4.2088313 1.0886739 0.53378773
4.2059636 1.0597826 0.53256905
4.2028999 1.0309703 0.53135031
4.2092948 1.0045426 0.53135031
4.2058172 0.9759925 0.53013164
4.2117839 0.94991481 0.53013164
4.2079282 0.92151666 0.52891296
4.213635 0.89505941 0.52891296
4.2094207 0.8667264 0.52769423
4.2049766 0.83868706 0.52647555
4.2101541 0.81229597 0.52647555
4.2054858 0.78364104 0.52525687
4.2103639 0.75699496 0.52525687
4.2150369 0.73052567 0.52525687
4.2097268 0.70255488 0.5240382
4.2139993 0.67645824 0.5240382
4.2083244 0.64866287 0.52281946
4.2024984 0.62075818 0.52160078
4.1964879 0.59295231 0.52038211
4.2099667 0.56790084 0.52160078
4.2036076 0.54017276 0.52038211
4.1970663 0.51254702 0.51916337
4.1903443 0.48502481 0.51794469
4.1933088 0.45868668 0.51794469
4.2158546 0.43436491 0.52038211
4.1987419 0.40595707 0.51794469
4.2012095 0.37956771 0.51794469
4.2035117 0.35316339 0.51794469
4.1957393 0.32613662 0.51672602
4.1877794 0.29942596 0.51550734
4.1895647 0.27331343 0.51550734
4.1812911 0.24640048 0.5142886
4.1926684 0.22064555 0.51550734
4.1840572 0.19383867 0.5142886
4.1851926 0.16754577 0.5142886
4.1762428 0.1409121 0.51306993
4.1770458 0.11466934 0.51306993
4.1776838 0.088422053 0.51306993
4.1781569 0.062171277 0.51306993
4.1784649 0.035918042 0.51306993
4.1686821 0.0097997524 0.51185125
4.1785884 -0.016067497 0.51306993
4.1784072 -0.04211659 0.51306993
4.1681356 -0.068206936 0.51185125
4.167625 -0.094394632 0.51185125
4.1669497 -0.1205786 0.51185125
4.1760292 -0.14710723 0.51306993
4.1750221 -0.17334296 0.51306993
4.1639366 -0.19909781 0.51185125
4.1725144 -0.22579287 0.51306993
4.1710229 -0.25184557 0.51306993
4.1693826 -0.27768412 0.51306993
4.1675706 -0.30367073 0.51306993
4.1655803 -0.32985023 0.51306993
4.1634254 -0.3560167 0.51306993
4.1512227 -0.38126081 0.51185125
4.1586232 -0.40830591 0.51306993
4.0876951 -0.58251572 0.50697649
4.0937781 -0.60960513 0.50819516
4.0800037 -0.63414729 0.50697649
4.0955276 -0.66298676 0.50941384
4.1011291 -0.68999642 0.51063251
4.0869703 -0.7138418 0.50941384
4.0824046 -0.73950678 0.50941384
4.0776777 -0.76514256 0.50941384
4.0825329 -0.79263985 0.51063251
4.0774722 -0.81827539 0.51063251
4.0722504 -0.84387863 0.51063251
4.0765738 -0.87152362 0.51185125
4.0710177 -0.89711958 0.51185125
4.0750151 -0.92472184 0.51306993
4.0692077 -0.94995266 0.51306993
4.0632062 -0.97530174 0.51306993
4.0666347 -1.0031894 0.5142886
4.0698729 -1.0311587 0.51550734
4.0729194 -1.059208 0.51672602
4.0662255 -1.0846225 0.51672602
4.0690012 -1.1124133 0.51794469
4.0715446 -1.140435 0.51916337
4.0642991 -1.1659946 0.51916337
4.0664158 -1.1943052 0.52038211
4.0588317 -1.2198315 0.52038211
4.0605745 -1.2482262 0.52160078
4.0621204 -1.2766906 0.52281946
4.0540185 -1.3021884 0.52281946
4.0551872 -1.3307294 0.5240382
4.0562091 -1.3591814 0.52525687
4.0571012 -1.3874992 0.52647555
1.156562 -1.4005449 0.2230209
1.1415361 -1.4000354 0.2218022
1.1202695 -1.3917166 0.21936481
1.105381 -1.3909152 0.21814612
1.0844878 -1.38212 0.21570873
1.0697721 -1.3810074 0.21449004
1.0550451 -1.379817 0.21327135
1.0403756 -1.3784964 0.21205266
1.0316937 -1.3850061 0.21205266
1.017092 -1.3834641 0.21083397
1.0025506 -1.3817936 0.20961526
-1.0092561 -1.3273596 0.20474049
-1.0296392 -1.3367574 0.20717788
-1.0379018 -1.3303523 0.20717788
-1.0523292 -1.3316433 0.20839657
-1.0606754 -1.3250052 0.20839657
-1.0814823 -1.3337336 0.21083397
-1.089841 -1.326912 0.21083397
-1.1045045 -1.3276685 0.21205266
-1.1128246 -1.3207026 0.21205266
-1.1275439 -1.3212343 0.21327135
-1.1423132 -1.3216333 0.21449004
-1.1570818 -1.3219423 0.21570873
-1.1784167 -1.3296038 0.21814612
-1.1866828 -1.3222315 0.21814612
-1.201643 -1.3220942 0.21936481
-1.216648 -1.321821 0.22058351
-1.2316967 -1.3214109 0.2218022
-1.2467375 -1.3209115 0.2230209
-1.261755 -1.3203374 0.22423959
-1.2768637 -1.3195786 0.22545828
-1.2920762 -1.3186193 0.22667697
-1.3143179 -1.324566 0.22911437
-1.3296496 -1.3232833 0.23033306
-1.3450167 -1.32186 0.23155175
-1.3604183 -1.3202955 0.23277044
-1.3758529 -1.3185893 0.23398913
-1.3913196 -1.3167411 0.23520783
-1.406767 -1.3148038 0.23642652
-1.4221795 -1.3127948 0.23764521
-1.4376711 -1.3105899 0.23886392
-1.4606311 -1.3148118 0.2413013
-1.476282 -1.3122026 0.24251999
-1.4919571 -1.3094486 0.24373868
-1.5076061 -1.3066062 0.24495737
-1.530754 -1.3101481 0.24739476
-1.5464727 -1.3069866 0.24861346
-1.5622749 -1.3036031 0.24983215
-1.5857562 -1.3063834 0.25226954
-1.6093334 -1.3089195 0.25470692
-1.6330045 -1.3112105 0.2571443
-1.6489891 -1.3070898 0.25836301
-1.6728028 -1.3089361 0.26080039
-1.6888492 -1.3044672 0.2620191
-1.7127981 -1.3058658 0.26445648
-1.7289001 -1.3010463 0.26567516
-1.7529768 -1.301994 0.26811254
-1.777133 -1.30269 0.27054992
-1.793275 -1.2973846 0.27176863
-1.8255113 -1.3035527 0.27542472
-1.8417157 -1.2978643 0.2766434
-1.8661321 -1.2975997 0.27908078
-1.8906173 -1.297079 0.28151819
-1.9151689 -1.2963014 0.28395557
-1.9397848 -1.295266 0.28639296
-1.9561737 -1.2885123 0.28761163
-1.9892001 -1.2924187 0.29126772
-2.0056381 -1.2852499 0.29248643
-2.4292829 -1.3902786 0.34367153
-2.4206798 -1.3652359 0.34123415
-2.4552372 -1.3644637 0.34489024
-2.4898794 -1.3633106 0.34854633
-2.7876644 -1.3712482 0.38145104
-2.8140924 -1.3623558 0.38388842
-2.8494787 -1.3574537 0.38754451
-2.9028878 -1.3605849 0.39363798
-2.9294064 -1.3506303 0.39607537
-3.0011113 -1.3608912 0.40460622
-2.9824076 -1.3298813 0.40095013
-2.9907045 -1.3111161 0.40095013
-10.914251 -3.7586122 1.4173404
-11.125603 -3.7538416 1.4417143
-11.346552 -3.7502489 1.4673069
-11.62468 -3.7619522 1.5002116
-11.913032 -3.7727437 1.534335
-4.5561867 -1.2869089 0.58131677
-4.6981416 -1.2951875 0.59837848
-5.1008716 -1.2022719 0.64347011
-5.2147484 -1.1945764 0.65687573
-5.3674798 -1.1941209 0.67515618
-5.5204062 -1.1917892 0.69343656
-5.663794 -1.185551 0.71049827
-5.8462262 -1.1854438 0.73243475
-6.019134 -1.1811813 0.75315255
-6.1922126 -1.1747882 0.77387029
-6.4142561 -1.1752127 0.80068159
-6.6169491 -1.1696873 0.82505542
-6.7904053 -1.1570075 0.84577322
-6.0922713 -0.99901295 0.75802732
-7.5862665 -1.1462996 0.94204998
-7.8585448 -1.1369866 0.97495472
-8.1506596 -1.1270106 1.0102968
-8.4626274 -1.1160069 1.0480764
-8.8141603 -1.1060646 1.0907305
-9.1954565 -1.0952735 1.137041
-9.6065388 -1.083064 1.1870074
-10.136251 -1.0783349 1.2515981
-10.685975 -1.0693704 1.3186263
-14.635341 -1.3730577 1.8048849
-14.633728 -1.2809305 1.8036662
-14.651381 -1.1897665 1.8048849
-14.648669 -1.0969411 1.8036662
-14.625566 -1.0028466 1.8000102
-15.126892 -0.94176525 1.8609449
-15.123578 0.29236221 1.8572887
-15.121442 0.38738424 1.8572887
-15.128631 0.48269945 1.8585075
-15.135239 0.57754791 1.8597262
-15.111873 0.86009145 1.8585075
-15.274567 0.965675 1.8792253
-14.990954 1.0423471 1.8451018
-15.003903 1.1380223 1.8475392
-15.026134 1.2347063 1.8511953
-15.027966 1.3299724 1.852414
-15.029194 1.4253023 1.8536327
-14.338618 1.4502175 1.7695428
-13.303013 1.428799 1.6427987
-12.435862 1.4141355 1.5367724
-11.59894 1.3928369 1.4344021
-10.82189 1.3685589 1.339344
-10.144025 1.3476404 1.2564729
-9.6241655 1.3401693 1.1931008
-9.1146431 1.3276471 1.1309475
-8.6547394 1.3162444 1.0748876
-8.2443733 1.3068826 1.0249212
-7.873704 1.2985831 0.97982949
-7.5231028 1.2886913 0.93717521
-7.2021589 1.2802683 0.89817703
-6.9303102 1.2775393 0.86527234
-6.7270937 1.2841733 0.84089845
-6.7091551 1.3244911 0.83967978
-6.7201509 1.3705884 0.84211713
-6.7114067 1.4127833 0.84211713
-6.7218523 1.4588792 0.84455454
-11.310165 2.6772513 1.4270899
-11.312407 2.7529588 1.4295274
-11.314146 2.828794 1.4319648
-11.305762 2.9022977 1.4331834
-11.296902 2.9758015 1.4344021
-11.297145 3.051903 1.4368396
-14.358736 4.465457 1.8463205
-13.961881 4.4370985 1.7987915
-13.556335 4.4014463 1.7500437
-2.9092176 1.3232006 0.39241928
-2.9008467 1.3414528 0.39241928
-2.883378 1.3554311 0.39120057
-2.8300261 1.3521258 0.38510713
-2.7679021 1.343871 0.37779495
-2.7416015 1.3524528 0.37535757
-2.7330494 1.3696526 0.37535757
-2.7155445 1.3822944 0.37413889
-2.6450868 1.3674235 0.36560804
-2.6012905 1.3655618 0.36073324
-2.5838997 1.3772113 0.35951456
-1.9997357 1.181242 0.28517425
-1.9582762 1.1732804 0.28029948
-1.959348 1.1907154 0.28151819
-1.9518275 1.2030033 0.28151819
-1.9105643 1.1941996 0.2766434
-1.8862562 1.1955537 0.27420601
-1.853658 1.1912829 0.27054992
-1.8211883 1.1866511 0.26689386
-1.805415 1.1925994 0.26567516
-1.7813914 1.1928749 0.26323777
-1.7492245 1.1873208 0.25958169
-1.7253754 1.1870369 0.2571443
-1.7016001 1.1864998 0.25470692
-1.6860054 1.1914401 0.25348824
-1.6542774 1.184673 0.24983215
-1.6307347 1.1833851 0.24739476
-1.615271 1.1877276 0.24617606
-1.5838983 1.1800637 0.24251999
-1.5685309 1.1840121 0.2413013
-1.5531762 1.1878148 0.24008261
-1.5299904 1.185392 0.23764521
-1.5147041 1.1888541 0.23642652
-1.4916666 1.1859932 0.23398913
-1.4687701 1.1828347 0.23155175
-1.4537214 1.1856394 0.23033306
-1.4309973 1.1820366 0.22789566
-1.4159298 1.184635 0.22667697
-1.4008859 1.1870918 0.22545828
-1.3783362 1.1829417 0.2230209
-1.3558486 1.1786083 0.22058351
-1.3483131 1.1872214 0.22058351
-1.3259983 1.1824723 0.21814612
-1.3039126 1.1773621 0.21570873
-1.2965478 1.1854677 0.21570873
-1.2745082 1.1801034 0.21327135
-1.267068 1.1880884 0.21327135
-1.2523807 1.1891913 0.21205266
-1.2305748 1.1832781 0.20961526
-1.216005 1.184062 0.20839657
-1.2014736 1.1847104 0.20717788
-1.1869829 1.1852225 0.20595919
-1.1725783 1.1855553 0.20474049
-1.16521 1.192798 0.20474049
-1.1439234 1.1857963 0.20230311
-1.1295009 1.1858722 0.20108442
-1.1151689 1.1857706 0.19986571
-1.1076969 1.1927537 0.19986571
-1.0935178 1.1923331 0.19864702
-1.0794457 1.1917294 0.19742833
-1.0653784 1.1910377 0.19620964
-1.0447329 1.1828294 0.19377226
-1.0372801 1.1893705 0.19377226
-1.0233103 1.188343 0.19255356
-1.0158232 1.1947495 0.19255356
-1.0019151 1.1935062 0.19133486
1.0100285 1.147266 -0.18767878
1.0171671 1.1409416 -0.18767878
1.0375183 1.1493527 -0.19011617
1.0447193 1.1428112 -0.19011617
1.0587218 1.1434156 -0.19133486
1.0659347 1.1366944 -0.19133486
1.0798905 1.1371719 -0.19255356
1.0938444 1.1375662 -0.19377226
1.1077952 1.1378789 -0.19499095
1.1218414 1.138013 -0.19620964
1.1359819 1.1379663 -0.19742833
1.1501657 1.1377865 -0.19864702
1.1643918 1.1374733 -0.19986571
1.1786591 1.1370258 -0.20108442
1.1929665 1.1364437 -0.20230311
1.2073128 1.1357265 -0.2035218
1.221697 1.1348735 -0.20474049
1.2288034 1.1271751 -0.20474049
1.2432176 1.1260954 -0.20595919
1.2576665 1.1248788 -0.20717788
1.2795885 1.1300951 -0.20961526
1.2941443 1.1285564 -0.21083397
1.3087311 1.1268791 -0.21205266
1.3233476 1.1250628 -0.21327135
1.3455949 1.1294885 -0.21570873
1.3603072 1.1273451 -0.21692742
1.3750454 1.125061 -0.21814612
1.3898084 1.1226361 -0.21936481
1.4045949 1.1200697 -0.22058351
1.4272026 1.1235011 -0.2230209
1.4420708 1.1206018 -0.22423959
1.4569588 1.1175598 -0.22545828
1.4797782 1.120366 -0.22789566
1.4947392 1.1169877 -0.22911437
1.5177037 1.1193566 -0.23155175
1.5327317 1.1156396 -0.23277044
1.5558337 1.1175683 -0.23520783
1.5709224 1.1135104 -0.23642652
1.5941546 1.1149956 -0.23886392
1.6092494 1.1106651 -0.24008261
4.1535897 2.6055417 -0.60203457
4.1361146 2.558507 -0.59715974
4.1351609 2.5221322 -0.59472239
4.133914 2.4858706 -0.59228498
4.1409135 2.4547863 -0.5910663
4.147686 2.423712 -0.58984762
4.1456308 2.3876963 -0.58741021
4.4652743 2.2107563 -0.6117841
4.4879994 2.187005 -0.61300278
4.32266 2.0729275 -0.58862895
4.2098427 1.9866141 -0.57156724
4.2040663 1.9521317 -0.56912982
4.2161646 1.9258626 -0.56912982
4.2281818 1.8993337 -0.56912982
4.2127943 1.8606995 -0.56547374
4.2061939 1.8262872 -0.56303638
4.1993275 1.7920315 -0.56059897
4.2196574 1.7694494 -0.56181765
4.2123375 1.7353402 -0.55938029
4.2047563 1.7013934 -0.55694288
4.2061396 1.6712755 -0.5557242
4.1980634 1.6376007 -0.55328679
4.2082701 1.6111913 -0.55328679
4.2090187 1.5812281 -0.55206811
4.2002444 1.5478868 -0.5496307
4.209887 1.5214655 -0.5496307
4.2006526 1.4883544 -0.54719335
4.2005448 1.4586757 -0.54597467
4.2001681 1.4292407 -0.54475594
4.1995268 1.4000502 -0.54353726
4.208241 1.3736362 -0.54353726
4.1979961 1.3407608 -0.54109985
4.1969209 1.3112142 -0.53988117
4.2050767 1.2848184 -0.53988117
4.2035012 1.2557149 -0.53866249
4.2016735 1.2268642 -0.53744382
4.1997018 1.1979015 -0.53622508
4.2071452 1.1714906 -0.53622508
4.204845 1.1424309 -0.5350064
4.1927509 1.1109051 -0.53256905
4.2092586 1.0870211 -0.53378773
4.196754 1.0557096 -0.53135031
4.1936636 1.0269591 -0.53013164
4.2000337 1.0005894 -0.53013164
4.1965256 0.97212392 -0.52891296
4.1927853 0.94392389 -0.52769423
4.1888967 0.91562521 -0.52647555
4.1945667 0.88928765 -0.52647555
4.2000337 0.86309844 -0.52647555
4.1955667 0.8351211 -0.52525687
4.2007308 0.80874318 -0.52525687
4.1960392 0.78015226 -0.5240382
4.2008915 0.75358903 -0.5240382
4.205543 0.72717929 -0.5240382
4.2002077 0.69929469 -0.52281946
4.1946597 0.67168766 -0.52160078
4.1889586 0.64399391 -0.52038211
4.1929221 0.61766136 -0.52038211
4.186892 0.58991957 -0.51916337
4.2003527 0.5649246 -0.52038211
4.2136641 0.53978318 -0.52160078
4.2268252 0.51449668 -0.52281946
4.2102547 0.48565403 -0.52038211
4.2526908 0.46349233 -0.52525687
4.2160249 0.43270937 -0.52038211
4.1989007 0.40430826 -0.51794469
4.2013583 0.37791795 -0.51794469
4.20365 0.3515127 -0.51794469
4.2057614 0.32527727 -0.51794469
4.1977954 0.29850838 -0.51672602
4.1995764 0.2723105 -0.51672602
4.2012043 0.24591854 -0.51672602
4.2026668 0.21951686 -0.51672602
4.1940479 0.19265109 -0.51550734
4.1852579 0.1659023 -0.5142886
4.1862178 0.13960296 -0.5142886
4.1870122 0.11329755 -0.5142886
4.1876416 0.086987674 -0.5142886
4.1781807 0.060530581 -0.51306993
4.1784787 0.034277227 -0.51306993
4.1686859 0.0081855394 -0.51185125
4.1488056 -0.017559519 -0.50941384
4.1585402 -0.0435495 -0.51063251
4.1681089 -0.069843687 -0.51185125
4.1675878 -0.096031182 -0.51185125
4.1669021 -0.12221488 -0.51185125
4.1561327 -0.14804044 -0.51063251
4.1551204 -0.17415114 -0.51063251
4.1440301 -0.19977704 -0.50941384
4.1526041 -0.22635089 -0.51063251
4.1511106 -0.25225657 -0.51063251
4.1593714 -0.27863517 -0.51185125
4.1476531 -0.30385685 -0.51063251
4.1456618 -0.3299112 -0.51063251
4.1533961 -0.35680205 -0.51185125
4.1411891 -0.38197926 -0.51063251
4.0845742 -0.5319432 -0.50575775
4.0713415 -0.55607527 -0.50453907
4.0776434 -0.58269447 -0.50575775
4.0837183 -0.60976923 -0.50697649
4.079751 -0.63577163 -0.50697649
4.075676 -0.66139281 -0.50697649
4.0714998 -0.68663275 -0.50697649
4.0573597 -0.71031183 -0.50575775
4.0528164 -0.73579085 -0.50575775
4.057868 -0.76307511 -0.50697649
4.0724788 -0.79234737 -0.50941384
4.0576892 -0.81596297 -0.50819516
4.0524821 -0.84144199 -0.50819516
4.0568209 -0.86896664 -0.50941384
4.0609732 -0.89657837 -0.51063251
4.0552998 -0.92189926 -0.51063251
4.04951 -0.94700795 -0.51063251
4.0628228 -0.97689718 -0.51306993
4.0469694 -1.0000242 -0.51185125
4.0598469 -1.0303153 -0.5142886
4.0532932 -1.0558035 -0.5142886
4.0562158 -1.0836352 -0.51550734
4.0494237 -1.1087465 -0.51550734
4.0615401 -1.1393529 -0.51794469
4.0543013 -1.1648496 -0.51794469
4.0469022 -1.1903005 -0.51794469
4.0488477 -1.2185647 -0.51916337
4.0505977 -1.2469004 -0.52038211
4.0521507 -1.275306 -0.52160078
4.0535069 -1.3037802 -0.52281946
4.0452347 -1.3292233 -0.52281946
4.0462723 -1.3575947 -0.5240382
1.1646777 -1.3938032 -0.2230209
1.1497022 -1.3933372 -0.2218022
1.1284481 -1.3850935 -0.21936481
1.113502 -1.3844224 -0.21814612
1.09867 -1.3835703 -0.21692742
1.0839525 -1.3825399 -0.21570873
1.0692296 -1.3814275 -0.21449004
1.0605291 -1.3881181 -0.21449004
1.039834 -1.3789049 -0.21205266
1.03115 -1.3854109 -0.21205266
1.0224245 -1.3918628 -0.21205266
1.0020081 -1.3821871 -0.20961526
-1.0073808 -1.3412176 -0.20595919
-1.0157876 -1.3348619 -0.20595919
-1.0301569 -1.3363585 -0.20717788
-1.0445251 -1.3377736 -0.20839657
-1.0528518 -1.3312302 -0.20839657
-1.0674015 -1.3323345 -0.20961526
-1.0820057 -1.3333088 -0.21083397
-1.0903622 -1.3264838 -0.21083397
-1.1113763 -1.3348626 -0.21327135
-1.1261404 -1.3354408 -0.21449004
-1.1345085 -1.328339 -0.21449004
-1.1493256 -1.3286912 -0.21570873
-1.1641337 -1.3289602 -0.21692742
-1.1789316 -1.3291473 -0.21814612
-1.1938342 -1.3291497 -0.21936481
-1.2088408 -1.3289645 -0.22058351
-1.2238915 -1.3286434 -0.2218022
-1.2389861 -1.3281848 -0.2230209
-1.2540644 -1.3276441 -0.22423959
-1.2691267 -1.3270215 -0.22545828
-1.2842863 -1.3262075 -0.22667697
-1.2995435 -1.3251982 -0.22789566
-1.3148377 -1.3240499 -0.22911437
-1.3301693 -1.3227609 -0.23033306
-1.3455355 -1.3213319 -0.23155175
-1.3609368 -1.3197609 -0.23277044
-1.3763704 -1.3180491 -0.23398913
-1.3990483 -1.3230141 -0.23642652
-1.41453 -1.3210336 -0.23764521
-1.4372793 -1.3257029 -0.24008261
-1.4455235 -1.3167089 -0.24008261
-1.4685267 -1.320876 -0.24251999
-1.4842181 -1.3182139 -0.24373868
-1.4999337 -1.3154067 -0.24495737
-1.515615 -1.3125199 -0.24617606
-1.5312612 -1.3095553 -0.24739476
-1.5545691 -1.3127828 -0.24983215
-1.5704099 -1.3093457 -0.25105083
-1.5939324 -1.3120683 -0.25348824
-1.6252524 -1.3208072 -0.2571443
-1.6335194 -1.310569 -0.2571443
-1.6572827 -1.3126048 -0.25958169
-1.6733168 -1.3082789 -0.26080039
-1.6972185 -1.3098683 -0.26323777
-1.7212064 -1.3112075 -0.26567516
-1.7373437 -1.3063325 -0.26689386
-1.7614584 -1.3072203 -0.26933125
-1.7856516 -1.307857 -0.27176863
-1.8018214 -1.3025044 -0.27298734
-1.8260159 -1.3028457 -0.27542472
-1.8503408 -1.302855 -0.2778621
-1.8747926 -1.3025302 -0.28029948
-1.8993133 -1.3019481 -0.28273687
-1.9238994 -1.3011098 -0.28517425
-1.94855 -1.3000125 -0.28761163
-1.9732614 -1.2986574 -0.29004905
-1.9897076 -1.2916373 -0.29126772
-2.0228603 -1.2951665 -0.29492381
-2.9983027 -1.2683829 -0.39973143
-2.9970474 -1.2457104 -0.39851275
-4.5757971 -1.2905086 -0.58375412
-4.6795106 -1.2880737 -0.59594107
-4.8161535 -1.1972308 -0.60934669
-4.9489937 -1.1972885 -0.62518972
-5.091682 -1.1979935 -0.64225143
-5.2442441 -1.1991667 -0.66053182
-5.3776383 -1.1941626 -0.67637485
-5.5111709 -1.1875314 -0.69221789
-5.6642594 -1.1833247 -0.71049827
-5.8369632 -1.1811801 -0.73121607
-6.0195975 -1.1788151 -0.75315255
-6.2024255 -1.1742036 -0.77508903
-6.4147177 -1.1726912 -0.80068159
-6.3925858 -1.1274737 -0.7970255
-6.3896637 -1.0861799 -0.79580683
-6.3865213 -1.0446899 -0.79458809
-6.3831544 -1.0029994 -0.79336941
-6.3893299 -0.96287495 -0.79336941
-6.3952541 -0.92270911 -0.79336941
-6.6664009 -0.91911203 -0.82627416
-7.8731999 1.3016362 -0.97982949
-7.5421681 1.2949635 -0.93961263
-7.2211919 1.2866157 -0.90061444
-6.9590821 1.2857063 -0.86892843
-6.6973429 1.281219 -0.83724236
-6.7183704 1.3290545 -0.84089845
-6.7293367 1.3752135 -0.84333587
-2.9786885 1.2889929 -0.39851275
-2.9796152 1.3116813 -0.39973143
-2.9079025 1.3019854 -0.39120057
-2.8996649 1.3202296 -0.39120057
-2.8823047 1.3342539 -0.3899819
-2.8379416 1.3354325 -0.38510713
-2.8026321 1.3403909 -0.38145104
-2.7941554 1.3579731 -0.38145104
-2.7054713 1.3359519 -0.3704828
-2.7058961 1.3573742 -0.37170148
-2.6796265 1.3653375 -0.3692641
-2.6533649 1.3730233 -0.36682671
-2.6358988 1.3850516 -0.36560804
-1.9821903 1.1719136 -0.28273687
-1.9833522 1.1893626 -0.28395557
-1.9588797 1.1914855 -0.28151819
-1.9344603 1.1933472 -0.27908078
-1.9016802 1.1896863 -0.27542472
-1.8690242 1.1856604 -0.27176863
-1.8531896 1.1920114 -0.27054992
-1.8207223 1.1873659 -0.26689386
-1.7966665 1.1878351 -0.26445648
-1.772678 1.1880482 -0.2620191
-1.7405477 1.1824307 -0.25836301
-1.7249093 1.1877141 -0.2571443
-1.6929941 1.1814883 -0.25348824
-1.6855376 1.1921018 -0.25348824
-1.6618791 1.1911051 -0.25105083
-1.6383009 1.1898578 -0.24861346
-1.614804 1.1883625 -0.24617606
-1.5993488 1.1925516 -0.24495737
-1.575985 1.1906115 -0.24251999
-1.5605916 1.1944571 -0.2413013
-1.5373681 1.1920754 -0.23886392
-1.5142373 1.1894486 -0.23642652
-1.5067337 1.1989397 -0.23642652
-1.483768 1.1958603 -0.23398913
-1.4609513 1.1924784 -0.23155175
-1.4534829 1.2015704 -0.23155175
-1.4230741 1.1915636 -0.22789566
-1.4079897 1.1940614 -0.22667697
-1.3929298 1.1964177 -0.22545828
-1.3778445 1.1986916 -0.22423959
-1.3552866 1.1943208 -0.2218022
-1.3403507 1.1962035 -0.22058351
-1.3255491 1.1978308 -0.21936481
-1.3034048 1.192677 -0.21692742
-1.295885 1.2008432 -0.21692742
-1.2738392 1.1953776 -0.21449004
-1.2591081 1.1965208 -0.21327135
-1.2444139 1.1975257 -0.21205266
-1.2297564 1.1983942 -0.21083397
-1.215138 1.1991253 -0.20961526
-1.2005585 1.1997209 -0.20839657
-1.1860729 1.2001284 -0.20717788
-1.171681 1.2003517 -0.20595919
-1.157228 1.2005435 -0.20474049
-1.1427135 1.2007017 -0.2035218
-1.1282973 1.2006742 -0.20230311
-1.1139793 1.2004645 -0.20108442
-1.0997618 1.200074 -0.19986571
-1.0856446 1.1995062 -0.19864702
-1.0715251 1.1988561 -0.19742833
-1.0574033 1.1981235 -0.19620964
-1.043334 1.1972605 -0.19499095
-1.0293168 1.1962689 -0.19377226
-1.0217805 1.2027124 -0.19377226
-1.0078245 1.2015045 -0.19255356
1.019641 1.1286695 0.24090907
1.0267247 1.1222296 0.24090907
1.0338531 1.115666 0.24090907
1.0476438 1.1163105 0.24247342
1.0682453 1.1240247 0.2456021
1.0820804 1.1244602 0.24716645
1.0959193 1.1248084 0.24873079
1.1098589 1.1249737 0.25029513
1.123886 1.1249654 0.25185949
1.1379565 1.124825 0.25342384
1.1520693 1.124552 0.25498816
1.1662235 1.1241457 0.25655252
1.1804177 1.1236057 0.25811687
1.1874542 1.1161668 0.25811687
1.2016828 1.1154031 0.2596812
1.2232296 1.121178 0.2628099
1.2375729 1.1200981 0.26437426
1.2445862 1.1123002 0.26437426
1.2663616 1.1175287 0.26750293
1.2808048 1.1160386 0.26906729
1.2952789 1.1144106 0.27063161
1.3097829 1.1126448 0.27219597
1.3318828 1.1170875 0.27532464
1.3388754 1.1086971 0.27532464
1.3534617 1.1065142 0.276889
1.3834448 1.1165984 0.28158203
1.3904333 1.1078839 0.28158203
1.4128932 1.1113383 0.28471074
1.4276494 1.1084963 0.28627506
1.4502646 1.1115206 0.28940377
1.4650966 1.1083454 0.29096809
1.4878598 1.1109366 0.2940968
1.5027617 1.1074256 0.29566112
1.517678 1.103771 0.29722548
1.5326073 1.0999725 0.29878983
1.5556087 1.1017381 0.30191851
1.5705962 1.0976001 0.30348286
1.5936701 1.0990018 0.30661154
1.6086143 1.0946631 0.30817589
4.1588793 2.5703313 0.77435058
4.1665125 2.5390103 0.77278626
4.1654506 2.5026081 0.76965755
4.1471 2.4562533 0.7634002
4.1453919 2.4201884 0.76027149
4.1433954 2.3842423 0.75714278
4.1411109 2.348417 0.75401413
4.2755909 2.048291 0.75088543
4.234673 1.996327 0.74149936
4.2111216 1.953426 0.73524195
4.2052674 1.9188893 0.7321133
4.2172413 1.8924291 0.7321133
4.2200117 1.8619072 0.73054892
4.231627 1.8353555 0.73054892
4.2249041 1.8009851 0.72742027
4.2179165 1.766772 0.72429156
4.2106667 1.7327181 0.72116286
4.2123132 1.7025265 0.71959853
4.2229271 1.6760262 0.71959853
4.2057657 1.6387025 0.7149055
4.2159786 1.6122447 0.7149055
4.2167778 1.5822539 0.71334118
4.2173672 1.5523163 0.71177679
4.2177472 1.522434 0.71021247
4.2179189 1.4926082 0.70864809
4.2178822 1.4628406 0.70708376
4.2175679 1.4333396 0.70551944
4.226368 1.4071803 0.70551944
4.2163601 1.3744292 0.70239073
4.21562 1.3445404 0.70082641
4.2146068 1.3149233 0.69926202
4.2133384 1.2855339 0.6976977
4.2118058 1.2564195 0.69613338
4.2100277 1.2275345 0.69456899
4.2176113 1.2012193 0.69456899
4.2060437 1.1694043 0.69144034
4.2133083 1.142954 0.69144034
4.2108579 1.1139332 0.68987596
4.2177739 1.0874537 0.68987596
4.2053642 1.0561198 0.68674731
4.202323 1.0273305 0.68518293
4.2086945 1.0009063 0.68518293
4.2052298 0.97242463 0.68361861
4.2015376 0.94418508 0.68205428
4.2073517 0.91792834 0.68205428
4.2033734 0.88943011 0.6804899
4.1991611 0.86122447 0.67892557
4.2044163 0.83519024 0.67892557
4.20959 0.80871075 0.67892557
4.2049451 0.78007615 0.67736125
4.2097921 0.75347954 0.67736125
4.2144432 0.72701389 0.67736125
4.2188935 0.70072687 0.67736125
4.2134013 0.67301548 0.67579687
4.2077589 0.64519298 0.67423254
4.2019577 0.61730665 0.67266816
4.2057538 0.59089291 0.67266816
4.199594 0.56314373 0.67110384
4.1932521 0.53549474 0.66953951
4.1965337 0.50913733 0.66953951
4.2094622 0.48388773 0.67110384
4.2026005 0.45636323 0.66953951
4.1857333 0.42793953 0.6664108
4.1981716 0.40257427 0.66797513
4.2006178 0.37618855 0.66797513
4.1930556 0.34896883 0.6664108
4.1853023 0.32206464 0.66484648
4.1970696 0.29682335 0.6664108
4.1889849 0.26997191 0.66484648
4.1905985 0.24364653 0.66484648
4.1920466 0.21731155 0.66484648
4.1834626 0.19051865 0.6632821
4.1747079 0.16384222 0.66171777
4.1855264 0.13793452 0.6632821
4.1863103 0.11163349 0.6632821
4.1869292 0.085328043 0.6632821
4.1775069 0.058880042 0.66171777
4.1777945 0.032630958 0.66171777
4.1779165 0.0065858718 0.66171777
4.1778769 -0.019300366 0.66171777
4.1776752 -0.045390576 0.66171777
4.1773076 -0.071638659 0.66171777
4.176775 -0.09788391 0.66171777
4.1760774 -0.1241253 0.66171777
4.1653447 -0.15000632 0.66015345
4.1741881 -0.17659235 0.66171777
4.172996 -0.20281592 0.66171777
4.1716394 -0.2290315 0.66171777
4.1701303 -0.25503314 0.66171777
4.1684704 -0.28086612 0.66171777
4.166635 -0.30689248 0.66171777
4.1646242 -0.33306602 0.66171777
4.1624494 -0.35922644 0.66171777
4.1601105 -0.3853721 0.66171777
4.1674356 -0.41247591 0.6632821
4.0770154 -0.58421576 0.65233171
4.1025615 -0.61425275 0.65702474
4.0888071 -0.63885045 0.65546042
4.0749707 -0.66289794 0.65389603
4.070785 -0.68813348 0.65389603
4.0664086 -0.71354187 0.65389603
4.0715623 -0.7408458 0.65546042
4.0668268 -0.76641345 0.65546042
4.0716257 -0.79384089 0.65702474
4.0665574 -0.81940788 0.65702474
4.0709987 -0.84695429 0.65858907
4.0655966 -0.87251627 0.65858907
4.0696783 -0.90017641 0.66015345
4.0639873 -0.92552936 0.66015345
4.0581746 -0.95069182 0.66015345
4.0617609 -0.97832918 0.66171777
4.0651212 -1.0062037 0.6632821
4.0682912 -1.0341588 0.66484648
4.0617132 -1.0597001 0.66484648
4.055028 -1.0850004 0.66484648
4.0577531 -1.1127163 0.6664108
4.0602336 -1.1407064 0.66797513
4.0529861 -1.166195 0.66797513
4.064528 -1.1972189 0.67110384
4.0569253 -1.2227334 0.67110384
4.0586014 -1.2511091 0.67266816
4.0600805 -1.279554 0.67423254
4.0613618 -1.3080668 0.67579687
4.0530629 -1.3335592 0.67579687
4.0540333 -1.3619455 0.67736125
4.0548601 -1.3902411 0.67892557
3.9353626 -1.4606165 0.66484648
3.7690632 -1.4259017 0.63825262
1.1498214 -1.3945814 0.28627506
1.1286192 -1.3864151 0.28314638
1.1136986 -1.3857803 0.28158203
1.0988986 -1.3849591 0.28001767
1.0781146 -1.3761909 0.276889
1.0694991 -1.382897 0.276889
1.054796 -1.3817388 0.27532464
1.0401497 -1.3804506 0.27376032
1.0255616 -1.3790333 0.27219597
1.0168767 -1.3854499 0.27219597
-1.0029742 -1.3342597 0.26437426
-1.0113378 -1.3279315 0.26437426
-1.0256298 -1.329421 0.26593858
-1.0399283 -1.3308235 0.26750293
-1.0482192 -1.3243032 0.26750293
-1.0626978 -1.3253967 0.26906729
-1.0772312 -1.3263602 0.27063161
-1.0918185 -1.3271931 0.27219597
-1.1064585 -1.3278949 0.27376032
-1.1211503 -1.3284647 0.27532464
-1.129475 -1.3213941 0.27532464
-1.1442194 -1.3217391 0.276889
-1.1589481 -1.3220072 0.27845335
-1.1736736 -1.3221878 0.28001767
-1.1885107 -1.3221778 0.28158203
-1.2034435 -1.3219879 0.28314638
-1.2184206 -1.3216622 0.28471074
-1.2267008 -1.3139806 0.28471074
-1.2484385 -1.3206626 0.28783941
-1.2565972 -1.3129022 0.28783941
-1.2716452 -1.312122 0.28940377
-1.2937007 -1.3182045 0.29253244
-1.3019576 -1.31005 0.29253244
-1.3241756 -1.3157672 0.29566112
-1.3324167 -1.3074212 0.29566112
-1.3547914 -1.3127699 0.29878983
-1.3772854 -1.3178885 0.30191851
-1.3927176 -1.3159922 0.30348286
-1.4081157 -1.3140229 0.30504721
-1.4234929 -1.3119669 0.30661154
-1.4389628 -1.3096998 0.30817589
-1.4545095 -1.3072349 0.30974025
-1.4774691 -1.311182 0.31286892
-1.4931062 -1.3083827 0.31443328
-1.5087028 -1.305512 0.3159976
-1.5242712 -1.3025558 0.31756195
-1.5474733 -1.3057503 0.32069066
-1.5632355 -1.3023235 0.32225499
-1.5866436 -1.305024 0.32538369
-1.6101466 -1.3074813 0.32851237
-1.6260363 -1.3035165 0.33007672
-1.6496844 -1.3055327 0.3332054
-1.6734214 -1.3073026 0.33633408
-1.6894238 -1.3027939 0.33789843
-1.7132944 -1.3041177 0.34102714
-1.7293512 -1.2992597 0.34259146
-1.7533479 -1.3001342 0.34572017
-1.7774231 -1.300758 0.34884885
-1.7935045 -1.2954352 0.3504132
-1.8175812 -1.295765 0.35354188
-1.8417935 -1.2957556 0.35667059
-1.8580122 -1.28979 0.35823491
-1.8823771 -1.2892528 0.36136362
-1.906808 -1.2884598 0.3644923
-1.9395208 -1.2928886 0.36918533
-1.9641112 -1.2915299 0.37231401
-1.9804738 -1.2845383 0.37387836
-2.0051458 -1.2827142 0.37700707
-3.0324779 -1.3722445 0.52718413
-3.0049446 -1.3371025 0.52092677
-2.9951887 -1.3102785 0.51779807
-3.0124359 -1.2953351 0.51936239
-3.0023193 -1.2686929 0.51623374
-10.96652 -3.7669809 1.8365406
-11.186372 -3.7646987 1.8693918
-11.406469 -3.7602565 1.902243
-11.683516 -3.770858 1.9444804
-11.951854 -3.7747128 1.9851533
-4.582427 -1.2904354 0.75401413
-4.6952057 -1.2904112 0.77122188
-4.8122215 -1.1942478 0.78530103
-4.9444413 -1.1941301 0.80563748
-5.0960751 -1.1969161 0.82910264
-5.2575631 -1.2000377 0.85413218
-5.3903561 -1.1947666 0.87446862
-5.5425982 -1.1920235 0.89793384
-5.6853433 -1.1854004 0.91983461
-5.8766265 -1.1868021 0.94955719
-6.0584507 -1.1839545 0.97771537
-6.2016435 -1.1715306 0.99961621
-6.4420791 -1.1750801 1.0371605
-6.6438279 -1.1691333 1.0684474
-6.2516928 -1.0602355 1.0043093
-6.0924768 -0.99413216 0.97771537
-7.4328246 -1.1171422 1.1904663
-7.8796263 -1.1337174 1.2608618
-8.1997099 -1.1272286 1.3109208
-8.2458029 -1.0808231 1.3171781
-9.2886229 -1.0989703 1.4814343
-9.7468615 -1.0911301 1.5533942
-10.195527 -1.0765411 1.6237897
-10.732781 -1.0656598 1.7082644
-12.285573 1.4068232 1.9585595
-11.521467 1.3927169 1.838105
-10.807043 1.3753083 1.7254721
-10.13248 1.3542084 1.6190966
-9.6053553 1.3452435 1.5361865
-9.1178551 1.3354311 1.4595336
-8.6699295 1.3255242 1.389138
-8.2615223 1.3162555 1.3249999
-7.8926282 1.307988 1.2671192
-7.5144877 1.2932107 1.207674
-7.2047853 1.2866504 1.1591793
-6.9050889 1.2785723 1.112249
-6.7028637 1.2850065 1.0809622
-6.7140346 1.3309356 1.0840908
-6.7152152 1.3750777 1.0856552
-6.7161064 1.4192837 1.0872195
-6.7360802 1.4674306 1.0919125
-11.105259 4.0842896 1.8740848
-10.681705 4.0048823 1.806818
-10.444126 3.9908352 1.7708381
-10.216359 3.9775414 1.7364225
-10.007735 3.9683437 1.7051356
-9.8089399 3.9600236 1.6754131
-9.5921764 3.9423516 1.6425619
-9.3940973 3.9301136 1.6128393
-9.2238169 3.9271569 1.5878098
-2.9998581 1.2995522 0.51779807
-2.9554806 1.3024439 0.51154071
-2.8841486 1.2927091 0.50059026
-2.8939438 1.3189985 0.50371897
-2.8945611 1.3413074 0.5052833
-2.8860757 1.3594687 0.5052833
-2.8240259 1.3519851 0.49589723
-2.7710669 1.3480989 0.48807552
-2.7448337 1.3567294 0.48494685
-2.7362545 1.3739496 0.48494685
-2.709971 1.3821391 0.48181814
-2.6310711 1.3627985 0.4693034
-2.5962322 1.3655093 0.46461037
-2.5788884 1.377143 0.46304601
-1.9890375 1.1770015 0.36605665
-1.9562424 1.1741514 0.36136362
-1.9488268 1.1864191 0.36136362
-1.9413335 1.1986411 0.36136362
-1.9170218 1.2003313 0.35823491
-1.8844272 1.1964707 0.35354188
-1.8436538 1.1869011 0.3472845
-1.8196176 1.1876652 0.34415582
-1.7956458 1.1881735 0.34102714
-1.7717396 1.1884289 0.33789843
-1.7479024 1.1884303 0.33476976
-1.724135 1.1881803 0.33164105
-1.7004411 1.1876782 0.32851237
-1.6768216 1.1869266 0.32538369
-1.6452543 1.1801677 0.32069066
-1.6218277 1.1788678 0.31756195
-1.5984837 1.1773196 0.31443328
-1.5831388 1.1814332 0.31286892
-1.5678064 1.1853998 0.31130457
-1.5446454 1.1832153 0.30817589
-1.521575 1.1807861 0.30504721
-1.5063608 1.1842192 0.30348286
-1.4834383 1.1813544 0.30035415
-1.4606695 1.1781771 0.29722548
-1.4456923 1.1809565 0.29566112
-1.423069 1.1773697 0.29253244
-1.4080733 1.1799437 0.29096809
