# .PCD v0.7 - Point Cloud Data file format
VERSION 0.7
FIELDS x y z
SIZE 4 4 4
TYPE F F F
COUNT 1 1 1
WIDTH 1475
HEIGHT 1
VIEWPOINT 0 0 0 1 0 0 0
POINTS 1475
DATA ascii
-1.4635897 -1.2158511 0.16646747
-1.4789028 -1.2129486 0.16733903
-1.4942369 -1.2099013 0.16821058
-1.5096236 -1.206668 0.16908213
-1.5251011 -1.2031968 0.16995369
-1.5405624 -1.1996192 0.17082526
-1.563866 -1.202058 0.17256837
-1.5793241 -1.1982294 0.17343992
-1.5947956 -1.1942539 0.17431149
-1.6102465 -1.1901753 0.17518304
-1.6336855 -1.1919183 0.17692615
-1.6491555 -1.1875497 0.1777977
-1.6728255 -1.1887052 0.17954083
-1.7128878 -1.2010481 0.18302706
-1.7204003 -1.1902621 0.18302706
-1.7443006 -1.1906618 0.18477017
-1.7600099 -1.1852435 0.18564174
-1.77572 -1.1796743 0.18651329
-1.7997615 -1.1794143 0.1882564
-1.8155028 -1.1734906 0.18912795
-1.8396405 -1.1727706 0.19087107
-1.8554066 -1.1664909 0.19174263
-1.8796328 -1.1653084 0.19348575
-1.8953854 -1.1587232 0.19435731
-1.9195915 -1.1572436 0.19610041
-1.9353508 -1.1503127 0.19697197
-1.9598311 -1.1480306 0.19871509
-1.9843287 -1.1455374 0.2004582
-2.0001459 -1.1379732 0.20132977
-2.0246353 -1.1351271 0.20307288
-2.0491672 -1.1320179 0.204816
-2.0649893 -1.1238824 0.20568755
-2.0895696 -1.1202999 0.20743066
-2.1229639 -1.1211625 0.21004534
-2.1387072 -1.1125851 0.21091689
-2.1721878 -1.1128809 0.21353157
-2.1880319 -1.1036973 0.21440312
-2.2216907 -1.1032196 0.2170178
-2.2464788 -1.0979875 0.21876091
-2.2712882 -1.0924871 0.22050403
-2.2961164 -1.086718 0.22224714
-2.3299921 -1.0848846 0.22486182
-2.354877 -1.0785198 0.22660492
-2.3888562 -1.075976 0.2292196
-2.4137869 -1.0690132 0.23096271
-2.4478574 -1.065756 0.23357739
-2.4728227 -1.0581932 0.23532051
-2.5069716 -1.05422 0.23793517
-2.5411675 -1.049859 0.24054985
-2.5754063 -1.0451095 0.24316452
-2.6004305 -1.0362829 0.24490763
-2.6347218 -1.0308124 0.24752231
-2.6690459 -1.0249515 0.25013697
-2.7127213 -1.0222121 0.25362322
-2.7377784 -1.0120558 0.25536633
-2.7815452 -1.0084152 0.25885254
-2.8253727 -1.004265 0.26233879
-2.8598216 -0.99640346 0.26495346
-2.9036503 -0.99154186 0.26843968
-2.9381065 -0.98293424 0.27105436
-2.9820924 -0.97685879 0.27454057
-3.0261161 -0.97026896 0.27802682
-3.9878488 -0.92781866 0.35821009
-4.0227499 -0.90933454 0.36082476
-4.0867667 -0.89685208 0.36605412
-5.5669193 -0.68230122 0.49068683
-5.6403642 -0.65535671 0.49678773
-5.8028088 -0.63730687 0.51073265
-5.816608 -0.60185808 0.51160419
-5.8202744 -0.56530112 0.51160419
-5.8137903 -0.52781802 0.51073265
-6.4225149 -0.54242027 0.56389767
-6.2072997 -0.48498279 0.54472339
-6.4387603 -0.4623853 0.56476921
-6.6304111 -0.43428978 0.58132881
-6.8318996 -0.40439588 0.59875995
-7.0631108 -0.3735615 0.61880577
-7.1747718 -0.33447221 0.62839288
-7.2264757 -0.29202157 0.63275069
-7.2878895 -0.24908943 0.63798004
-7.1498981 -0.19940354 0.6257782
-7.1410542 -0.15406467 0.62490666
-8.7057362 -0.13234496 0.76174116
-9.6228628 -0.085239187 0.84192449
-9.8025236 -0.025234612 0.85761249
-9.8722219 0.03661266 0.86371338
-10.24037 0.10232621 0.89596105
-10.757483 0.17480151 0.94128203
-11.323881 0.2541956 0.99096078
-11.949425 0.34264466 1.0458689
-15.660573 0.54756284 1.3709598
-15.666777 0.64635628 1.3718314
-15.642505 0.74383813 1.3700882
-15.627575 0.84156787 1.3692167
-16.119177 0.96965504 1.4127946
-15.937407 2.2717717 1.4084368
-15.922818 2.3718684 1.4084368
-15.917446 2.4733925 1.4093083
-15.881922 2.5701766 1.4075652
-15.86546 2.6699104 1.4075652
-15.87781 2.7746916 1.4101799
-15.771765 2.8588436 1.4023359
-15.743443 2.9574163 1.4014643
-15.763482 3.0648236 1.4049505
-15.753682 3.165766 1.4058222
-15.713972 3.2606342 1.404079
-15.644468 3.3488812 1.3997211
-13.182635 2.994035 1.1827034
-12.213009 2.8542035 1.0972908
-11.274416 2.7107103 1.0144929
-10.512331 2.5981262 0.94738293
-9.8295517 2.4950163 0.88724542
-9.2738333 2.41608 0.83843821
-8.7483864 2.3379855 0.79224569
-8.291564 2.2718115 0.75215405
-7.8838902 2.2134621 0.71642017
-7.4773521 2.1498766 0.68068635
-7.4830017 2.2017896 0.68242943
-7.4786935 2.2511868 0.68330103
-7.4453602 2.2922676 0.68155789
-7.4498158 2.3449829 0.68330103
-2.8262839 1.4745625 0.27889836
-2.7905538 1.4783019 0.27628371
-2.7461166 1.4769309 0.27279747
-2.5437431 1.4516586 0.25623786
-2.4914665 1.442654 0.25188008
-2.4950135 1.4466 -0.45678863
-2.4433091 1.4372089 -0.44896692
-2.4087853 1.4373496 -0.44427386
-2.3659084 1.4319983 -0.4380165
-2.3231945 1.4261669 -0.43175912
-2.2806492 1.4198549 -0.42550173
-2.2466273 1.4183393 -0.4208087
-2.2043977 1.4111265 -0.41455132
-2.162348 1.4034411 -0.40829393
-2.1204841 1.3952827 -0.40203658
-2.0870252 1.3921366 -0.39734355
-2.0536911 1.3886245 -0.39265051
-2.0286312 1.3903339 -0.38952181
-1.9792964 1.3748784 -0.3817001
-1.9544657 1.3759168 -0.37857139
-1.9216613 1.3709606 -0.37387836
-1.8970006 1.3714349 -0.37074968
-1.8644434 1.365816 -0.36605665
-1.832032 1.3598439 -0.36136362
-1.8076646 1.3594545 -0.35823491
-1.7912306 1.3648 -0.35667059
-1.7513463 1.3518863 -0.3504132
-1.7272564 1.3506956 -0.3472845
-1.6955099 1.3431222 -0.34259146
-1.671631 1.3413854 -0.33946279
-1.6555059 1.3456318 -0.33789843
-1.6241428 1.3371741 -0.3332054
-1.6005384 1.3347008 -0.33007672
-1.5770291 1.331985 -0.32694802
-1.5536184 1.3290262 -0.32381934
-1.5302641 1.3258768 -0.32069066
-1.5069395 1.3225687 -0.31756195
-1.4911453 1.3255306 -0.3159976
-1.4681065 1.3216566 -0.31286892
-1.4452188 1.317499 -0.30974025
-1.4225123 1.3130301 -0.30661154
-1.3998747 1.3083764 -0.30348286
-1.3844534 1.3103565 -0.30191851
-1.3619314 1.305361 -0.29878983
-1.3466157 1.307013 -0.29722548
-1.3242885 1.3016018 -0.2940968
-1.3090841 1.3029289 -0.29253244
-1.2869582 1.2971059 -0.28940377
-1.271871 1.2981112 -0.28783941
-1.2499535 1.2918808 -0.28471074
-1.2349889 1.2925674 -0.28314638
-1.2132865 1.2859339 -0.28001767
-1.1984503 1.286305 -0.27845335
-1.1836569 1.2865413 -0.276889
-1.1622673 1.2793318 -0.27376032
-1.1476104 1.2792575 -0.27219597
-1.1330012 1.2790492 -0.27063161
-1.1119369 1.2712743 -0.26750293
-1.1039276 1.2782354 -0.26750293
-1.0894656 1.2776312 -0.26593858
-1.0750556 1.2768954 -0.26437426
-1.0543838 1.2684344 -0.26124555
-1.0463935 1.275034 -0.26124555
-1.0259258 1.2662354 -0.25811687
-1.0117805 1.2649431 -0.25655252
3.7629964 4.2272072 -0.89636946
3.7630289 4.1741366 -0.8901121
3.7626784 4.1211104 -0.88385469
3.7486198 4.0535483 -0.87446862
3.7403452 3.9937878 -0.86664695
3.724242 3.9275341 -0.85726088
3.7144299 3.8686385 -0.84943914
3.711123 3.8168981 -0.84318173
3.7003841 3.7583148 -0.83536005
3.6890569 3.7000189 -0.82753831
3.6841621 3.6489654 -0.82128096
3.6787724 3.5981202 -0.81502354
3.6728904 3.5474882 -0.80876619
3.6593714 3.4902563 -0.80094445
3.6524692 3.4401078 -0.79468709
3.6450825 3.3901846 -0.78842968
3.6372137 3.3404915 -0.78217232
3.6288657 3.2910318 -0.77591491
3.6200409 3.2418098 -0.76965755
3.6181409 3.1993725 -0.76496452
3.6084116 3.1505919 -0.75870717
3.6056941 3.10851 -0.75401413
3.5951698 3.0600677 -0.74775672
3.5919049 3.0180416 -0.74306369
3.5804551 2.9701109 -0.73680633
3.5835073 2.9353521 -0.73367763
3.5786822 2.8943419 -0.72898459
3.5659235 2.8471487 -0.72272724
3.5604708 2.8063455 -0.71803421
3.5624425 2.7717886 -0.7149055
3.548455 2.7252862 -0.70864809
3.5497665 2.6910036 -0.70551944
3.5428798 2.6508951 -0.70082641
3.5356302 2.6109803 -0.69613338
3.5280197 2.5712616 -0.69144034
3.528069 2.5375097 -0.68831164
3.5198615 2.4980276 -0.68361861
3.5195217 2.4642241 -0.6804899
3.5106094 2.4251435 -0.67579687
3.5010848 2.3866556 -0.67110384
3.5076866 2.3592904 -0.66953951
3.4977512 2.320822 -0.66484648
3.4874718 2.2825725 -0.66015345
3.4851489 2.2499013 -0.65702474
3.4825535 2.21735 -0.65389603
3.4796875 2.1849203 -0.65076739
3.476552 2.1526146 -0.64763868
3.4647188 2.1152883 -0.64294565
3.4610167 2.0832901 -0.63981694
3.4570501 2.0514221 -0.63668823
3.4528201 2.0196869 -0.63355958
3.4568853 1.9930192 -0.6319952
3.4521644 1.9615012 -0.62886655
3.4471848 1.9301214 -0.62573785
3.3472793 0.68873435 -0.54126322
3.3321097 0.66412085 -0.53813457
3.345901 0.64511389 -0.5396989
3.3402326 0.6219781 -0.53813457
3.3343863 0.59904957 -0.53657019
3.3380845 0.57808727 -0.53657019
3.322166 0.55385375 -0.53344154
3.3255804 0.53296912 -0.53344154
3.3190846 0.51067054 -0.53187716
3.3124137 0.48865491 -0.53031284
3.3153932 0.46801341 -0.53031284
3.3280568 0.44849214 -0.53187716
3.3210125 0.42631501 -0.53031284
3.3138213 0.40424463 -0.52874851
3.3162959 0.3834154 -0.52874851
3.308821 0.36149833 -0.52718413
3.2913768 0.3386794 -0.52405542
3.3032711 0.31894171 -0.5256198
3.295373 0.29729301 -0.52405542
3.307018 0.27740744 -0.5256198
3.2890012 0.25509593 -0.5224911
3.300391 0.23512746 -0.52405542
3.2820909 0.21310604 -0.52092677
3.2833652 0.19247994 -0.52092677
3.2845097 0.17184626 -0.52092677
3.5255575 -0.058769081 -0.55847102
3.5744901 -0.082052872 -0.56629276
3.544286 -0.10364421 -0.56159973
3.5830474 -0.12731439 -0.56785709
3.513099 -0.14693552 -0.5569067
3.5318375 -0.16995545 -0.56003535
3.5109754 -0.19106928 -0.5569067
3.5294299 -0.21420723 -0.56003535
3.5083253 -0.2347524 -0.5569067
3.5067949 -0.25660014 -0.5569067
3.5248053 -0.28019366 -0.56003535
3.4737716 -0.29811248 -0.55221367
3.5013356 -0.3226518 -0.5569067
3.3326564 -0.41292626 -0.53187716
3.2614744 -0.42464045 -0.52092677
3.2098358 -0.43826607 -0.51310503
3.1972413 -0.45702767 -0.51154071
3.1943066 -0.47710741 -0.51154071
3.1912458 -0.4971683 -0.51154071
3.1880591 -0.51720959 -0.51154071
3.1750071 -0.53558755 -0.50997633
3.181308 -0.55723011 -0.51154071
3.1680262 -0.57544214 -0.50997633
3.1740546 -0.59716219 -0.51154071
3.1702399 -0.61709344 -0.51154071
3.1663001 -0.63700038 -0.51154071
3.1622353 -0.65688217 -0.51154071
3.1677032 -0.67880756 -0.51310503
3.1633756 -0.69869733 -0.51310503
3.1589468 -0.71845603 -0.51310503
3.1544347 -0.73801446 -0.51310503
3.1497767 -0.75764817 -0.51310503
3.144954 -0.77742374 -0.51310503
3.1400073 -0.79716861 -0.51310503
3.1444943 -0.81937253 -0.51466936
3.1393113 -0.83901083 -0.51466936
3.1340528 -0.85844535 -0.51466936
2.9958928 -0.94316417 -0.49746159
3.0181143 -0.97104442 -0.50215465
3.0307195 -0.99615669 -0.5052833
3.0337641 -1.0183225 -0.50684768
3.0179625 -1.0341623 -0.5052833
3.011405 -1.0531042 -0.5052833
3.0047288 -1.0720044 -0.5052833
3.0072155 -1.0942398 -0.50684768
3.0002809 -1.1131129 -0.50684768
2.9932649 -1.1318442 -0.50684768
2.9861946 -1.1503681 -0.50684768
2.9881659 -1.1725538 -0.508412
2.9807396 -1.1913058 -0.508412
2.9823437 -1.2137338 -0.50997633
2.9837835 -1.2362288 -0.51154071
2.9759984 -1.2548546 -0.51154071
2.9772434 -1.2771629 -0.51310503
2.9692307 -1.2956825 -0.51310503
2.9700584 -1.3183202 -0.51466936
2.9707189 -1.3410192 -0.51623374
2.9622345 -1.3596578 -0.51623374
2.9536331 -1.3782431 -0.51623374
2.9538391 -1.4010067 -0.51779807
2.9538753 -1.4238271 -0.51936239
2.9448709 -1.4423586 -0.51936239
2.9534836 -1.4695367 -0.5224911
2.9443219 -1.4878078 -0.5224911
2.9437852 -1.5106275 -0.52405542
2.9342356 -1.5290939 -0.52405542
2.9333 -1.5521194 -0.5256198
2.9321909 -1.5751933 -0.52718413
2.930907 -1.5983143 -0.52874851
2.9294481 -1.6214813 -0.53031284
2.9278135 -1.6446928 -0.53187716
2.9174221 -1.6630561 -0.53187716
2.9154649 -1.6862991 -0.53344154
2.9133308 -1.7095826 -0.53500587
2.9110186 -1.7329059 -0.53657019
2.9085281 -1.7562675 -0.53813457
2.9059169 -1.7795708 -0.5396989
2.9032259 -1.8027514 -0.54126322
2.9086573 -1.8313247 -0.54439193
-1.0012578 -1.310776 -0.26124555
-1.0155185 -1.3122702 -0.2628099
-1.0237437 -1.3058636 -0.2628099
-1.0319284 -1.2994055 -0.2628099
-1.0524542 -1.3082876 -0.26593858
-1.0606533 -1.3016495 -0.26593858
-1.0688108 -1.2949594 -0.26593858
-1.083261 -1.2957962 -0.26750293
-1.0977637 -1.2965021 -0.26906729
-1.1058881 -1.289579 -0.26906729
-1.1204455 -1.2900622 -0.27063161
-1.1350105 -1.2904497 -0.27219597
-1.1495529 -1.2907685 -0.27376032
-1.1575702 -1.2835834 -0.27376032
-1.1589516 -1.2689918 -0.27219597
-1.1803148 -1.2761871 -0.27532464
-1.1883099 -1.2687458 -0.27532464
-1.2030551 -1.2684206 -0.276889
-1.2178428 -1.26796 -0.27845335
-1.2257856 -1.260283 -0.27845335
-1.2406107 -1.2595932 -0.28001767
-1.2554342 -1.2588077 -0.28158203
-1.2702272 -1.2579551 -0.28314638
-1.2850988 -1.2569252 -0.28471074
-1.3000751 -1.2556876 -0.28627506
-1.3150864 -1.2543111 -0.28783941
-1.3301313 -1.2527953 -0.28940377
-1.3379766 -1.2444133 -0.28940377
-1.3530434 -1.2426629 -0.29096809
-1.3681408 -1.2407721 -0.29253244
-1.3832675 -1.2387404 -0.2940968
-1.3984225 -1.2365674 -0.29566112
-1.4210445 -1.2407486 -0.29878983
-1.428772 -1.2318423 -0.29878983
-1.443897 -1.2293693 -0.30035415
-1.4590863 -1.2267079 -0.30191851
-1.4819647 -1.2301328 -0.30504721
-1.4896646 -1.2207972 -0.30504721
-1.5049841 -1.2176256 -0.30661154
-1.5203621 -1.2142597 -0.30817589
-1.5435801 -1.2167786 -0.31130457
-1.5590557 -1.2130369 -0.31286892
-1.5744798 -1.2092333 -0.31443328
-1.5899174 -1.2052834 -0.3159976
-1.6132754 -1.2071043 -0.31912631
-1.6207891 -1.1969967 -0.31912631
-1.6441368 -1.1985682 -0.32225499
-1.6595876 -1.1940728 -0.32381934
-1.6751108 -1.1893398 -0.32538369
-1.6906397 -1.1844586 -0.32694802
-1.7142978 -1.1850454 -0.33007672
-1.7298696 -1.1798159 -0.33164105
-1.745443 -1.1744374 -0.3332054
-1.7692454 -1.1743722 -0.33633408
-1.7848525 -1.1686429 -0.33789843
-1.8087541 -1.1681221 -0.34102714
-1.8243884 -1.1620405 -0.34259146
-1.8400174 -1.1558082 -0.34415582
-1.8640363 -1.1546264 -0.3472845
-1.8880749 -1.1532493 -0.3504132
-1.9036446 -1.146625 -0.35197753
-1.9277714 -1.1447693 -0.35510623
-1.9520738 -1.1424429 -0.35823491
-1.9678305 -1.1349834 -0.35979927
-1.9920962 -1.1323586 -0.36292794
-2.0164058 -1.1294732 -0.36605665
-2.0407574 -1.1263266 -0.36918533
-2.0651481 -1.1229182 -0.37231401
-2.089576 -1.1192476 -0.37544271
-2.114002 -1.115383 -0.37857139
-2.1384001 -1.1113733 -0.3817001
-2.1628649 -1.1070329 -0.38482878
-2.1962388 -1.1067557 -0.38952181
-2.2208452 -1.1017132 -0.39265051
-2.2454743 -1.0964048 -0.39577919
-2.270124 -1.09083 -0.39890787
-2.3037202 -1.0892102 -0.4036009
-2.3284295 -1.0830451 -0.40672961
-2.3531516 -1.0766124 -0.40985829
-2.3778839 -1.0699112 -0.41298699
-2.4116566 -1.0669376 -0.41768003
-2.4364274 -1.0596421 -0.4208087
-2.4793649 -1.0598415 -0.42706609
-2.5041873 -1.0518925 -0.43019477
-2.5381372 -1.0474409 -0.4348878
-2.5721288 -1.0426037 -0.43958083
-2.6061587 -1.0373802 -0.44427386
-2.6310239 -1.0281749 -0.44740257
-2.6743195 -1.0257721 -0.45365995
-2.7084432 -1.0193861 -0.45835298
-2.7425911 -1.0126114 -0.46304601
-2.7860467 -1.00881 -0.4693034
-2.8109457 -0.99789351 -0.47243208
-2.8544412 -0.99328864 -0.47868946
-2.8979332 -0.98833674 -0.48494685
-2.9415042 -0.98278719 -0.4912042
-2.9851706 -0.97656977 -0.49746159
-3.0288734 -0.96984196 -0.50371897
-4.1004596 -0.89817011 -0.66484648
-4.0963612 -0.8703348 -0.6632821
-4.0824008 -0.84059674 -0.66015345
-5.8418722 -0.63927311 -0.93078506
-5.796649 -0.59749317 -0.92296332
-5.8002892 -0.56105858 -0.92296332
-5.8036995 -0.52460492 -0.92296332
-6.0037246 -0.5046742 -0.95425022
-6.1544847 -0.47842571 -0.97771537
-2.7394857 1.4747533 -0.49276856
-2.6608284 1.4540455 -0.48025379
-2.6170905 1.4515733 -0.47399643
-2.5993118 1.4631426 -0.47243208
-2.5557621 1.4598497 -0.46617469
-2.5038123 1.4511154 -0.45835298
-2.4895449 1.4447353 0.35342109
-2.4376528 1.4351699 0.34732762
-2.4030228 1.4351904 0.34367153
-2.3515122 1.4245462 0.33757809
-2.3086877 1.4185096 0.33270329
-2.2660341 1.4119906 0.32782853
-2.2235541 1.4049938 0.32295376
-2.189611 1.4028729 0.31929767
-2.1557825 1.4003829 0.31564158
-2.1137841 1.3920635 0.31076682
-2.0802307 1.3887846 0.30711073
-2.0385838 1.3795758 0.30223596
-2.0053201 1.3755149 0.29857987
-1.9721897 1.3710899 0.29492381
-1.9391943 1.3663048 0.29126772
-1.9144163 1.3669262 0.28883034
-1.8816656 1.3614736 0.28517425
-1.8490607 1.3556629 0.28151819
-1.8245709 1.3554169 0.27908078
-1.7922283 1.3489474 0.27542472
-1.7679318 1.348145 0.27298734
-1.7358629 1.3410223 0.26933125
-1.7117698 1.3396685 0.26689386
-1.6799859 1.3318983 0.26323777
-1.6638458 1.3362123 0.2620191
-1.6323189 1.3278494 0.25836301
-1.6009629 1.3191446 0.25470692
-1.5850229 1.3228176 0.25348824
-1.5539392 1.3135284 0.24983215
-1.538116 1.3168107 0.24861346
-1.5072643 1.3070005 0.24495737
-1.4839932 1.3034754 0.24251999
-1.460878 1.2996521 0.24008261
-1.4453096 1.3021613 0.23886392
-1.4224845 1.2977828 0.23642652
-1.3925437 1.2863669 0.23277044
-1.3772489 1.2882427 0.23155175
-1.3547159 1.2832191 0.22911437
-1.3394632 1.2848352 0.22789566
-1.3242447 1.28631 0.22667697
-1.3019842 1.2806848 0.22423959
-1.28688 1.2818352 0.2230209
-1.2648243 1.2757987 0.22058351
-1.2498401 1.2766279 0.21936481
-1.2279961 1.2701843 0.21692742
-1.2131375 1.2706954 0.21570873
-1.191512 1.263849 0.21327135
-1.1767848 1.2640456 0.21205266
-1.1621016 1.2641079 0.21083397
-1.1474651 1.2640352 0.20961526
-1.132875 1.2638295 0.20839657
-1.1117553 1.2560577 0.20595919
-1.0973094 1.255545 0.20474049
-1.0893993 1.2624146 0.20474049
-1.0685712 1.2541249 0.20230311
-1.054281 1.2532185 0.20108442
-1.040044 1.2521831 0.19986571
-1.0258625 1.2510178 0.19864702
-1.0117363 1.2497247 0.19742833
3.7359662 4.0885835 0.68003094
3.7484529 4.0501318 0.67759353
3.7399328 3.9902494 0.67150009
3.7440872 3.9454017 0.667844
3.7342253 3.8861995 0.6617505
3.7308815 3.8342061 0.65687573
3.7131004 3.7682693 0.64956361
3.7016501 3.7097349 0.64347011
3.6896124 3.6514945 0.63737667
3.6840887 3.6004906 0.6325019
3.6780708 3.5497012 0.62762713
3.6643763 3.4922831 0.62153363
3.6645627 3.4487834 0.61787754
3.6570773 3.3986635 0.61300278
3.6417952 3.3420634 0.60690933
3.6406574 3.2991209 0.60325325
3.6317282 3.2497067 0.59837848
3.6223228 3.2005363 0.59350371
3.6199231 3.158138 0.58984762
3.6096144 3.1094196 0.58497286
3.6065154 3.0672493 0.58131677
3.6031771 3.0250659 0.57766068
3.5992205 2.9833255 0.57400459
3.5869129 2.9358215 0.56912982
3.5897057 2.9009261 0.56669241
3.5768263 2.8535547 0.56181765
3.5790899 2.8187425 0.55938029
3.5653858 2.7718313 0.55450553
3.5591087 2.7312469 0.55084944
3.5524635 2.6908517 0.54719335
3.5534015 2.6565914 0.54475594
3.5460632 2.6165335 0.54109985
3.5383627 2.576673 0.53744382
3.5383625 2.5428054 0.5350064
3.530076 2.5031641 0.53135031
3.5296848 2.4692461 0.52891296
3.5206506 2.4300666 0.52525687
3.5192327 2.3970315 0.52281946
3.5093937 2.3584371 0.51916337
3.5075974 2.3253717 0.51672602
3.4972181 2.2869902 0.51306993
3.5031779 2.2595916 0.51185125
3.4921825 2.2215536 0.50819516
3.4892559 2.1890185 0.50575775
3.4860594 2.1566081 0.5033204
3.482594 2.1243248 0.50088298
3.4703553 2.0870552 0.49722692
3.4663246 2.0550857 0.49478951
3.4705992 2.0282576 0.49357083
3.466073 1.9965032 0.49113345
3.4612858 1.964886 0.48869607
3.4475763 1.9285625 0.48503998
3.4422407 1.8972806 0.4826026
3.4390891 1.316184 0.45213526
3.4472909 1.2945498 0.45213526
3.436681 1.2661339 0.44969788
3.4351254 1.2414427 0.44847918
3.424087 1.2133734 0.44604179
3.4222672 1.1885791 0.44482309
3.4296677 1.167053 0.44482309
3.4275162 1.1423429 0.44360441
3.4251904 1.1177057 0.4423857
3.4132357 1.0901232 0.43994832
3.4105439 1.0656955 0.43872961
3.3981881 1.0384442 0.43629223
3.3951356 1.0142313 0.43507355
3.4014411 0.99287909 0.43507355
3.3980672 0.96876645 0.43385485
3.3945251 0.94473553 0.43263617
3.3908155 0.92078745 0.43141747
3.3869393 0.89692342 0.43019879
3.3924744 0.87575471 0.43019879
3.3882098 0.85229701 0.42898008
3.3838482 0.82866818 0.42776138
3.3794031 0.80479556 0.4265427
3.3747318 0.78127086 0.42532399
3.3795078 0.76034623 0.42532399
3.3647885 0.73502707 0.42288661
3.3693404 0.71387106 0.42288661
3.3640103 0.6908192 0.42166793
3.3584912 0.66802645 0.42044923
3.3528686 0.64507288 0.41923052
3.3471513 0.62188768 0.41801184
3.3510222 0.60068005 0.41801184
3.3449497 0.57792336 0.41679314
3.3387239 0.5552668 0.41557446
3.3323457 0.53271133 0.41435575
3.3356075 0.51189065 0.41435575
3.3288953 0.48976883 0.41313708
3.3220553 0.46762344 0.41191837
3.3249278 0.44674122 0.41191837
3.3276691 0.42584136 0.41191837
3.3302791 0.40492514 0.41191837
3.3228974 0.3828564 0.41069967
3.3153701 0.36089647 0.40948099
3.3175724 0.34005839 0.40948099
3.3097634 0.31825683 0.40826228
3.3116977 0.29745477 0.40826228
3.3036103 0.27581522 0.40704361
3.3052781 0.25505266 0.40704361
3.3068154 0.23428006 0.40704361
3.2983174 0.21285899 0.4058249
3.289681 0.19155398 0.40460622
3.3007317 0.17139533 0.4058249
3.281913 0.14974855 0.40338752
3.292707 0.12951493 0.40460622
3.2835357 0.108496 0.40338752
3.2841527 0.087862901 0.40338752
3.275212 -0.035299592 0.40216884
3.2650015 -0.055708233 0.40095013
3.2546644 -0.075989969 0.39973143
3.2541227 -0.096438028 0.39973143
3.2435334 -0.11652593 0.39851275
3.2427373 -0.13690326 0.39851275
3.2517269 -0.15775613 0.39973143
3.240761 -0.17764044 0.39851275
3.2296815 -0.19727021 0.39729404
3.2283971 -0.21727733 0.39729404
3.2170811 -0.23667121 0.39607537
3.2254245 -0.25766993 0.39729404
3.2138531 -0.27707812 0.39607537
3.2120488 -0.2972658 0.39607537
3.2002404 -0.31646499 0.39485666
3.2080598 -0.33760512 0.39607537
3.2058752 -0.35775521 0.39607537
3.193707 -0.37672842 0.39485666
3.191292 -0.39666557 0.39485666
3.1986148 -0.41771626 0.39607537
3.186115 -0.43630177 0.39485666
3.1833107 -0.45631203 0.39485666
3.1803808 -0.47630426 0.39485666
3.1773255 -0.49627766 0.39485666
3.1741445 -0.51623148 0.39485666
3.1610518 -0.53451014 0.39363798
3.1674068 -0.55607724 0.39485666
3.1638505 -0.57596713 0.39485666
3.1601691 -0.59583473 0.39485666
3.156363 -0.61567879 0.39485666
3.1621621 -0.63745999 0.39607537
3.1483772 -0.65529323 0.39485666
3.1539021 -0.6771456 0.39607537
3.1398942 -0.69480419 0.39485666
3.1451714 -0.71660405 0.39607537
3.140671 -0.73607755 0.39607537
3.1456704 -0.75796735 0.39729404
3.1312115 -0.77533144 0.39607537
3.1262782 -0.79499006 0.39607537
3.1212213 -0.81461722 0.39607537
3.1352491 -0.83922607 0.39851275
3.1299891 -0.85863578 0.39851275
3.1245756 -0.87813151 0.39851275
3.0169485 -0.99294317 0.3899819
3.0106502 -1.0118796 0.3899819
3.0323975 -1.0404395 0.39363798
3.0258005 -1.059472 0.39363798
3.0284309 -1.0818015 0.39485666
3.021574 -1.1008083 0.39485666
3.0239022 -1.1232276 0.39607537
3.0168288 -1.1420898 0.39607537
3.0004339 -1.1571884 0.39485666
3.0023997 -1.1794999 0.39607537
2.9949296 -1.1983411 0.39607537
2.9873409 -1.2171351 0.39607537
2.9888027 -1.2396837 0.39729404
2.9901469 -1.2621844 0.39851275
2.982269 -1.2806869 0.39851275
2.9742272 -1.2992535 0.39851275
2.9750755 -1.3219457 0.39973143
2.9757557 -1.3446997 0.40095013
2.9672482 -1.3633699 0.40095013
2.9676161 -1.3861872 0.40216884
2.9588478 -1.4048059 0.40216884
2.9589021 -1.4276823 0.40338752
2.9587853 -1.4506147 0.40460622
2.9496686 -1.4690638 0.40460622
2.9493668 -1.4917914 0.4058249
2.9488385 -1.5146838 0.40704361
2.9392633 -1.5331819 0.40704361
2.9383433 -1.5562651 0.40826228
2.9372487 -1.579397 0.40948099
2.9359794 -1.6025765 0.41069967
2.9258521 -1.6209921 0.41069967
2.9242611 -1.6442082 0.41191837
2.9224935 -1.6674681 0.41313708
2.9119589 -1.6857976 0.41313708
2.9184263 -1.7141137 0.41557446
2.9075987 -1.7324167 0.41557446
2.9051509 -1.7557853 0.41679314
2.9025917 -1.7790804 0.41801184
2.8999431 -1.8022697 0.41923052
2.8970485 -1.8256046 0.42044923
2.8938847 -1.8491154 0.42166793
-1.0006715 -1.3089423 0.20230311
-1.0088761 -1.3026291 0.20230311
-1.0231675 -1.3040732 0.2035218
-1.0375167 -1.3053889 0.20474049
-1.0519223 -1.3065758 0.20595919
-1.0601109 -1.2999406 0.20595919
-1.0682577 -1.2932541 0.20595919
-1.0827314 -1.2941291 0.20717788
-1.0972579 -1.294873 0.20839657
-1.1053722 -1.2879531 0.20839657
-1.1199541 -1.2884736 0.20961526
-1.1345369 -1.2889047 0.21083397
-1.1425009 -1.2818505 0.21083397
-1.1571201 -1.2820714 0.21205266
-1.171849 -1.2821019 0.21327135
-1.1866237 -1.2819978 0.21449004
-1.1946552 -1.2745167 0.21449004
-1.2026396 -1.2669854 0.21449004
-1.2174548 -1.2665597 0.21570873
-1.2323118 -1.2659976 0.21692742
-1.2472093 -1.2652988 0.21814612
-1.2620986 -1.2645103 0.21936481
-1.269909 -1.2566663 0.21936481
-1.284817 -1.2556624 0.22058351
-1.299823 -1.2544576 0.2218022
-1.3148644 -1.2531135 0.2230209
-1.3299398 -1.2516296 0.22423959
-1.3450483 -1.2500054 0.22545828
-1.3528757 -1.2415296 0.22545828
-1.3680047 -1.2396697 0.22667697
-1.3831632 -1.2376684 0.22789566
-1.3983505 -1.2355253 0.22911437
-1.413565 -1.2332399 0.23033306
-1.4287586 -1.2308667 0.23155175
-1.4439172 -1.2284223 0.23277044
-1.459147 -1.2257811 0.23398913
-1.4744596 -1.2229252 0.23520783
-1.4897938 -1.219925 0.23642652
-1.5051481 -1.2167803 0.23764521
-1.5205675 -1.2134326 0.23886392
-1.536064 -1.2098626 0.24008261
-1.5515304 -1.2062037 0.2413013
-1.5669526 -1.2024739 0.24251999
-1.582389 -1.1985978 0.24373868
-1.6057876 -1.200518 0.24617606
-1.62124 -1.1963598 0.24739476
-1.6446668 -1.1979796 0.24983215
-1.6682214 -1.1992905 0.25226954
-1.6757237 -1.1887851 0.25226954
-1.6994224 -1.1896167 0.25470692
-1.7150302 -1.1845562 0.25592563
-1.7388433 -1.1849357 0.25836301
-1.7544909 -1.179525 0.25958169
-1.770139 -1.1739638 0.26080039
-1.7940922 -1.173686 0.26323777
-1.8097712 -1.1677718 0.26445648
-1.83382 -1.1670355 0.26689386
-1.8495234 -1.1607665 0.26811254
-1.87366 -1.1595694 0.27054992
-1.8978097 -1.1581866 0.27298734
-1.9134535 -1.1515237 0.27420601
-1.9377108 -1.1496283 0.2766434
-1.9535635 -1.1422708 0.2778621
-1.9693571 -1.1348332 0.27908078
-2.002341 -1.1371415 0.28273687
-2.0267692 -1.1342323 0.28517425
-2.0425472 -1.126268 0.28639296
-2.0670269 -1.122888 0.28883034
-2.1002948 -1.1239275 0.29248643
-2.1248333 -1.1200461 0.29492381
-2.1493497 -1.1160072 0.2973612
-2.1739397 -1.1116238 0.29979858
-2.198612 -1.106869 0.30223596
-2.2233098 -1.1018476 0.30467334
-2.2480304 -1.0965594 0.30711073
-2.2817197 -1.0952989 0.31076682
-2.3065059 -1.0894189 0.3132042
-2.3313079 -1.0832702 0.31564158
-2.36515 -1.0809785 0.31929767
-2.3900013 -1.0742347 0.32173505
-2.4148605 -1.0672209 0.32417244
-2.4488287 -1.0638919 0.32782853
-2.4828494 -1.0601777 0.33148462
-2.5169189 -1.0560775 0.33514068
-2.5418575 -1.0478078 0.33757809
-2.5759909 -1.0429912 0.34123415
-2.6009395 -1.0341195 0.34367153
-2.6443701 -1.0321932 0.34854633
-2.6693404 -1.0226597 0.35098371
-2.7035851 -1.0163454 0.35463977
-2.7471673 -1.0130749 0.35951456
-2.7908137 -1.0092963 0.36438933
-2.8251646 -1.0016925 0.36804542
-2.8688667 -0.99706316 0.37292019
-2.9031754 -0.98886979 0.37657627
-2.9563594 -0.98645967 0.38266972
-2.9813685 -0.97402972 0.38510713
-3.0346992 -0.97039324 0.39120057
-4.1112847 -0.89885008 0.51672602
-4.0877228 -0.86682254 0.51306993
-13.91078 -2.1392167 1.7281072
-14.208711 -2.0937285 1.7634493
-14.59506 -2.0570538 1.8097597
-14.991335 -2.0169206 1.8572887
-5.5076523 -0.67064565 0.68124962
-5.6399374 -0.65081984 0.69709265
-5.7721863 -0.62935454 0.71293563
-5.7957735 -0.59510368 0.71537304
-5.8092785 -0.5596264 0.71659172
-5.9115348 -0.53201288 0.72877866
-6.3697424 -0.5329237 0.78483856
-6.2245264 -0.48141235 0.76655817
-6.44524 -0.4577612 0.79336941
-6.636179 -0.42943546 0.81652457
-6.8567352 -0.40046048 0.84333587
-7.0970044 -0.36976689 0.87258446
-7.247901 -0.33225623 0.89086491
-7.5771036 -0.30031297 0.93108177
-7.8367467 -0.26168475 0.96276778
-7.1238651 -0.19308035 0.87502187
-7.1249437 -0.14804105 0.87502187
-8.7235756 -0.12566818 1.0712315
-9.0616512 -0.07314834 1.1126671
-9.4291735 -0.01687062 1.1577587
-9.8161821 0.044116873 1.2052878
-10.302031 0.11103134 1.2650038
-10.817185 0.18415131 1.3283758
-11.381435 0.26430649 1.3978413
-15.506768 0.45684287 1.9048178
-15.622622 0.5585165 1.9194422
-15.638637 0.65750283 1.9218795
-15.644112 0.75622493 1.9230982
-15.62914 0.85396701 1.9218795
-16.039564 0.97750467 1.9730647
-16.023201 1.0776026 1.971846
-16.006216 1.1775252 1.9706273
-15.988607 1.2772853 1.9694085
-15.980267 1.3777148 1.9694085
-15.971352 1.4774858 1.9694085
-15.942136 1.5744661 1.9669712
-15.932011 1.6738169 1.9669712
-15.92118 1.773883 1.9669712
-15.909648 1.8744975 1.9669712
-15.887534 1.9745835 1.9657525
-15.874791 2.0745418 1.9657525
-15.861632 2.1728632 1.9657525
-15.847779 2.2717006 1.9657525
-15.833193 2.3712256 1.9657525
-15.817981 2.4706655 1.9657525
-15.802146 2.5699992 1.9657525
-15.785686 2.66924 1.9657525
-15.768603 2.7683671 1.9657525
-15.760552 2.8697753 1.9669712
-15.741952 2.9701157 1.9669712
-15.722828 3.0697408 1.9669712
-15.703231 3.1684649 1.9669712
-15.692731 3.2690883 1.9681898
-15.429283 3.3154891 1.9377226
-13.044945 2.9733884 1.6427987
-12.059713 2.8285141 1.5209293
-11.153779 2.6911087 1.4088095
-10.442892 2.5896714 1.3210636
-9.7915964 2.4935665 1.2406299
-9.2187681 2.4094698 1.1699457
-8.7049274 2.3336949 1.1065736
-8.2211332 2.2594593 1.0468576
-7.8150663 2.2007601 0.9968912
-7.4673791 2.1532717 0.95423692
-7.4634137 2.2023079 0.95545566
-7.4495387 2.2487953 0.95545566
-7.4447465 2.2984834 0.95667434
-15.431804 5.084908 1.9950011
-15.408958 5.1849294 1.9962198
-15.404237 5.2913218 1.9998759
-15.036002 6.0253868 1.9889077
-14.814052 6.0447407 1.9645338
-14.821608 6.1567416 1.9706273
-14.800918 6.257473 1.9730647
-14.496898 6.2366004 1.9377226
-14.039163 6.1444983 1.8816626
-13.592237 6.0509415 1.8268214
-2.550523 1.4581852 0.36073324
-2.4897978 1.4442991 0.35342109
-2.4889774 1.4457124 -0.35342109
-2.4370885 1.436128 -0.34732762
-2.3939397 1.431041 -0.34245285
-2.3509519 1.4254705 -0.33757809
-2.3081307 1.4194157 -0.33270329
-2.2654788 1.4128813 -0.32782853
-2.2313912 1.4111717 -0.32417244
-2.1974146 1.4090914 -0.32051638
-2.1552327 1.401229 -0.31564158
-2.1132367 1.3928943 -0.31076682
-2.0879383 1.3951154 -0.30832943
-2.0462592 1.3859432 -0.30345467
-2.0129628 1.3819195 -0.29979858
-1.9879452 1.3832028 -0.2973612
-1.9467694 1.3727858 -0.29248643
-1.9138788 1.3676786 -0.28883034
-1.8891701 1.3680335 -0.28639296
-1.85653 1.3622615 -0.28273687
-1.832004 1.3620551 -0.28029948
-1.7916979 1.3496518 -0.27542472
-1.7674024 1.3488389 -0.27298734
-1.7431878 1.3477756 -0.27054992
-1.7112439 1.3403404 -0.26689386
-1.6872382 1.338727 -0.26445648
-1.6633211 1.3368653 -0.2620191
-1.6394939 1.3347573 -0.25958169
-1.6081026 1.3260876 -0.25592563
-1.5921206 1.3298031 -0.25470692
-1.5685788 1.3269591 -0.25226954
-1.5375983 1.3174152 -0.24861346
-1.5217365 1.3206111 -0.24739476
-1.4909284 1.3106197 -0.24373868
-1.4751939 1.3134258 -0.24251999
-1.4521691 1.3093759 -0.24008261
-1.4366416 1.3117183 -0.23886392
-1.41391 1.3071193 -0.23642652
-1.3912351 1.3023494 -0.23398913
-1.3758212 1.3042369 -0.23277044
-1.3532792 1.2991081 -0.23033306
-1.3379728 1.3006673 -0.22911437
-1.3227012 1.3020849 -0.22789566
-1.3004347 1.2963556 -0.22545828
-1.285279 1.2974492 -0.22423959
-1.2632197 1.2913094 -0.2218022
-1.2481855 1.292082 -0.22058351
-1.2263401 1.2855358 -0.21814612
-1.2114332 1.2859907 -0.21692742
-1.1898084 1.2790427 -0.21449004
-1.1750343 1.2791833 -0.21327135
-1.160305 1.2791896 -0.21205266
-1.145623 1.279061 -0.21083397
-1.1244125 1.2713643 -0.20839657
-1.1098738 1.2709278 -0.20717788
-1.0953846 1.2703596 -0.20595919
-1.0809472 1.2696592 -0.20474049
-1.0665615 1.2688284 -0.2035218
-1.0522298 1.2678667 -0.20230311
-1.0379518 1.2667758 -0.20108442
-1.02373 1.2655554 -0.19986571
-1.0095642 1.264207 -0.19864702
3.7452078 4.2005758 -0.69099915
3.7582231 4.1622281 -0.6885618
3.7643867 4.1163936 -0.68490571
3.7500653 4.0486388 -0.67759353
3.7346876 3.9815614 -0.67028135
3.7182746 3.9151638 -0.66296923
3.7082317 3.8561161 -0.65687573
3.7046883 3.8042974 -0.65200096
3.6936722 3.7456093 -0.64590752
3.6890798 3.6942344 -0.64103276
3.6769311 3.6360872 -0.63493925
3.6712999 3.5851743 -0.63006449
3.6651752 3.534477 -0.62518972
3.651372 3.4771545 -0.61909628
3.6514556 3.4337451 -0.61544019
3.6365921 3.3769653 -0.60934669
3.6357918 3.333925 -0.6056906
3.6272378 3.2843671 -0.60081583
3.6182055 3.2350492 -0.59594107
3.6086979 3.1859756 -0.5910663
3.6061995 3.1436722 -0.58741021
3.6033125 3.101527 -0.58375412
3.5926094 3.0529585 -0.57887936
3.5891728 3.0108731 -0.57522327
3.5850873 2.9692693 -0.57156724
3.5803661 2.9281487 -0.56791115
3.5754001 2.8870454 -0.56425506
3.5701852 2.8459632 -0.56059897
3.5567966 2.798923 -0.5557242
3.5586355 2.7643421 -0.55328679
3.5523045 2.7238097 -0.5496307
3.5456057 2.6834664 -0.54597467
3.5385408 2.6433158 -0.54231858
3.5311124 2.6033609 -0.53866249
3.5233226 2.5636041 -0.5350064
3.523236 2.5298376 -0.53256905
3.5148747 2.4902823 -0.52891296
3.5143974 2.4564681 -0.52647555
3.50525 2.4174328 -0.52281946
3.5037496 2.3845 -0.52038211
3.4938393 2.3459928 -0.51672602
3.4919608 2.3130319 -0.5142886
3.4898069 2.2801876 -0.51185125
3.4790359 2.2420857 -0.50819516
3.4763012 2.2095337 -0.50575775
3.4732955 2.1771052 -0.5033204
3.4700203 2.1448021 -0.50088298
3.4664769 2.1126263 -0.4984456
3.4626667 2.0805802 -0.49600822
3.4585917 2.0486658 -0.49357083
3.4456813 2.0118804 -0.48991475
3.4496517 1.9852406 -0.48869607
3.4447899 1.9537334 -0.48625869
3.4396694 1.9223663 -0.48382127
3.3720176 0.91426122 -0.42898008
3.3680997 0.89051914 -0.42776138
3.3832018 0.8719638 -0.42898008
3.3789132 0.84856743 -0.42776138
3.3648949 0.8226068 -0.42532399
3.3797233 0.80344957 -0.4265427
3.3653636 0.77772915 -0.42410532
3.3507493 0.75251287 -0.42166793
3.365077 0.7337057 -0.42288661
3.3599098 0.71049446 -0.42166793
3.3448308 0.6855309 -0.41923052
3.349014 0.66479337 -0.41923052
3.3336301 0.63999522 -0.41679314
3.3376396 0.61874574 -0.41679314
3.3512578 0.5993641 -0.41801184
3.3353951 0.57492381 -0.41557446
3.3389416 0.55395567 -0.41557446
3.322753 0.52983975 -0.41313708
3.3358054 0.51059896 -0.41435575
3.3192644 0.48703885 -0.41191837
3.3222387 0.46631888 -0.41191837
3.325103 0.44543552 -0.41191837
3.3179905 0.4232786 -0.41069967
3.3205845 0.40242323 -0.41069967
3.3131866 0.38041934 -0.40948099
3.3155117 0.35959455 -0.40948099
3.3078313 0.3377474 -0.40826228
3.3197684 0.31790325 -0.40948099
3.3019283 0.29527026 -0.40704361
3.3037183 0.27451792 -0.40704361
3.2954817 0.25299498 -0.4058249
3.2970064 0.23228396 -0.4058249
3.2884955 0.21092845 -0.40460622
3.2897558 0.19026217 -0.40460622
3.2908864 0.16958836 -0.40460622
3.2819717 0.14845979 -0.40338752
3.2828398 0.12783572 -0.40338752
3.2835782 0.10720661 -0.40338752
3.3344471 -0.0582029 -0.40948099
3.3340156 -0.079152599 -0.40948099
3.3136106 -0.099503346 -0.40704361
3.3228388 -0.12068155 -0.40826228
3.302182 -0.14071196 -0.4058249
3.3012328 -0.1614573 -0.4058249
3.2803323 -0.18110156 -0.40338752
3.2791386 -0.20156604 -0.40338752
3.2778268 -0.22187908 -0.40338752
3.2862768 -0.24305923 -0.40460622
3.2846849 -0.26370218 -0.40460622
3.2829633 -0.28433517 -0.40460622
3.281112 -0.30495691 -0.40460622
3.2791309 -0.32556662 -0.40460622
3.2572796 -0.34407815 -0.40216884
3.2550535 -0.36453736 -0.40216884
3.242842 -0.38381556 -0.40095013
3.2009873 -0.39912936 -0.39607537
3.1787701 -0.41637665 -0.39363798
3.1859434 -0.43755287 -0.39485666
3.1831315 -0.45756203 -0.39485666
3.1703782 -0.47607917 -0.39363798
3.1673243 -0.49598974 -0.39363798
3.1739416 -0.51747787 -0.39485666
3.1706276 -0.53741002 -0.39485666
3.1671882 -0.55732095 -0.39485666
3.1538599 -0.57542795 -0.39363798
3.150182 -0.59523278 -0.39363798
3.1463799 -0.61501414 -0.39363798
3.1521826 -0.63673645 -0.39485666
3.1481197 -0.65652949 -0.39485666
3.1439323 -0.67629665 -0.39485666
3.139621 -0.69603711 -0.39485666
3.135217 -0.71561319 -0.39485666
3.1403856 -0.73729366 -0.39607537
3.1357243 -0.75687367 -0.39607537
3.1309068 -0.77656096 -0.39607537
3.1259658 -0.79621762 -0.39607537
3.1305041 -0.81835312 -0.39729404
3.1157501 -0.83529973 -0.39607537
3.1200857 -0.85721821 -0.39729404
3.0098822 -0.95016718 -0.38754451
3.013299 -0.97210735 -0.38876319
3.0354118 -1.0003411 -0.39241928
3.0196595 -1.0162275 -0.39120057
3.0132148 -1.0351804 -0.39120057
3.0066512 -1.0540925 -0.39120057
2.9999688 -1.072963 -0.39120057
3.0024924 -1.0951923 -0.39241928
2.9955518 -1.1140357 -0.39241928
2.9978237 -1.1362225 -0.39363798
2.9907262 -1.154775 -0.39363798
2.9834628 -1.173413 -0.39363798
2.985245 -1.1958263 -0.39485666
2.9868629 -1.2183081 -0.39607537
2.9791491 -1.237051 -0.39607537
2.9713726 -1.2556152 -0.39607537
2.9726543 -1.2779216 -0.39729404
2.964623 -1.2964445 -0.39729404
2.9654875 -1.31908 -0.39851275
2.9661841 -1.3417773 -0.39973143
2.9576952 -1.3603874 -0.39973143
2.9580803 -1.3831483 -0.40095013
2.9493315 -1.4017072 -0.40095013
2.9494038 -1.4245273 -0.40216884
2.9493053 -1.4474036 -0.40338752
2.9490995 -1.4702059 -0.40460622
2.9487889 -1.4929334 -0.4058249
2.9394164 -1.5113032 -0.4058249
2.9386611 -1.534336 -0.40704361
2.937732 -1.5574188 -0.40826228
2.9278884 -1.5758463 -0.40826228
2.9353497 -1.6037292 -0.41069967
2.9252152 -1.6221409 -0.41069967
2.9149654 -1.6404884 -0.41069967
2.9132195 -1.6636933 -0.41191837
2.9112966 -1.6869409 -0.41313708
2.9091966 -1.7102295 -0.41435575
2.906918 -1.7335584 -0.41557446
2.9044611 -1.7569261 -0.41679314
2.9019027 -1.7802043 -0.41801184
2.8908169 -1.7981501 -0.41801184
2.9047265 -1.832037 -0.42166793
-1.0011857 -1.308549 -0.20230311
-1.015468 -1.3100777 -0.2035218
-1.0236797 -1.3036712 -0.2035218
-1.0380291 -1.3049816 -0.20474049
-1.0524354 -1.3061625 -0.20595919
-1.0606215 -1.2995241 -0.20595919
-1.0687653 -1.2928346 -0.20595919
-1.0832397 -1.2937037 -0.20717788
-1.0977662 -1.2944422 -0.20839657
-1.105878 -1.2875189 -0.20839657
-1.1139455 -1.2805454 -0.20839657
-1.1350359 -1.2884653 -0.21083397
-1.1496041 -1.288815 -0.21205266
-1.1509702 -1.2742513 -0.21083397
-1.1656533 -1.2743179 -0.21205266
-1.1736367 -1.266969 -0.21205266
-1.1883651 -1.2668085 -0.21327135
-1.2031369 -1.2665132 -0.21449004
-1.2179523 -1.2660813 -0.21570873
-1.2328087 -1.2655138 -0.21692742
-1.2407359 -1.2577429 -0.21692742
-1.2625881 -1.2640215 -0.21936481
-1.2703955 -1.2561744 -0.21936481
-1.2853098 -1.2551579 -0.22058351
-1.3003157 -1.2539469 -0.2218022
-1.3153561 -1.2525972 -0.2230209
-1.3232008 -1.2443075 -0.2230209
-1.3382658 -1.2427233 -0.22423959
-1.3606788 -1.2477062 -0.22667697
-1.3684912 -1.2391325 -0.22667697
-1.3836493 -1.2371249 -0.22789566
-1.3988353 -1.2349762 -0.22911437
-1.4140494 -1.2326845 -0.23033306
-1.4292351 -1.2303133 -0.23155175
-1.444393 -1.2278626 -0.23277044
-1.4596281 -1.2252082 -0.23398913
-1.4749399 -1.2223459 -0.23520783
-1.4902725 -1.2193402 -0.23642652
-1.5056258 -1.2161889 -0.23764521
-1.5210505 -1.2128271 -0.23886392
-1.5365456 -1.2092509 -0.24008261
-1.552004 -1.2055941 -0.2413013
-1.5674245 -1.2018588 -0.24251999
-1.5907739 -1.203966 -0.24495737
-1.6062587 -1.1998876 -0.24617606
-1.6217031 -1.1957319 -0.24739476
-1.6371056 -1.1915019 -0.24861346
-1.6606307 -1.192845 -0.25105083
-1.6761906 -1.1881268 -0.25226954
-1.6917558 -1.1832608 -0.25348824
-1.7154953 -1.1838825 -0.25592563
-1.731104 -1.1786669 -0.2571443
-1.754954 -1.1788357 -0.25958169
-1.7706 -1.1732684 -0.26080039
-1.7862448 -1.1675513 -0.2620191
-1.8102298 -1.1670607 -0.26445648
-1.8259022 -1.1609899 -0.26567516
-1.8499792 -1.1600399 -0.26811254
-1.874115 -1.1588337 -0.27054992
-1.8897837 -1.1522844 -0.27176863
-1.9138992 -1.1507827 -0.27420601
-1.9381684 -1.1488568 -0.2766434
-1.9540181 -1.1414928 -0.2778621
-1.9784045 -1.1390117 -0.28029948
-1.9941545 -1.1314572 -0.28151819
-2.0272145 -1.1334361 -0.28517425
-2.0429893 -1.1254661 -0.28639296
-2.0674677 -1.1220759 -0.28883034
-2.0832298 -1.1137437 -0.29004905
-2.1164851 -1.1145979 -0.29370511
-2.1497817 -1.1151749 -0.2973612
-2.1655371 -1.1062543 -0.29857987
-2.1990464 -1.1060058 -0.30223596
-2.2148473 -1.0965704 -0.30345467
-2.2484605 -1.0956769 -0.30711073
-2.2732 -1.0901108 -0.30954814
-2.2979569 -1.0842779 -0.31198552
-2.3227303 -1.0781754 -0.31442291
-2.3565452 -1.0759276 -0.31807899
-2.3813684 -1.0692303 -0.32051638
-2.4152794 -1.066273 -0.32417244
-2.4401414 -1.0589786 -0.32660982
-2.4741356 -1.0553088 -0.33026591
-2.5081797 -1.051252 -0.333922
-2.5330908 -1.0430309 -0.33635938
-2.567199 -1.0382578 -0.34001547
-2.6013453 -1.0330983 -0.34367153
-2.6355278 -1.0275489 -0.34732762
-2.6697416 -1.0216117 -0.35098371
-2.7039843 -1.0152832 -0.35463977
-2.7475648 -1.0119964 -0.35951456
-2.7818747 -1.0048288 -0.36317062
-2.8255577 -1.0005827 -0.36804542
-2.8692524 -0.99595225 -0.37292019
-2.903558 -0.98774552 -0.37657627
-2.9473302 -0.98216039 -0.38145104
-2.9817507 -0.97285926 -0.38510713
-3.025625 -0.96618176 -0.3899819
-3.9549899 -0.91526306 -0.4984456
-4.0284486 -0.9056353 -0.50697649
-4.0728488 -0.88876945 -0.51185125
-4.0783525 -0.86316264 -0.51185125
-5.4882088 -0.66609186 -0.67881221
-5.6106114 -0.64520103 -0.69343656
-5.7724328 -0.62708861 -0.71293563
-5.7762594 -0.59080559 -0.71293563
-5.7897372 -0.5554502 -0.71415436
-5.802999 -0.51994568 -0.71537304
-6.28093 -0.52301043 -0.77387029
-6.165338 -0.47439674 -0.75924599
-6.4058161 -0.45243394 -0.78849465
-6.5769172 -0.42300454 -0.80921245
-6.7974391 -0.39431998 -0.83602369
-7.0178514 -0.36287686 -0.86283493
-7.2281985 -0.32854828 -0.8884275
-7.4978766 -0.294265 -0.92133224
-7.4301262 -0.24518695 -0.91280138
-7.4116764 -0.19796547 -0.91036397
-7.4127803 -0.15107107 -0.91036397
-7.4036679 -0.10370386 -0.9091453
-7.4141011 -0.056938238 -0.91036397
-7.6723742 -0.010711481 -0.94204998
-7.4760809 2.158917 -0.95545566
-7.4625592 2.2052019 -0.95545566
-7.4581561 2.2545915 -0.95667434
-2.8054056 1.467877 -0.38876319
-2.7785962 1.4761623 -0.38632581
-2.7343235 1.4747442 -0.38145104
-2.6901786 1.4728303 -0.37657627
-2.5413356 1.4542567 -0.35951456
-2.4892299 1.4452777 -0.35342109
-2.4676912 1.434646 0.4520956
-2.4245994 1.4300511 0.44583821
-2.3816633 1.4249734 0.43958083
-2.3473322 1.4245362 0.4348878
-2.2962787 1.4133714 0.42706609
-2.2622175 1.412081 0.42237306
-2.219918 1.4051378 0.41611567
-2.1861093 1.403053 0.41142264
-2.144136 1.395214 0.40516526
-2.1023498 1.3869025 0.39890787
-2.0771732 1.3891039 0.39577919
-2.0357027 1.3799591 0.38952181
-1.9944296 1.37035 0.38326442
-1.9614648 1.3659209 0.37857139
-1.9367042 1.3668283 0.37544271
-1.9039773 1.3617324 0.37074968
-1.8713912 1.3562808 0.36605665
-1.8389504 1.3504732 0.36136362
-1.8145807 1.3502091 0.35823491
-1.7824014 1.3437459 0.35354188
-1.7503753 1.3369334 0.34884885
-1.7263181 1.3358155 0.34572017
-1.7023448 1.3344487 0.34259146
-1.6784574 1.3328338 0.33946279
-1.6546572 1.3309728 0.33633408
-1.6232911 1.3226261 0.33164105
-1.5997131 1.3202263 0.32851237
-1.5762306 1.317582 0.32538369
-1.5453064 1.3083141 0.32069066
-1.5220603 1.3051387 0.31756195
-1.4988511 1.3017976 0.31443328
-1.4756968 1.2982713 0.31130457
-1.4600857 1.3010037 0.30974025
-1.4372174 1.2969177 0.30661154
-1.4072306 1.2858645 0.30191851
-1.3919864 1.2878515 0.30035415
-1.3695006 1.2830141 0.29722548
-1.3542473 1.2847953 0.29566112
-1.3319026 1.2795937 0.29253244
-1.3167576 1.2810493 0.29096809
-1.3016462 1.282366 0.28940377
-1.279579 1.2765672 0.28627506
-1.2645843 1.2775626 0.28471074
-1.2427245 1.2713565 0.28158203
-1.2278521 1.2720336 0.28001767
-1.2062063 1.2654244 0.276889
-1.1914617 1.2657865 0.27532464
-1.1700367 1.2587786 0.27219597
-1.1554253 1.2588291 0.27063161
-1.1342276 1.2514272 0.26750293
-1.1263421 1.2585292 0.26750293
-1.1053318 1.2507789 0.26437426
-1.0909569 1.2502575 0.2628099
-1.0766333 1.2496046 0.26124555
-1.0623605 1.2488219 0.2596812
-1.0417886 1.2403457 0.25655252
-1.0276697 1.2392644 0.25498816
-1.0198632 1.2456967 0.25498816
4.0460696 4.4774814 0.95581454
3.7409253 4.0874686 0.87759733
3.7601736 4.0563111 0.87603301
3.7449825 3.9894397 0.86664695
3.7356067 3.9303641 0.85882521
3.7189851 3.8642597 0.84943914
3.7087233 3.8054502 0.84161741
3.704809 3.753953 0.83536005
3.6934133 3.6956704 0.82753831
3.6884582 3.6446226 0.82128096
3.6830087 3.5937841 0.81502354
3.6699548 3.5363057 0.8072018
3.6634805 3.4859431 0.80094445
3.6565194 3.4358025 0.79468709
3.6490738 3.3858883 0.78842968
3.6411467 3.3362041 0.78217232
3.6400645 3.2933807 0.77747929
3.6312232 3.2441232 0.77122188
3.6219077 3.1951077 0.76496452
3.6270163 3.1593132 0.76183581
3.6093535 3.10426 0.75401413
3.5988224 3.0557714 0.74775672
3.5955074 3.0137489 0.74306369
3.5915122 2.9722464 0.73837066
3.586915 2.9311869 0.73367763
3.5744026 2.8839219 0.72742027
3.5770006 2.8490996 0.72429156
3.5715387 2.8082538 0.71959853
3.5579033 2.7615337 0.71334118
3.5516632 2.7211039 0.70864809
3.5529344 2.6868196 0.70551944
3.5460005 2.6467192 0.70082641
3.5387037 2.6068132 0.69613338
3.5310464 2.5671039 0.69144034
3.5310559 2.5333517 0.68831164
3.5228426 2.4938214 0.68361861
3.5224626 2.4600184 0.6804899
3.5134244 2.4210634 0.67579687
3.5120225 2.3881404 0.67266816
3.5022619 2.3496535 0.66797513
3.500483 2.3166997 0.66484648
3.4984291 2.2838616 0.66171777
3.487797 2.2457938 0.65702474
3.4851635 2.2132454 0.65389603
3.482259 2.1808195 0.65076739
3.4706819 2.143328 0.64607435
3.4672081 2.1112053 0.64294565
3.4634686 2.0792112 0.63981694
3.4594643 2.047348 0.63668823
3.4551971 2.0156176 0.63355958
3.4506683 1.9840223 0.63043088
3.454473 1.9574329 0.62886655
3.4494565 1.9260589 0.62573785
3.4441826 1.8948257 0.62260914
3.4137928 1.1586603 0.57098579
3.4116328 1.1340729 0.56942147
3.4092989 1.1095581 0.56785709
3.4067922 1.0851175 0.56629276
3.4135427 1.0636907 0.56629276
3.4107108 1.0393428 0.56472844
3.3982422 1.0122529 0.56159973
3.3950517 0.98812115 0.56003535
3.4011934 0.96677005 0.56003535
3.3786485 0.93745852 0.55534232
3.3844721 0.91621149 0.55534232
3.3806121 0.8924073 0.55377799
3.3956752 0.8737765 0.55534232
3.3914435 0.85031831 0.55377799
3.3871329 0.82661378 0.55221367
3.38272 0.8027392 0.55064929
3.3780644 0.77928644 0.54908496
3.3635526 0.75402021 0.54595625
3.3681958 0.73300028 0.54595625
3.3534067 0.7077437 0.54282761
3.3577538 0.6868248 0.54282761
3.3619447 0.66600716 0.54282761
3.3466692 0.64111704 0.5396989
3.3506854 0.61978447 0.5396989
3.3448131 0.59685612 0.53813457
3.3484972 0.57582837 0.53813457
3.3520491 0.55477786 0.53813457
3.3359601 0.53060257 0.53500587
3.3392031 0.50979578 0.53500587
3.3325248 0.4876664 0.53344154
3.3355052 0.46684548 0.53344154
3.3285828 0.4445712 0.53187716
3.3313103 0.42364845 0.53187716
3.3241007 0.40152493 0.53031284
3.316745 0.37950838 0.52874851
3.3190641 0.35866126 0.52874851
3.3114259 0.33680058 0.52718413
3.3134768 0.31598774 0.52718413
3.3055589 0.29428655 0.5256198
3.2974994 0.27269739 0.52405542
3.2991476 0.2519733 0.52405542
3.290813 0.23054901 0.5224911
3.2921965 0.20986778 0.5224911
3.2934504 0.18917824 0.5224911
3.2847099 0.16797683 0.52092677
3.2857006 0.1473356 0.52092677
3.2865613 0.12668812 0.52092677
3.2872925 0.10603566 0.52092677
3.2780201 0.0851226 0.51936239
3.2492774 -0.037572265 0.51466936
3.2489772 -0.057987235 0.51466936
3.2485487 -0.078399919 0.51466936
3.2381196 -0.09850917 0.51310503
3.2473071 -0.11921519 0.51466936
3.2366261 -0.13919181 0.51310503
3.2356877 -0.15952528 0.51310503
3.2346215 -0.17985202 0.51310503
3.2235794 -0.19940385 0.51154071
3.2222819 -0.21937312 0.51154071
3.2208493 -0.23949181 0.51154071
3.2094359 -0.25892949 0.50997633
3.2077458 -0.27908975 0.50997633
3.2059288 -0.29923901 0.50997633
3.1941574 -0.31839675 0.508412
3.2019155 -0.33950126 0.50997633
3.1997192 -0.3596127 0.50997633
3.1973965 -0.37970993 0.50997633
3.1851668 -0.39840931 0.508412
3.1826372 -0.41813678 0.508412
3.1799638 -0.43800399 0.508412
3.1771491 -0.45797554 0.508412
3.1742086 -0.47792903 0.508412
3.1711433 -0.49786362 0.508412
3.1679525 -0.51777858 0.508412
3.1646366 -0.53767312 0.508412
3.1611958 -0.55754638 0.508412
3.1576304 -0.57739723 0.508412
3.1539402 -0.59722573 0.508412
3.1598182 -0.61892921 0.50997633
3.1558669 -0.63877058 0.50997633
3.1517911 -0.6585868 0.50997633
3.1379359 -0.67629606 0.508412
3.1432664 -0.69814038 0.50997633
3.1388531 -0.717722 0.50997633
3.1247313 -0.73489517 0.508412
3.1392815 -0.75903702 0.51154071
3.1344504 -0.7787466 0.51154071
3.1294956 -0.7984255 0.51154071
3.1244173 -0.8180728 0.51154071
3.1192567 -0.83753461 0.51154071
3.1140075 -0.85684526 0.51154071
3.1085958 -0.8762753 0.51154071
3.0014057 -0.99044096 0.50059026
3.0325625 -1.0218956 0.50684768
3.0260818 -1.0409296 0.50684768
3.0101624 -1.056651 0.5052833
3.0127625 -1.0788733 0.50684768
3.0059242 -1.0977817 0.50684768
3.0082235 -1.1200931 0.508412
3.0011823 -1.1388247 0.508412
2.9940686 -1.157398 0.508412
2.9959724 -1.1796919 0.50997633
2.9885011 -1.1984928 0.50997633
2.9900558 -1.2209802 0.51154071
2.9823251 -1.239743 0.51154071
2.9836349 -1.2621589 0.51310503
