# .PCD v0.7 - Point Cloud Data file format
VERSION 0.7
FIELDS x y z
SIZE 4 4 4
TYPE F F F
COUNT 1 1 1
WIDTH 1467
HEIGHT 1
VIEWPOINT 0 0 0 1 0 0 0
POINTS 1467
DATA ascii
3.1075153 1.2438614 -0.29284328
3.0967262 1.2170243 -0.29110017
3.0857229 1.1903722 -0.28935707
3.074508 1.1639067 -0.28761396
3.0630829 1.1376293 -0.28587082
3.0420291 1.1082978 -0.28325617
3.0300756 1.0827246 -0.28151304
3.0179803 1.0571774 -0.27976993
3.0057185 1.0317256 -0.27802682
2.9932568 1.0064698 -0.27628371
2.980597 0.98141176 -0.27454057
2.9677413 0.95655268 -0.27279747
2.9546916 0.93189448 -0.27105436
2.9414499 0.90743792 -0.26931125
2.937556 0.88606161 -0.26843968
3.0973446 0.66486132 -0.27715525
3.1599791 0.65756464 -0.2823846
3.1835444 0.64180678 -0.28412771
3.1972373 0.62397808 -0.28499928
2.4462318 -0.26552975 -0.21527468
2.4544275 -0.28189811 -0.21614625
2.4328544 -0.2947039 -0.21440312
2.4408469 -0.31116423 -0.21527468
2.4289699 -0.32517245 -0.21440312
2.4170318 -0.33891216 -0.21353157
2.4050288 -0.35243669 -0.21266001
2.4126265 -0.36896819 -0.21353157
2.3905849 -0.38098413 -0.21178845
2.388144 -0.39599702 -0.21178845
2.3856089 -0.41099429 -0.21178845
2.3829794 -0.42597532 -0.21178845
2.3704605 -0.43912467 -0.21091689
2.3578711 -0.45213389 -0.21004534
2.3549836 -0.46693984 -0.21004534
2.3520033 -0.48172733 -0.21004534
2.3489301 -0.49649584 -0.21004534
2.3360307 -0.50912338 -0.20917378
2.3327858 -0.52379096 -0.20917378
2.329478 -0.538311 -0.20917378
2.326098 -0.55273366 -0.20917378
2.3129203 -0.56489831 -0.20830221
2.3093252 -0.57941961 -0.20830221
2.2960243 -0.59130794 -0.20743066
2.2923167 -0.60552233 -0.20743066
2.288487 -0.61983842 -0.20743066
2.2845473 -0.6342051 -0.20743066
2.2805173 -0.6485467 -0.20743066
2.2763975 -0.66286278 -0.20743066
2.2721877 -0.67715263 -0.20743066
2.2583594 -0.68851036 -0.20655911
2.2634993 -0.70565134 -0.20743066
2.2400374 -0.71381009 -0.20568755
2.235548 -0.72774875 -0.20568755
2.2309959 -0.74158579 -0.20568755
2.2448254 -0.79339117 -0.20830221
2.3522544 -0.84802306 -0.21876091
2.4029803 -0.88341022 -0.22399026
2.270081 -0.94936258 -0.21527468
2.2365723 -0.95190334 -0.21266001
2.2671134 -0.98177236 -0.21614625
2.2427208 -0.98784322 -0.21440312
2.218374 -0.99357563 -0.21266001
2.2030544 -1.0032932 -0.21178845
2.196707 -1.0171155 -0.21178845
2.1812594 -1.0266553 -0.21091689
2.1747658 -1.0403399 -0.21091689
2.1592269 -1.0496285 -0.21004534
2.1615212 -1.0675861 -0.21091689
2.1548297 -1.0810288 -0.21091689
2.139214 -1.0898368 -0.21004534
2.1500564 -1.1123415 -0.21178845
2.1430249 -1.1258287 -0.21178845
2.1271808 -1.1344672 -0.21091689
2.120111 -1.1476251 -0.21091689
2.1041656 -1.1560572 -0.21004534
2.1316631 -1.1886619 -0.21353157
2.1154823 -1.1971258 -0.21266001
2.0992799 -1.2054335 -0.21178845
2.0486262 -1.1935257 -0.20743066
2.0067825 -1.1860988 -0.20394443
1.9992906 -1.1986843 -0.20394443
1.9917196 -1.2112224 -0.20394443
1.9755911 -1.2184833 -0.20307288
1.9678961 -1.2308722 -0.20307288
1.9686041 -1.248441 -0.20394443
1.9608312 -1.260614 -0.20394443
1.9529135 -1.2728454 -0.20394443
1.9448776 -1.2850904 -0.20394443
1.9367648 -1.2972851 -0.20394443
1.9285755 -1.3094285 -0.20394443
1.9285166 -1.3271677 -0.204816
1.9201398 -1.3392587 -0.204816
1.9198219 -1.357047 -0.20568755
1.9031589 -1.3632815 -0.204816
1.9026928 -1.3809608 -0.20568755
1.8941001 -1.392723 -0.20568755
1.9013357 -1.4164375 -0.20743066
1.8844472 -1.4223545 -0.20655911
1.8834649 -1.4401155 -0.20743066
1.8745061 -1.4517573 -0.20743066
1.8653952 -1.4634457 -0.20743066
1.8639624 -1.4813354 -0.20830221
1.8546181 -1.4930177 -0.20830221
1.8452007 -1.5046411 -0.20830221
1.8357103 -1.5162051 -0.20830221
1.8261476 -1.5277091 -0.20830221
1.8241975 -1.5454934 -0.20917378
1.8145869 -1.556766 -0.20917378
1.8123412 -1.5746112 -0.21004534
1.794933 -1.5793866 -0.20917378
1.7924114 -1.5972608 -0.21004534
1.7897358 -1.6151656 -0.21091689
1.7796409 -1.6262817 -0.21091689
1.7695307 -1.6372769 -0.21091689
1.7665317 -1.6551168 -0.21178845
1.7560974 -1.6661835 -0.21178845
1.6397237 -1.6986877 -0.20655911
1.6360415 -1.7160246 -0.20743066
1.6047965 -1.7044584 -0.204816
1.6144052 -1.7363952 -0.20743066
1.6237715 -1.7684307 -0.21004534
1.6127836 -1.7784573 -0.21004534
1.6016359 -1.7885031 -0.21004534
1.5903668 -1.7985312 -0.21004534
1.579035 -1.8084881 -0.21004534
1.5741456 -1.8259189 -0.21091689
1.5690992 -1.8433592 -0.21178845
1.5574861 -1.8531818 -0.21178845
1.5459132 -1.8628467 -0.21178845
1.5406559 -1.8800944 -0.21266001
1.5351398 -1.8974324 -0.21353157
1.5294048 -1.9148244 -0.21440312
1.5235115 -1.9322188 -0.21527468
1.511341 -1.9417531 -0.21527468
1.4991108 -1.9512107 -0.21527468
1.4988605 -1.9764667 -0.2170178
1.4865209 -1.985764 -0.2170178
1.4860299 -2.0109596 -0.21876091
1.4734315 -2.0202088 -0.21876091
1.4665287 -2.0375121 -0.21963246
1.4594663 -2.0548079 -0.22050403
1.4522444 -2.0720954 -0.22137558
1.4391965 -2.0811791 -0.22137558
1.4317062 -2.0984099 -0.22224714
1.4240561 -2.1156282 -0.22311869
1.4162458 -2.132833 -0.22399026
1.4083927 -2.1499457 -0.22486182
1.4004521 -2.1669974 -0.22573337
1.3922349 -2.184109 -0.22660492
1.3837863 -2.2012475 -0.22747648
1.3699281 -2.2098985 -0.22747648
1.3612114 -2.2269621 -0.22834805
1.3524567 -2.2439294 -0.2292196
1.3436172 -2.2608297 -0.23009115
1.3395309 -2.2863748 -0.23183428
1.3301206 -2.3033731 -0.23270583
1.3205494 -2.3203428 -0.23357739
1.3108171 -2.3372831 -0.23444894
1.3009239 -2.3541923 -0.23532051
1.29087 -2.371069 -0.23619206
1.2854941 -2.396621 -0.23793517
1.2752746 -2.4133475 -0.23880672
1.2647645 -2.4301081 -0.23967829
1.2540144 -2.4468722 -0.24054985
1.2431033 -2.4635971 -0.2414214
1.2364631 -2.4892027 -0.24316452
1.225311 -2.505805 -0.24403608
1.2227238 -2.5402775 -0.24665074
1.194029 -2.5208611 -0.24403608
1.169751 -2.5102544 -0.24229296
1.1416388 -2.4903243 -0.23967829
1.0146137 -2.9062228 -0.26931125
-1.0079256 -1.5429155 -0.16123812
-1.0231006 -1.5448577 -0.16210967
-1.032787 -1.538399 -0.16210967
-1.0424327 -1.5318794 -0.16210967
-1.046381 -1.5170989 -0.16123812
-1.0616 -1.5186592 -0.16210967
-1.071121 -1.5119591 -0.16210967
-1.0864094 -1.5132917 -0.16298124
-1.0958962 -1.5064358 -0.16298124
-1.0993475 -1.4915615 -0.16210967
-1.1085677 -1.4847215 -0.16210967
-1.1238364 -1.4857082 -0.16298124
-1.1331491 -1.4786177 -0.16298124
-1.1424172 -1.4714687 -0.16298124
-1.1454816 -1.4564314 -0.16210967
-1.1608171 -1.4569972 -0.16298124
-1.1762052 -1.457427 -0.1638528
-1.1852601 -1.4500728 -0.1638528
-1.1942216 -1.4427012 -0.1638528
-1.1968161 -1.4275743 -0.16298124
-1.2122101 -1.4276201 -0.1638528
-1.2276516 -1.4275284 -0.16472435
-1.2300539 -1.4122746 -0.1638528
-1.2454931 -1.411989 -0.16472435
-1.2609769 -1.4115648 -0.1655959
-1.4428426 -1.2096161 -0.16472435
-1.4657626 -1.2132306 -0.16646747
-1.4502149 -1.185086 -0.1638528
-1.473139 -1.1884608 -0.1655959
-1.4961623 -1.1915939 -0.16733903
-1.5114511 -1.1883268 -0.16821058
-1.5267572 -1.1849149 -0.16908213
-1.5341722 -1.1752987 -0.16908213
-1.5494725 -1.1716444 -0.16995369
-1.5568035 -1.1618857 -0.16995369
-1.5640731 -1.1520813 -0.16995369
-1.5793388 -1.1480888 -0.17082526
-1.586459 -1.1382295 -0.17082526
-1.5934808 -1.1283783 -0.17082526
-1.6086687 -1.124102 -0.17169681
-1.6239014 -1.119627 -0.17256837
-1.6309041 -1.1094017 -0.17256837
-1.6461143 -1.1046838 -0.17343992
-1.6613294 -1.0998182 -0.17431149
-1.676548 -1.0948049 -0.17518304
-1.6833937 -1.0842493 -0.17518304
-1.6985818 -1.0789924 -0.1760546
-1.7053275 -1.0682991 -0.1760546
-1.7204814 -1.0627986 -0.17692615
-1.7355754 -1.0572444 -0.1777977
-1.7420926 -1.0464709 -0.1777977
-1.7571713 -1.0406375 -0.17866927
-1.7722784 -1.0345987 -0.17954083
-1.7873787 -1.0284109 -0.18041238
-1.8024707 -1.0220741 -0.18128394
-1.8175534 -1.0155879 -0.1821555
-1.8238987 -1.004148 -0.1821555
-1.8389287 -0.99741793 -0.18302706
-1.8539457 -0.99053842 -0.18389861
-1.8689487 -0.98350948 -0.18477017
-1.883936 -0.97633088 -0.18564174
-1.8988538 -0.96910626 -0.18651329
-1.9137229 -0.96179616 -0.18738484
-1.9286258 -0.95423365 -0.1882564
-1.9435397 -0.94645852 -0.18912795
-1.9584318 -0.93853343 -0.18999952
-1.9642901 -0.92620981 -0.18999952
-1.9881449 -0.92223352 -0.19174263
-1.9939002 -0.90972346 -0.19174263
-2.0177548 -0.9053337 -0.19348575
-2.0325177 -0.89665884 -0.19435731
-2.047251 -0.88783407 -0.19522886
-2.0619531 -0.8788594 -0.19610041
-2.0858116 -0.87358326 -0.19784354
-2.0912592 -0.86046052 -0.19784354
-2.1150968 -0.85476905 -0.19958664
-2.1296854 -0.84513724 -0.2004582
-2.1442358 -0.83535564 -0.20132977
-2.1587472 -0.82542449 -0.20220132
-2.1825447 -0.81884366 -0.20394443
-2.1969955 -0.80855489 -0.204816
-2.2113593 -0.79823744 -0.20568755
-2.2350445 -0.79116946 -0.20743066
-2.2493577 -0.78044897 -0.20830221
-2.2730806 -0.77271307 -0.21004534
-2.2778909 -0.7584157 -0.21004534
-2.301554 -0.75026339 -0.21178845
-2.3252037 -0.74184346 -0.21353157
-2.3488379 -0.73315567 -0.21527468
-2.362926 -0.72129154 -0.21614625
-2.3769574 -0.70927918 -0.2170178
-2.4004943 -0.6999073 -0.21876091
-2.4240067 -0.6902675 -0.22050403
-2.4378569 -0.67782462 -0.22137558
-2.4612384 -0.6679253 -0.22311869
-2.4846256 -0.65762639 -0.22486182
-2.5080009 -0.64697891 -0.22660492
-2.521678 -0.6336357 -0.22747648
-2.5449629 -0.62251306 -0.2292196
-2.5682065 -0.61112326 -0.23096271
-2.5914066 -0.59946585 -0.23270583
-2.6145613 -0.58753943 -0.23444894
-2.6376674 -0.57534695 -0.23619206
-2.660723 -0.5628857 -0.23793517
-2.6837249 -0.55015874 -0.23967829
-2.7164137 -0.53925014 -0.24229296
-2.739269 -0.52616704 -0.24403608
-2.7620935 -0.51267117 -0.24577919
-2.7848718 -0.49881998 -0.24752231
-2.8075848 -0.48470113 -0.24926542
-2.830229 -0.4703179 -0.25100854
-2.8626399 -0.45723891 -0.25362322
-2.8851502 -0.4422631 -0.25536633
-2.9174409 -0.42846835 -0.257981
-2.9496706 -0.41428664 -0.26059568
-2.9719625 -0.39839315 -0.26233879
-3.0040522 -0.3834973 -0.26495346
-3.0360711 -0.36821216 -0.26756811
-3.0680149 -0.3525413 -0.27018279
-3.0998809 -0.33648178 -0.27279747
-3.1316648 -0.32003725 -0.27541214
-3.1534305 -0.30242565 -0.27715525
-3.1949325 -0.28643924 -0.2806415
-3.2264428 -0.26894662 -0.28325617
-3.2578666 -0.25096536 -0.28587082
-3.2991276 -0.2333007 -0.28935707
-3.3303523 -0.21448883 -0.29197174
-3.36147 -0.19529195 -0.29458642
-3.4024251 -0.17622952 -0.29807264
-3.4432631 -0.15684716 -0.30155885
-3.4740317 -0.13668439 -0.30417353
-3.5146441 -0.11628531 -0.30765978
-3.5551388 -0.095268331 -0.31114599
-3.6054666 -0.073949419 -0.31550378
-3.6457038 -0.051862016 -0.31899002
-3.6858041 -0.029269932 -0.32247624
-3.7357249 -0.0061944518 -0.32683402
-5.0653191 0.59817636 -0.44623739
-5.061461 0.62998939 -0.44623739
-5.0672803 0.66307282 -0.44710895
-5.063014 0.69489688 -0.44710895
-5.1078916 0.73349881 -0.45146674
-5.2313228 0.78433573 -0.46279699
-5.3444271 0.835482 -0.47325566
-5.7815366 0.94106412 -0.51247573
-5.6379972 0.95410258 -0.50027394
-5.788878 1.0170888 -0.51421887
-6.677752 1.3046757 -0.59527373
-6.7280126 1.358435 -0.60050309
-6.5828862 1.3718647 -0.58830124
-6.6034784 1.4189047 -0.59091592
-6.594481 1.4601513 -0.59091592
-6.7211537 1.5325605 -0.6031177
-6.8859649 1.6157241 -0.61880577
-7.0596747 1.7033505 -0.63536537
-7.2615547 1.8004178 -0.65453964
-7.4431777 1.895167 -0.67197078
-7.6624417 2.0023465 -0.69288814
-7.8806448 2.1123495 -0.7138055
-8.116848 2.2308955 -0.73646599
-8.0737057 2.2744527 -0.73385131
-8.040164 2.3194356 -0.73210824
-8.0256386 2.3692086 -0.73210824
-8.0011368 2.4164455 -0.7312367
-7.9953146 2.4696081 -0.73210824
-10.6967 3.3771472 -0.98137367
-10.713493 3.4555919 -0.98485988
-10.672762 3.5162537 -0.98311675
-9.4358215 5.630455 -0.96132785
-8.5991468 5.2047505 -0.87940145
-7.946516 4.8782158 -0.81577772
-7.3406343 4.5700302 -0.75651181
-7.3117766 4.6160603 -0.75651181
-7.2322869 4.6296868 -0.75128251
-1.9277022 1.8471074 -0.23357739
-1.880371 1.8244351 -0.2292196
-1.8333412 1.8013043 -0.22486182
-1.7866769 1.7776568 -0.22050403
-1.7474021 1.760565 -0.2170178
-1.7084128 1.743052 -0.21353157
-1.6627862 1.7179605 -0.20917378
-1.6244261 1.6995683 -0.20568755
-1.5863647 1.6807622 -0.20220132
-1.5553961 1.6688343 -0.19958664
-1.5178955 1.6492537 -0.19610041
-1.4807025 1.6292697 -0.19261418
-1.4438225 1.6088839 -0.18912795
-1.4204711 1.6030124 -0.18738484
-1.384132 1.5819166 -0.18389861
-1.3611395 1.5755057 -0.1821555
-1.3188883 1.5461311 -0.1777977
-1.2963125 1.5391487 -0.1760546
-1.2675084 1.5242838 -0.17343992
-1.2389431 1.5091186 -0.17082526
-1.2168918 1.5013946 -0.16908213
-1.1949861 1.4934543 -0.16733903
-1.1670545 1.4774808 -0.16472435
-1.1393709 1.4612167 -0.16210967
-1.1240916 1.4604521 -0.16123812
-1.0968134 1.4436893 -0.15862344
-1.0817448 1.4425819 -0.15775189
-1.0548803 1.4253281 -0.15513723
-1.0341525 1.4158386 -0.1533941
-1.0135853 1.406146 -0.151651
2.9351645 6.2815952 -0.60660398
3.3720396 7.0998998 -0.68765879
6.9926138 8.9485283 -0.99357545
6.8384762 8.6388464 -0.96394253
6.6807313 8.3314638 -0.93430954
6.5382447 8.049614 -0.90729129
6.4051461 7.7852778 -0.88201612
6.2753682 7.5305943 -0.85761249
6.1426501 7.2778578 -0.83320886
6.0199566 7.0422392 -0.81054837
5.9141135 6.8310518 -0.79050255
5.8058596 6.6214795 -0.77045673
5.7018266 6.4209929 -0.75128251
5.6018305 6.2297945 -0.73297977
5.5196013 6.0623751 -0.71729177
5.4294081 5.8883018 -0.70073217
5.4464102 5.8317533 -0.69811749
5.5036702 5.8189511 -0.70073217
5.5539041 5.7986445 -0.70247525
5.6110358 5.7850866 -0.70508993
5.6472735 5.7497172 -0.70508993
5.6903133 5.7211843 -0.70596153
5.7261481 5.6853185 -0.70596153
5.7827873 5.6704669 -0.7085762
5.8249655 5.641459 -0.70944774
5.8745117 5.6187115 -0.71119082
5.9241838 5.5953708 -0.71293396
5.9665084 5.5648322 -0.7138055
6.0233383 5.5474801 -0.71642017
6.0654445 5.5162282 -0.71729177
4.4841924 4.026969 -0.52729225
4.457231 3.9524488 -0.52119136
4.4145222 3.865303 -0.51334733
4.487011 3.9799049 1.1658429
4.4454679 3.8934264 1.1486701
4.4032469 3.8073652 1.1314974
4.3602166 3.72188 1.1143246
4.3160605 3.6373587 1.0971518
4.2784634 3.5599399 1.081887
4.2398567 3.4833937 1.0666223
4.2003727 3.4075823 1.0513575
4.1603141 3.3321462 1.0360929
4.1349673 3.2694108 1.0246443
4.1012607 3.2010872 1.0112877
4.0513082 3.1213357 0.99411488
4.0395861 3.0720508 0.9864825
4.0038538 3.0053587 0.97312587
3.9674447 2.939239 0.95976925
3.7422602 2.4916215 0.87390518
3.7083995 2.4360502 0.86245662
3.664211 2.3417842 0.84528381
3.6456349 2.2977786 0.83765149
3.6183145 2.2489181 0.82811105
3.5905256 2.2004924 0.81857055
3.5706747 2.1575825 0.81093824
3.550427 2.11501 0.80330586
3.5382519 2.0777483 0.79758161
3.5087578 2.0308888 0.78804111
3.4873428 1.989347 0.7804088
3.4655459 1.9481552 0.77277642
3.4433701 1.9073166 0.76514405
3.4208193 1.8668345 0.75751168
3.4065433 1.8313597 0.75178742
3.3919575 1.7961386 0.74606317
3.3683608 1.7566346 0.7384308
3.3531351 1.721983 0.73270655
3.3376081 1.6875926 0.72698224
3.3217824 1.6534659 0.72125798
3.2968454 1.6152861 0.71362561
3.28915 1.58621 0.70980942
3.2634425 1.548964 0.70217711
3.2552805 1.520211 0.69836092
3.2380075 1.4874346 0.69263667
3.2204523 1.4549359 0.68691236
3.2026176 1.422717 0.68118811
3.1935019 1.3947089 0.67737192
3.1841614 1.3668717 0.67355573
3.1565089 1.3315771 0.66592336
3.1466768 1.3042009 0.66210723
3.1275342 1.2732997 0.65638292
3.1172431 1.2463353 0.65256673
3.1067376 1.2195507 0.64875054
3.0868595 1.1894183 0.64302629
3.0759082 1.163056 0.6392101
3.0647483 1.1368785 0.63539392
3.0533149 1.1110704 0.63157779
3.0416501 1.0855324 0.6277616
3.0205846 1.0567583 0.62203729
3.0085933 1.031392 0.61822116
2.996403 1.0062183 0.61440498
2.9840159 0.98123884 0.61058879
2.9714341 0.95645499 0.6067726
2.9586594 0.93186826 0.60295641
2.9456935 0.90748042 0.59914023
2.9419382 0.88612318 0.59723216
2.9286141 0.86207712 0.59341598
3.0755796 0.63874149 0.61058879
3.1372356 0.63120681 0.62203729
3.1603568 0.61551011 0.62585348
3.183439 0.59935981 0.62966967
2.4476833 -0.2820839 0.47893056
2.4361441 -0.29605961 0.47702247
2.4439814 -0.31253916 0.47893056
2.4322405 -0.32658258 0.47702247
2.4107196 -0.33897895 0.47320631
2.4085732 -0.35390881 0.47320631
2.3966091 -0.36748177 0.47129822
2.3942528 -0.38253278 0.47129822
2.3821187 -0.39595911 0.46939012
2.3795838 -0.4109185 0.46939012
2.3672924 -0.42413056 0.46748203
2.3645809 -0.43899626 0.46748203
2.3521361 -0.45199186 0.46557394
2.368506 -0.4705877 0.46939012
2.3558865 -0.48348668 0.46748203
2.343199 -0.49624574 0.46557394
2.3304443 -0.50886452 0.46366584
2.3272011 -0.52349705 0.46366584
2.3238981 -0.53796959 0.46366584
2.310971 -0.55008465 0.46175775
2.3074844 -0.56453097 0.46175775
2.3038919 -0.57901812 0.46175775
2.2907388 -0.59089273 0.45984969
2.277544 -0.60256368 0.45794159
2.2832038 -0.61936986 0.45984969
2.2792671 -0.63370335 0.45984969
2.2657995 -0.64532298 0.45794159
2.2617002 -0.65954661 0.45794159
2.2669177 -0.67655146 0.45984969
2.2438452 -0.68504888 0.4560335
2.2394967 -0.69913352 0.4560335
2.2444115 -0.71617484 0.45794159
2.2212453 -0.72404408 0.4541254
2.2260306 -0.74089259 0.4560335
2.1107538 -0.97832429 0.45221731
2.1045651 -0.99156713 0.45221731
2.0894399 -1.0005313 0.45030922
2.091939 -1.0179347 0.45221731
2.0767021 -1.0267081 0.45030922
2.0702724 -1.0396121 0.45030922
2.0637915 -1.0524191 0.45030922
2.0571673 -1.0653093 0.45030922
2.0591216 -1.0827825 0.45221731
2.0523434 -1.0955759 0.45221731
2.045516 -1.1082708 0.45221731
2.0299413 -1.1163154 0.45030922
2.0228872 -1.1290478 0.45030922
2.0157533 -1.1417357 0.45030922
2.0085399 -1.1543784 0.45030922
2.009727 -1.1719203 0.45221731
2.0023239 -1.1845247 0.45221731
1.9948418 -1.1970822 0.45221731
1.987281 -1.2095925 0.45221731
1.9796417 -1.222055 0.45221731
1.9719242 -1.2344693 0.45221731
1.9642037 -1.2467171 0.45221731
1.9564415 -1.258863 0.45221731
1.9485281 -1.2710775 0.45221731
1.9568787 -1.2941248 0.4560335
1.9405555 -1.3009284 0.4541254
1.9323432 -1.3130955 0.4541254
1.9240547 -1.3252108 0.4541254
1.9237393 -1.3428925 0.4560335
1.9152638 -1.3549532 0.4560335
1.9067125 -1.3669603 0.4560335
1.8981688 -1.3787998 0.4560335
1.8895895 -1.390534 0.4560335
1.8887233 -1.4081953 0.45794159
1.8720055 -1.4141178 0.4560335
1.8631688 -1.4257404 0.4560335
1.8698165 -1.4492841 0.45984969
1.8529927 -1.454891 0.45794159
1.8514973 -1.4726154 0.45984969
1.8422081 -1.4842196 0.45984969
1.8328462 -1.4957651 0.45984969
1.8309779 -1.5135058 0.46175775
1.806379 -1.512377 0.45794159
1.8119066 -1.5362859 0.46175775
1.809801 -1.5538771 0.46366584
1.800045 -1.5651684 0.46366584
1.7828083 -1.56996 0.46175775
1.7802348 -1.5876642 0.46366584
1.7775091 -1.6053979 0.46557394
1.7602401 -1.609804 0.46366584
1.7574344 -1.6273491 0.46557394
1.7543805 -1.6450257 0.46748203
1.7368915 -1.6492571 0.46557394
1.6168505 -1.7403948 0.46175775
1.599352 -1.7431901 0.45984969
1.608295 -1.7748883 0.46557394
1.603706 -1.7922298 0.46748203
1.5924134 -1.8022708 0.46748203
1.581058 -1.8122406 0.46748203
1.5696403 -1.8221388 0.46748203
1.5645204 -1.8394426 0.46939012
1.552932 -1.8492364 0.46939012
1.5476595 -1.8664212 0.47129822
1.5360653 -1.8759748 0.47129822
1.530471 -1.8931811 0.47320631
1.5246687 -1.9104323 0.47511441
1.5187099 -1.927685 0.47702247
1.5125943 -1.9449381 0.47893056
1.500344 -1.9544035 0.47893056
1.4939631 -1.9716157 0.48083866
1.4816643 -1.9808748 0.48083866
1.4810244 -2.0058107 0.48465484
1.4684476 -2.0150363 0.48465484
1.4614892 -2.0321925 0.48656294
1.4543729 -2.0493402 0.48847103
1.4470986 -2.0664787 0.4903791
1.434086 -2.0755303 0.4903791
1.4265461 -2.0926108 0.49228719
1.4243261 -2.1178236 0.49610338
1.4109913 -2.1267309 0.49610338
1.4031048 -2.1436841 0.49801147
1.3951209 -2.1605828 0.49991956
1.3868507 -2.1775477 0.50182766
1.3783625 -2.1945312 0.50373572
1.3697156 -2.2114935 0.50564384
1.3609096 -2.2284336 0.50755191
1.352079 -2.2452691 0.50946003
1.343153 -2.262044 0.5113681
1.3339349 -2.2788737 0.51327616
1.3244956 -2.2957127 0.51518428
1.3148972 -2.3125226 0.51709235
1.3051395 -2.3293023 0.51900047
1.2999673 -2.3546438 0.52281666
1.285147 -2.3627653 0.52281666
1.2796912 -2.3880219 0.52663285
1.2694538 -2.4045856 0.52854091
1.2589149 -2.4211891 0.53044897
1.2481511 -2.437789 0.5323571
1.2372282 -2.4543486 0.53426516
1.2305096 -2.47966 0.53808135
1.2193631 -2.4960899 0.53998947
1.2123823 -2.5212903 0.5438056
1.2091817 -2.5554445 0.54952991
1.1765307 -2.5273943 0.54189754
1.1566921 -2.5257423 0.53998947
-1.1924858 -1.4212755 0.36062899
-1.1950358 -1.4062748 0.3587209
-1.3486718 -1.3305517 0.36826137
-1.356926 -1.3221329 0.36826137
-1.4367453 -1.249935 0.37016943
-1.4296044 -1.2281761 0.36635327
-1.4147308 -1.2002431 0.36062899
-1.4523112 -1.2165836 0.36826137
-1.4674909 -1.2136906 0.37016943
-1.4294665 -1.1671953 0.3587209
-1.436772 -1.1581907 0.3587209
-1.4670635 -1.1674777 0.36444518
-1.4975277 -1.1764292 0.37016943
-1.5204041 -1.1790276 0.37398562
-1.5277818 -1.1694518 0.37398562
-1.5429317 -1.1657469 0.37589371
-1.5502257 -1.1560295 0.37589371
-1.5653646 -1.1520849 0.37780181
-1.5646302 -1.1364579 0.37589371
-1.5796503 -1.1324182 0.37780181
-1.5866365 -1.1226088 0.37780181
-1.6016768 -1.1182808 0.3797099
-1.6167552 -1.1137639 0.38161799
-1.63184 -1.1091015 0.38352609
-1.6469295 -1.1042933 0.38543415
-1.6538354 -1.0939236 0.38543415
-1.6688973 -1.0888746 0.38734224
-1.6839606 -1.0836793 0.38925034
-1.6907363 -1.0730773 0.38925034
-1.705766 -1.067641 0.39115843
-1.7207936 -1.0620584 0.39306653
-1.7273697 -1.051329 0.39306653
-1.7422674 -1.0456574 0.39497462
-1.7572229 -1.0397365 0.39688271
-1.7722005 -1.0336206 0.39879081
-1.7786598 -1.0224652 0.39879081
-1.8021308 -1.0209466 0.40260696
-1.8085101 -1.0096035 0.40260696
-1.8320199 -1.0076822 0.40642315
-1.8383151 -0.99615139 0.40642315
-1.8531977 -0.98920381 0.40833125
-1.868065 -0.98210829 0.41023934
-1.8829161 -0.97486478 0.41214743
-1.8976916 -0.96758705 0.41405553
-1.9124228 -0.96021539 0.41596359
-1.9271921 -0.95258272 0.41787168
-1.9331393 -0.94045508 0.41787168
-1.956718 -0.93676782 0.42168787
-1.9714457 -0.92863804 0.42359596
-1.986148 -0.92035997 0.42550406
-2.0008237 -0.91193366 0.42741215
-2.0244293 -0.90737402 0.43122831
-2.0300906 -0.89463633 0.43122831
-2.0446792 -0.88576531 0.4331364
-2.0682676 -0.88059157 0.43695259
-2.0828154 -0.87136751 0.43886068
-2.0973287 -0.86199522 0.44076878
-2.1209085 -0.85614932 0.44458497
-2.126246 -0.8428064 0.44458497
-2.1406474 -0.83298999 0.44649303
-2.1641796 -0.82652801 0.45030922
-2.1785221 -0.81635839 0.45221731
-2.2020352 -0.80942833 0.4560335
-2.2162642 -0.79903817 0.45794159
-2.2304275 -0.78856277 0.45984969
-2.2538674 -0.78102255 0.46366584
-2.2680252 -0.77000147 0.46557394
-2.2914481 -0.76193053 0.46939012
-2.3055243 -0.75055665 0.47129822
-2.3195477 -0.73903584 0.47320631
-2.3428886 -0.73028946 0.47702247
-2.3568206 -0.71841657 0.47893056
-2.3895106 -0.71200359 0.48465484
-2.403362 -0.69971991 0.48656294
-2.426595 -0.68997484 0.4903791
-2.449759 -0.680112 0.49419528
-2.4634004 -0.66748798 0.49610338
-2.4865088 -0.65708047 0.49991956
-2.5096004 -0.64634091 0.50373572
-2.5326545 -0.63533622 0.50755191
-2.5461328 -0.62173855 0.50946003
-2.5690899 -0.61026651 0.51327616
-2.601567 -0.600739 0.51900047
-2.6244466 -0.58867872 0.52281666
-2.6376853 -0.57426482 0.52472472
-2.6604502 -0.56173706 0.52854091
-2.6831615 -0.54894429 0.5323571
-2.7057841 -0.53605103 0.53617328
-2.7379758 -0.52481937 0.54189754
-2.7605097 -0.51125634 0.54571372
-2.782994 -0.49735463 0.54952991
-2.8150854 -0.48485813 0.55525416
-2.8374445 -0.47037092 0.55907035
-2.8694258 -0.45716774 0.5647946
-2.9013524 -0.44357952 0.57051891
-2.9235075 -0.42818698 0.57433504
-2.9553044 -0.4138934 0.58005935
-2.9773059 -0.39791813 0.58387554
-3.0089605 -0.3829219 0.58959979
-3.0307975 -0.36636543 0.59341598
-3.0622973 -0.35066473 0.59914023
-3.0937183 -0.33458415 0.60486448
-3.125057 -0.31812078 0.61058879
-3.1660633 -0.30239999 0.61822116
-3.1972084 -0.28539535 0.62394542
-3.2282791 -0.26782367 0.62966967
-3.2592611 -0.24978405 0.63539392
-3.2999344 -0.23205592 0.64302629
-3.3307161 -0.21319762 0.64875054
-3.3711896 -0.19452885 0.65638292
-3.4017553 -0.17485411 0.66210723
-3.4420028 -0.15545417 0.66973954
-3.4821353 -0.13565278 0.67737192
-3.5123487 -0.11482911 0.68309617
-3.5620651 -0.094052762 0.69263667
-3.5920286 -0.072263174 0.69836092
-3.6316731 -0.050234593 0.70599329
-4.893827 0.48652938 0.95595306
-4.9785299 0.52655935 0.97312587
-5.0531645 0.56658149 0.98839056
-5.0982451 0.60409403 0.997931
-5.0846081 0.63490027 0.99602294
-5.0513206 0.66300136 0.99029869
-5.0470548 0.69472784 0.99029869
-5.1397943 0.74011147 1.0093796
-5.2418895 0.78799558 1.0303686
-5.3241382 0.8344515 1.0475414
-5.7741327 0.94218898 1.1372216
-5.8648791 0.99486554 1.1563025
-5.9358521 1.0453172 1.1715672
-5.9291024 1.0829476 1.1715672
-5.9220834 1.1206955 1.1715672
-5.9341607 1.161814 1.1753834
-6.0903058 1.2321693 1.2078209
-6.2362647 1.3021491 1.2383504
-6.4008121 1.3779505 1.272696
-6.5549831 1.4541054 1.3051335
-6.7466822 1.5411716 1.3452034
-6.9470944 1.6329449 1.3871814
-7.1370687 1.7249931 1.4272512
-7.316627 1.8171214 1.4654131
-7.5143247 1.9164279 1.5073911
-7.7395449 2.0257409 1.5550933
-7.9257555 2.1277809 1.5951632
-8.1960278 2.2561657 1.6524059
-8.4460173 2.3829648 1.7058324
-7.7425241 2.2368202 1.5665418
-8.9805174 2.6548746 1.8203177
-9.2831955 2.8076208 1.8851929
-9.5935974 2.9674201 1.9519759
-8.4461985 5.1167078 1.9195385
-7.8116951 4.7996812 1.782156
-7.1898665 4.4800844 1.6466815
-6.6470695 4.2000737 1.52838
-6.1824861 3.9610882 1.4272512
-5.7705746 3.7485294 1.337571
-5.435379 3.5795486 1.2650636
-5.1948571 3.5155287 1.2192695
-5.1564751 3.5369954 1.2154533
-1.9129784 1.8344206 0.51518428
-1.866253 1.81216 0.50564384
-1.8198328 1.7894384 0.49610338
-1.7737741 1.7662054 0.48656294
-1.7349921 1.7494365 0.47893056
-1.6896244 1.7252369 0.46939012
-1.6514539 1.7075948 0.46175775
-1.606794 1.6824424 0.45221731
-1.5692509 1.6639398 0.44458497
-1.5386957 1.6522158 0.43886068
-1.4950601 1.6257242 0.42932025
-1.4650189 1.6132843 0.42359596
-1.4286394 1.5932243 0.41596359
-1.4055865 1.5874701 0.41214743
-1.3697398 1.56671 0.40451506
-1.3406259 1.5529933 0.39879081
-1.3117384 1.538974 0.39306653
-1.2830814 1.5246534 0.38734224
-1.2609295 1.517585 0.38352609
-1.2326926 1.5027092 0.37780181
-1.2108711 1.4951675 0.37398562
-1.1708039 1.4644104 0.36444518
-1.1494162 1.4563273 0.36062899
-1.1281775 1.4480332 0.3568128
-1.1070881 1.439531 0.35299665
-1.0861514 1.4308208 0.34918046
-1.0594814 1.4140499 0.34345618
-1.0389031 1.4048933 0.33963999
-1.0184814 1.395535 0.33582383
2.112509 4.6683664 0.99602294
2.1500056 4.6728363 0.99983913
2.7615852 5.9040689 1.2669717
2.9587891 6.223485 1.3394791
6.4829645 7.8735595 1.9825054
6.3499808 7.6140499 1.9271709
6.2266684 7.3715286 1.8756524
6.113328 7.1457834 1.8279501
5.9909754 6.9143419 1.7783399
5.8853855 6.7068624 1.7344538
5.790473 6.5156646 1.6943839
5.6930156 6.3262725 1.6543139
5.6064858 6.1530151 1.6180602
5.5187507 5.9804163 1.5818065
5.4360833 5.8160524 1.5474609
5.4861732 5.7958903 1.5512772
5.529274 5.7683921 1.5531852
5.5859194 5.7546682 1.5589094
5.6288481 5.7264581 1.5608176
5.6716423 5.6979351 1.5627257
5.7142997 5.6691003 1.5646337
5.7564802 5.6402998 1.5665418
5.8054242 5.6181784 1.570358
5.8546505 5.5953145 1.5741742
5.9039693 5.5718932 1.5779904
5.9532242 5.5480728 1.5818065
6.0024123 5.5238523 1.5856227
6.0442653 5.4926314 1.5875309
6.0859632 5.461102 1.5894389
4.4890938 3.9775555 1.1658429
4.447506 3.8910987 1.1486701
4.4766359 3.9675627 -0.31349236
4.4188113 3.8670149 -0.30773541
4.3752632 3.7801251 -0.30302519
4.330873 3.6938524 -0.29831496
4.3006058 3.6214461 -0.29465142
4.2618427 3.5432792 -0.29046455
4.222043 3.4660206 -0.28627768
4.181376 3.3894868 -0.28209081
4.1479383 3.319561 -0.27842727
4.1216979 3.2562895 -0.27528712
4.0869536 3.1873388 -0.27162361
4.0515079 3.1189549 -0.2679601
4.0233178 3.0571859 -0.26481992
3.7068017 2.432946 -0.23237164
3.6884313 2.3879797 -0.23027821
3.6528618 2.3325112 -0.22713804
3.6336439 2.2882278 -0.22504461
3.6140151 2.2442789 -0.22295117
3.5939786 2.2006679 -0.22085772
3.5649893 2.1522367 -0.21824093
3.5441163 2.109365 -0.2161475
3.5314596 2.0718951 -0.21457742
3.5011835 2.0246696 -0.21196061
3.4878073 1.9877969 -0.21039054
3.4653997 1.9462826 -0.2082971
3.4513476 1.9099646 -0.20672703
3.4282088 1.86912 -0.20463358
3.413492 1.8333679 -0.2030635
3.3896353 1.793205 -0.20097007
3.3742661 1.7580292 -0.19939999
3.3585901 1.7231179 -0.19782992
3.3336959 1.683971 -0.19573647
3.3173857 1.6496521 -0.19416639
3.3007767 1.6156052 -0.19259632
3.2927649 1.586382 -0.1915496
3.2754607 1.5531145 -0.18997952
3.2579715 1.519909 -0.18840943
3.2402282 1.4869137 -0.18683936
3.2221999 1.4542017 -0.18526928
3.2130175 1.4258262 -0.18422256
3.2036064 1.3976241 -0.18317585
3.1756122 1.3617253 -0.18108241
3.1657002 1.3339902 -0.18003568
3.1555657 1.3064333 -0.17898896
3.1359601 1.2752949 -0.17741889
3.1253629 1.2481585 -0.17637217
3.105252 1.2175605 -0.17480209
3.1035211 1.1944388 -0.17427874
3.0922801 1.1678588 -0.17323202
3.0714643 1.137998 -0.17166193
3.0597095 1.1120559 -0.17061521
3.0477278 1.0863712 -0.16956849
3.0356154 1.0606786 -0.16852178
3.0138762 1.0318803 -0.1669517
3.0108323 1.0097479 -0.16642834
2.9981415 0.98457891 -0.16538163
2.9852543 0.95960993 -0.16433489
2.9721723 0.93484157 -0.16328818
2.9588976 0.91027617 -0.16224146
2.9454324 0.88591433 -0.16119474
3.1877761 0.66073698 -0.17061521
3.2114046 0.64483571 -0.17166193
2.3786385 -0.42712742 -0.12665302
2.3759079 -0.44206434 -0.12665302
2.3632774 -0.45509514 -0.12612966
2.3701653 -0.47188494 -0.12665302
2.357372 -0.48475629 -0.12612966
2.3445108 -0.49748561 -0.1256063
2.3413389 -0.51220673 -0.1256063
2.3380742 -0.52690762 -0.1256063
2.3250248 -0.53917903 -0.12508294
2.3216395 -0.55357409 -0.12508294
2.3181279 -0.56810009 -0.12508294
2.3145125 -0.582654 -0.12508294
2.3108451 -0.59703356 -0.12508294
2.2974486 -0.60878175 -0.12455957
2.3032286 -0.62577319 -0.12508294
2.2896311 -0.63755357 -0.12455957
2.2951832 -0.65466624 -0.12508294
2.2910247 -0.66907436 -0.12508294
2.2772074 -0.68059635 -0.12455957
2.2824361 -0.69781065 -0.12508294
2.2780066 -0.71213776 -0.12508294
2.2639747 -0.72339731 -0.12455957
2.2689264 -0.74055851 -0.12508294
2.2642946 -0.75460207 -0.12508294
2.2595253 -0.76876479 -0.12508294
2.2546506 -0.78294653 -0.12508294
2.2685125 -0.80376768 -0.12612966
2.3667271 -0.85534155 -0.1318866
2.3800466 -0.87710148 -0.13293333
2.2748811 -0.95347017 -0.12926981
2.2229173 -0.94815481 -0.12665302
2.2352376 -0.97005427 -0.12769973
2.2291629 -0.98393345 -0.12769973
2.2139132 -0.99363697 -0.12717637
2.1985633 -1.0033334 -0.12665302
2.1831572 -1.0129246 -0.12612966
2.1767497 -1.0266217 -0.12612966
2.1702564 -1.0402783 -0.12612966
2.1546993 -1.0495209 -0.1256063
2.1391122 -1.0586091 -0.12508294
2.1324887 -1.0718888 -0.12508294
2.1258066 -1.0850807 -0.12508294
2.1278369 -1.1029655 -0.1256063
2.1208649 -1.1163133 -0.1256063
2.1138828 -1.1294788 -0.1256063
2.1068442 -1.1425543 -0.1256063
2.099649 -1.1557238 -0.1256063
2.101064 -1.1737638 -0.12612966
2.0936475 -1.186942 -0.12612966
2.0861485 -1.2000732 -0.12612966
2.0613174 -1.2030895 -0.12508294
2.0365317 -1.2058414 -0.12403622
2.0203543 -1.2134715 -0.12351286
2.0126898 -1.2261418 -0.12351286
1.9964507 -1.2335147 -0.1229895
1.9886608 -1.2460344 -0.1229895
1.9893043 -1.2637298 -0.12351286
1.9814363 -1.2760309 -0.12351286
1.9734077 -1.2884123 -0.12351286
1.9652735 -1.3007861 -0.12351286
1.9653543 -1.3186725 -0.12403622
1.9570302 -1.3309951 -0.12403622
1.9568508 -1.348933 -0.12455957
1.9401503 -1.3554822 -0.12403622
1.9315952 -1.3676457 -0.12403622
1.9310777 -1.385577 -0.12455957
1.9224254 -1.3975569 -0.12455957
1.9137295 -1.4094411 -0.12455957
1.9128706 -1.4273682 -0.12508294
1.8958986 -1.4333365 -0.12455957
1.9028065 -1.4572407 -0.1256063
1.8858507 -1.4628813 -0.12508294
1.8766539 -1.4746608 -0.12508294
1.8673513 -1.486423 -0.12508294
1.857975 -1.4981265 -0.12508294
1.8562598 -1.5160879 -0.1256063
1.8466973 -1.5277212 -0.1256063
1.837062 -1.5392941 -0.1256063
1.8274558 -1.5506865 -0.1256063
1.8178129 -1.5619793 -0.1256063
1.8155305 -1.5798861 -0.12612966
1.805568 -1.5912622 -0.12612966
1.7880839 -1.5959258 -0.1256063
1.7854296 -1.6138254 -0.12612966
1.7679943 -1.6181531 -0.1256063
1.7725836 -1.6426523 -0.12665302
1.7622637 -1.6537188 -0.12665302
1.7518383 -1.6647587 -0.12665302
1.6424121 -1.7041119 -0.12403622
1.6111659 -1.6925563 -0.12246613
1.6278962 -1.7317156 -0.12455957
1.6373656 -1.7638665 -0.12612966
1.6331153 -1.7813741 -0.12665302
1.6220468 -1.7914584 -0.12665302
1.604142 -1.7941349 -0.12612966
1.5994468 -1.8116647 -0.12665302
1.5880322 -1.8216785 -0.12665302
1.5830697 -1.8391891 -0.12717637
1.5779495 -1.8567089 -0.12769973
1.5598333 -1.8589368 -0.12717637
1.5609877 -1.8839788 -0.12822309
1.5492845 -1.8936146 -0.12822309
1.5436727 -1.9110465 -0.12874645
1.537861 -1.9285157 -0.12926981
1.5318905 -1.945987 -0.12979317
1.5196333 -1.9555737 -0.12979317
1.513394 -1.9730068 -0.13031653
1.5009674 -1.9824768 -0.13031653
1.5005687 -2.0077691 -0.13136324
1.4881003 -2.0170279 -0.13136324
1.4813201 -2.0343788 -0.1318866
1.4743359 -2.0517557 -0.13240996
1.4671917 -2.0691247 -0.13293333
1.4541621 -2.0783026 -0.13293333
1.4467486 -2.0956163 -0.13345669
1.4391748 -2.1129186 -0.13398005
1.4314404 -2.1302083 -0.13450341
1.4235452 -2.1474838 -0.13502677
1.4156313 -2.1646512 -0.13555013
1.4076062 -2.181772 -0.13607349
1.3992791 -2.1989677 -0.13659684
1.3907431 -2.2161751 -0.1371202
1.3820461 -2.2333612 -0.13764356
1.3731877 -2.2505255 -0.13816692
1.3591682 -2.2590201 -0.13816692
1.3553356 -2.2845755 -0.13921364
1.3410045 -2.2930169 -0.13921364
1.3315578 -2.3100493 -0.139737
1.3268824 -2.335736 -0.14078373
1.3170584 -2.3527408 -0.14130709
1.307073 -2.369714 -0.14183044
1.296926 -2.3866541 -0.1423538
1.286775 -2.4034758 -0.14287716
1.2765176 -2.4202354 -0.14340052
1.2705456 -2.4459045 -0.14444724
1.2642479 -2.4716208 -0.14549395
1.2486933 -2.4795153 -0.14549395
1.2419606 -2.5052066 -0.14654067
1.2307401 -2.5218546 -0.14706403
1.2237399 -2.5474348 -0.14811075
1.1992301 -2.5369902 -0.14706403
1.1748443 -2.526365 -0.14601731
1.14665 -2.5063777 -0.14444724
1.1270001 -2.5043275 -0.14392388
1.0148053 -2.9141238 -0.1617181
-1.007286 -1.5606085 -0.097344875
-1.0116035 -1.5458926 -0.096821517
-1.0268172 -1.5478277 -0.097344875
-1.0420948 -1.5496323 -0.097868234
-1.0574355 -1.5513057 -0.098391593
-1.0558089 -1.5281987 -0.097344875
-1.0711179 -1.5297151 -0.097868234
-1.0807081 -1.5229549 -0.097868234
-1.0844256 -1.508027 -0.097344875
-1.0997604 -1.5092545 -0.097868234
-1.1091231 -1.5023873 -0.097868234
-1.1184107 -1.4954863 -0.097868234
-1.1277525 -1.4884542 -0.097868234
-1.1370825 -1.481339 -0.097868234
-1.1463675 -1.4741653 -0.097868234
-1.1432478 -1.4512442 -0.096821517
-1.164801 -1.4596438 -0.097868234
-1.1676714 -1.4445301 -0.097344875
-1.1829565 -1.4449692 -0.097868234
-1.1918868 -1.4376118 -0.097868234
-1.1944431 -1.4224731 -0.097344875
-1.2033571 -1.4149401 -0.097344875
-1.2187409 -1.4149177 -0.097868234
-1.2341719 -1.4147576 -0.098391593
-1.2430366 -1.4069752 -0.098391593
-1.2518523 -1.3991373 -0.098391593
-1.267324 -1.3986442 -0.098914959
-1.2828387 -1.3980118 -0.099438317
-1.2915062 -1.3900086 -0.099438317
-1.3069363 -1.3892535 -0.099961676
-1.3018332 -1.3665819 -0.098914959
-1.3173273 -1.3655626 -0.099438317
-1.3119246 -1.3429717 -0.098391593
-1.4316288 -1.2603756 -0.099961676
-1.4545932 -1.2644588 -0.10100839
-1.4472723 -1.242381 -0.099961676
-1.4244725 -1.2075596 -0.097868234
-1.4396632 -1.2050265 -0.098391593
-1.4779978 -1.221403 -0.10048503
-1.4701674 -1.1994665 -0.099438317
-1.4854521 -1.1964697 -0.099961676
-1.5007569 -1.193328 -0.10048503
-1.5160804 -1.1900409 -0.10100839
-1.5393152 -1.1927252 -0.10205511
-1.5467789 -1.1830299 -0.10205511
-1.5541816 -1.1732879 -0.10205511
-1.5615228 -1.1634996 -0.10205511
-1.5688025 -1.1536653 -0.10205511
-1.5841023 -1.1496511 -0.10257848
-1.5912198 -1.1397794 -0.10257848
-1.5982513 -1.1298983 -0.10257848
-1.613485 -1.1255826 -0.10310183
-1.6287514 -1.1210847 -0.10362519
-1.6357632 -1.1108289 -0.10362519
-1.6510069 -1.1060874 -0.10414855
-1.6662552 -1.1011981 -0.10467191
-1.6815071 -1.0961605 -0.10519527
-1.696761 -1.0909746 -0.10571863
-1.7035823 -1.080292 -0.10571863
-1.718803 -1.0748621 -0.10624199
-1.7255226 -1.0640414 -0.10624199
-1.7406377 -1.0584807 -0.10676535
-1.7557272 -1.052811 -0.10728871
-1.7708813 -1.0468792 -0.10781207
-1.7860523 -1.0407596 -0.10833543
-1.7925563 -1.0295171 -0.10833543
-1.8076804 -1.0231528 -0.10885879
-1.8227948 -1.016639 -0.10938215
-1.8378984 -1.0099754 -0.1099055
-1.8442079 -0.99840766 -0.1099055
-1.868068 -0.99619859 -0.11095223
-1.8742903 -0.98444158 -0.11095223
-1.8893088 -0.97723365 -0.11147559
-1.9131451 -0.97453314 -0.1125223
-1.9369988 -0.97161597 -0.11356902
-1.9519986 -0.96389025 -0.11409238
-1.9669981 -0.95597166 -0.11461575
-1.9819747 -0.9479025 -0.1151391
-1.9969273 -0.93968272 -0.11566246
-2.0118544 -0.93131226 -0.11618582
-2.0267549 -0.92279118 -0.11670918
-2.0416274 -0.91411942 -0.11723254
-2.0564704 -0.90529704 -0.1177559
-2.0804479 -0.90029013 -0.11880262
-2.0860636 -0.88720059 -0.11880262
-2.1100249 -0.88177711 -0.11984934
-2.1155236 -0.86850208 -0.11984934
-2.1394622 -0.86266172 -0.12089606
-2.1541252 -0.85287833 -0.12141941
-2.1687496 -0.84294456 -0.12194277
-2.1833336 -0.83286059 -0.12246613
-2.197876 -0.82262707 -0.1229895
-2.22175 -0.81568462 -0.12403622
-2.2361746 -0.80523819 -0.12455957
-2.2505374 -0.79469228 -0.12508294
-2.2743433 -0.78711748 -0.12612966
-2.2981589 -0.77922529 -0.12717637
-2.3124869 -0.76791739 -0.12769973
-2.3267632 -0.75646013 -0.12822309
-2.3409865 -0.74485362 -0.12874645
-2.3646903 -0.73606616 -0.12979317
-2.3788218 -0.72410196 -0.13031653
-2.4024677 -0.71483707 -0.13136324
-2.416501 -0.70251566 -0.1318866
-2.4400806 -0.69277346 -0.13293333
-2.4539642 -0.68025619 -0.13345669
-2.4774115 -0.67025483 -0.13450341
-2.5008712 -0.65982503 -0.13555013
-2.5243111 -0.64907235 -0.13659684
-2.5380266 -0.63562495 -0.1371202
-2.5710769 -0.6267603 -0.13869028
-2.5846808 -0.61289829 -0.13921364
-2.6079428 -0.60113299 -0.14026035
-2.6311584 -0.58909941 -0.14130709
-2.654325 -0.57679629 -0.1423538
-2.6774399 -0.56422651 -0.14340052
-2.7102857 -0.5533852 -0.1449706
-2.7234709 -0.53845912 -0.14549395
-2.7561803 -0.52720249 -0.14706403
-2.779067 -0.513565 -0.14811075
-2.8019018 -0.49959874 -0.14915748
-2.8246694 -0.48536721 -0.1502042
-2.8572209 -0.47249693 -0.15177427
-2.8798583 -0.45767075 -0.15282099
-2.9122937 -0.44408244 -0.15439107
-2.9446707 -0.43010598 -0.15596114
-2.9670956 -0.41435727 -0.15700787
-2.999337 -0.39966422 -0.15857795
-3.0315094 -0.38458225 -0.16014802
-3.053695 -0.36791712 -0.16119474
-3.0857122 -0.35211885 -0.16276482
-3.1077213 -0.33486441 -0.16381153
-3.1495054 -0.31936046 -0.16590498
-3.1812546 -0.30260789 -0.16747506
-3.2129097 -0.28554291 -0.16904514
-3.2444918 -0.26788634 -0.17061521
-3.2759833 -0.2497721 -0.17218529
-3.3173358 -0.23197098 -0.17427874
-3.3486264 -0.21302418 -0.17584881
-3.3897784 -0.19426642 -0.17794225
-3.4208519 -0.17448933 -0.17951232
-3.461776 -0.15500402 -0.18160577
-3.5025854 -0.13509114 -0.18369921
-3.5333059 -0.1141258 -0.18526928
-3.5838678 -0.093220629 -0.18788607
-3.6243203 -0.071489513 -0.18997952
-3.6646395 -0.049251776 -0.19207296
-3.7048206 -0.026512127 -0.19416639
-3.7548456 -0.0032762235 -0.19678319
-5.0148978 0.53239655 -0.26429656
-5.0610719 0.56947988 -0.26691338
-5.0871434 0.60480368 -0.26848346
-5.0634251 0.63427395 -0.26743674
-5.0791416 0.66868126 -0.26848346
-5.0649476 0.69921678 -0.2679601
-5.1395726 0.74211109 -0.27214697
-5.263248 0.79329056 -0.27895063
-5.3370996 0.8386296 -0.28313753
-5.8146353 0.95114142 -0.30878213
-5.6608696 0.96254545 -0.30093175
-5.8218927 1.0276051 -0.30982885
-6.6636457 1.3073518 -0.35588449
-6.4497685 1.3075302 -0.34489393
-6.6076832 1.3823727 -0.35379106
-6.5892291 1.4211824 -0.3532677
-6.599699 1.4667431 -0.35431442
-6.7558413 1.5460545 -0.36321154
-6.911242 1.6273808 -0.37210864
-7.1241155 1.7248225 -0.38414592
-7.3166471 1.8201759 -0.39513648
-7.4985776 1.915547 -0.40560365
-7.7182312 2.0233998 -0.41816428
-7.9464588 2.1366835 -0.43124828
-8.1830387 2.2560978 -0.44485563
-8.0051308 2.2620163 -0.4359585
-7.770226 2.2480836 -0.42392123
-8.9722347 2.6562045 -0.49038789
-9.2517128 2.8020635 -0.50661206
-10.731574 3.3240271 -0.58877951
-10.710698 3.3906906 -0.58877951
-10.689484 3.4569898 -0.58877951
-10.686594 3.5301142 -0.58982623
-11.052163 3.7280579 -0.61128396
-11.557287 3.9794919 -0.6405921
-12.097351 4.2506618 -0.67199367
-15.586241 5.5868196 -0.86773014
-15.569587 5.6915016 -0.86877686
-15.542878 5.7926989 -0.86930025
-15.496838 5.8867006 -0.86877686
-15.822753 6.124536 -0.88918787
-15.811831 6.2348175 -0.89075798
-15.782025 6.3367343 -0.89128131
-15.714727 6.4230642 -0.88971126
-15.664984 6.5174932 -0.88918787
-15.614527 6.6119003 -0.88866454
-15.572237 6.7108941 -0.88866454
-15.520025 6.8059464 -0.88814116
-15.476808 6.9036608 -0.88814116
-15.424029 6.9966464 -0.88761783
-15.371158 7.0882344 -0.88709444
-15.335986 7.1875772 -0.88761783
-15.290684 7.2834554 -0.88761783
-15.235628 7.3750386 -0.88709444
-15.188991 7.4706168 -0.88709444
-15.14175 7.565908 -0.88709444
-15.093916 7.6608925 -0.88709444
-15.045485 7.7555747 -0.88709444
-14.996461 7.8499508 -0.88709444
-14.94684 7.944025 -0.88709444
-14.896107 8.0387535 -0.88709444
-14.85335 8.1382885 -0.88761783
-14.802284 8.2308035 -0.88761783
-14.698816 8.2929192 -0.88447767
-9.3087301 5.5645399 -0.56836849
-8.5221338 5.1672835 -0.52231282
-7.8515096 4.8283901 -0.48306087
-7.3719239 4.5975447 -0.4553228
-7.3260098 4.6330996 -0.45427608
-7.254724 4.6520839 -0.45165929
-7.2002325 4.6812463 -0.45008922
-4.9841585 3.4674649 -0.31820261
-4.8238215 3.4004669 -0.30930549
-1.8906921 1.8373332 -0.13816692
-1.8435208 1.8141546 -0.13555013
-1.7967179 1.7904563 -0.13293333
-1.7502859 1.7662437 -0.13031653
-1.711216 1.7486563 -0.12822309
-1.6724364 1.7306496 -0.12612966
-1.6270583 1.7050003 -0.12351286
-1.5957667 1.6933868 -0.12194277
-1.5578839 1.6741369 -0.11984934
-1.527063 1.6618329 -0.11827926
-1.4897494 1.6418122 -0.11618582
-1.4527479 1.6213903 -0.11409238
-1.4226809 1.6080478 -0.1125223
-1.3928387 1.5943933 -0.11095223
-1.3632261 1.5804273 -0.10938215
-1.3403187 1.5737565 -0.10833543
-1.3046962 1.5515735 -0.10624199
-1.2757845 1.5366905 -0.10467191
-1.2534434 1.529229 -0.10362519
-1.2249651 1.5137851 -0.10205511
-1.2029639 1.5058469 -0.10100839
-1.1811107 1.4976933 -0.099961676
-1.1532743 1.4814445 -0.098391593
-1.1317734 1.4728248 -0.097344875
-1.1104275 1.4639937 -0.096298158
-1.0892371 1.4549536 -0.095251441
-1.0682054 1.4457049 -0.094204716
-1.0473325 1.4362508 -0.093157999
-1.0266218 1.4265914 -0.092111282
-1.0060737 1.4167297 -0.091064565
2.9557524 6.3127236 -0.36530498
3.3901615 7.1236129 -0.41345406
10.186513 15.256721 -0.96141148
9.7896137 14.464636 -0.91535586
9.4509706 13.776988 -0.87558055
9.0983896 13.085993 -0.83528185
8.8065405 12.497956 -0.80126345
8.5076771 11.914124 -0.76724511
8.2369652 11.383104 -0.73636687
7.9894552 10.896242 -0.7081055
7.7659416 10.453037 -0.68246084
7.555203 10.037024 -0.65838629
7.3577209 9.6479063 -0.63588184
7.1739745 9.285388 -0.6149475
6.9982829 8.9412994 -0.59505981
6.8371725 8.6232729 -0.57674223
6.6911111 8.3309927 -0.5599947
6.5479565 8.0486441 -0.54377055
6.4078765 7.7761402 -0.52806979
6.2838354 7.5287237 -0.51393908
6.150497 7.2755547 -0.49928501
6.0402126 7.0547099 -0.48672438
5.9208598 6.8280001 -0.47364038
5.8120818 6.618083 -0.46160313
5.7141795 6.4247336 -0.45061257
5.620357 6.2406697 -0.44014537
5.5310688 6.065526 -0.43020156
5.4473767 5.8983583 -0.42078108
5.4507313 5.8270717 -0.41816428
5.507966 5.8143387 -0.41973436
5.5582161 5.7940292 -0.42078108
5.615386 5.7804809 -0.42235115
5.6656013 5.7593226 -0.42339787
5.7087235 5.7306862 -0.42392123
5.7517099 5.7017345 -0.42444459
5.7870507 5.6658621 -0.42444459
5.8435807 5.6507235 -0.42601466
5.8932915 5.6278176 -0.42706141
5.9430666 5.6043806 -0.42810813
5.9854708 5.5737343 -0.42863148
6.0424256 5.5562954 -0.43020156
6.0772176 5.5182199 -0.43020156
4.4908862 4.0266132 -0.31610918
4.4712358 3.9585986 -0.312969
4.4208355 3.864701 -0.30773541
4.4934125 3.9792819 1.3856984
4.4523115 3.8932455 1.3654529
4.403204 3.8012049 1.3429577
4.3680024 3.7225168 1.3249617
4.324265 3.6384678 1.3047161
4.2870812 3.5614164 1.28672
4.241322 3.479099 1.2664744
4.1946526 3.3975582 1.2462288
4.1625929 3.3286083 1.2304822
4.1222415 3.2540903 1.2124861
4.0888057 3.1862018 1.1967396
4.0624051 3.124804 1.1832426
4.0198755 3.0520813 1.1652465
3.9843924 2.9858613 1.1494999
3.9560714 2.9260035 1.1360028
3.707299 2.4312189 1.0235273
3.681556 2.3814776 1.0122797
3.6553748 2.3320956 1.0010322
3.62872 2.2831376 0.9897846
3.6181552 2.2448816 0.9830361
3.5823188 2.1915944 0.96953905
3.5626445 2.1489127 0.96054101
3.5425766 2.1065652 0.95154297
3.5221183 2.0645561 0.94254488
3.5012734 2.0228875 0.93354684
3.4800456 1.9815633 0.9245488
3.4584377 1.9405864 0.91555077
3.4364536 1.89996 0.90655273
3.4226537 1.8643482 0.89980417
3.3999569 1.8243785 0.89080614
3.3855093 1.7893211 0.88405764
3.362113 1.750019 0.8750596
3.3470292 1.7155267 0.86831105
3.3229468 1.6769037 0.85931301
3.3072388 1.6429869 0.85256445
3.2912366 1.6093341 0.84581596
3.2748318 1.57618 0.8390674
3.2669232 1.5475167 0.83456838
3.2412302 1.5105494 0.82557034
3.2240851 1.4779735 0.81882185
3.2066598 1.4456729 0.81207329
3.1978645 1.417599 0.80757427
3.1799111 1.3858006 0.80082572
3.1706424 1.3581204 0.7963267
3.1521714 1.3268315 0.7895782
3.1334336 1.2958288 0.78282964
3.1234589 1.2687814 0.77833062
3.1042185 1.2383006 0.77158213
3.102865 1.2152185 0.76933259
3.0831547 1.1852102 0.76258409
3.0723073 1.1589369 0.75808501
3.0521142 1.1294653 0.75133651
3.0499129 1.1071584 0.74908698
3.0199969 1.0751681 0.74008894
3.0174758 1.0530111 0.73783946
2.9963737 1.0245733 0.7310909
2.9935129 1.0026319 0.72884142
2.9719779 0.97469413 0.72209287
2.9594886 0.95004547 0.71759385
2.9561036 0.92851198 0.71534437
2.9432509 0.90419722 0.71084529
2.9208784 0.87727803 0.70409679
2.9169836 0.85616428 0.70184726
3.1336341 0.62795746 0.73783946
3.1565955 0.6122402 0.74233848
2.2806928 -0.6360302 0.54663104
2.2579138 -0.64499491 0.54213202
2.2631686 -0.66190416 0.54438156
2.2402959 -0.67052293 0.53988254
2.2453556 -0.68743825 0.54213202
2.2316933 -0.69862169 0.53988254
2.2272596 -0.71262997 0.53988254
2.2320514 -0.72947925 0.54213202
2.2090032 -0.73712647 0.537633
2.2227869 -0.75723946 0.54213202
2.2179852 -0.77119064 0.54213202
2.1947298 -0.77859586 0.537633
2.1989567 -0.79568571 0.53988254
2.1939139 -0.80948639 0.53988254
2.1796646 -0.81982487 0.537633
2.1653724 -0.83001643 0.53538352
2.1416702 -0.9144941 0.537633
2.1269453 -0.92404991 0.53538352
2.1211638 -0.93724507 0.53538352
2.1153162 -0.95036972 0.53538352
2.1181815 -0.96765602 0.537633
2.1032226 -0.97684139 0.53538352
2.0882325 -0.98587692 0.53313398
2.0995665 -1.0074083 0.537633
2.0931952 -1.0205803 0.537633
2.0867414 -1.033712 0.537633
2.0715756 -1.042276 0.53538352
2.0650778 -1.0550914 0.53538352
2.0497766 -1.0635246 0.53313398
2.0516741 -1.0809244 0.53538352
2.0363276 -1.0890538 0.53313398
2.0381043 -1.1062981 0.53538352
2.0311313 -1.1190487 0.53538352
2.02406 -1.1317885 0.53538352
2.0253832 -1.1492923 0.537633
2.0181222 -1.1619955 0.537633
2.0107813 -1.1746527 0.537633
2.0117433 -1.1922313 0.53988254
1.9875109 -1.1948074 0.53538352
1.9882838 -1.2123443 0.537633
1.9806272 -1.224813 0.537633
1.9811472 -1.2424101 0.53988254
1.9569459 -1.2442377 0.53538352
1.957389 -1.2616175 0.537633
1.9412879 -1.2685291 0.53538352
1.9495252 -1.2914637 0.53988254
1.9332832 -1.2982553 0.537633
1.9250879 -1.3103768 0.537633
1.9248368 -1.3279798 0.53988254
1.92444 -1.3456312 0.54213202
1.9159473 -1.3576962 0.54213202
1.9073788 -1.3697076 0.54213202
1.8909541 -1.3757976 0.53988254
1.8902369 -1.3932687 0.54213202
1.8892753 -1.4109173 0.54438156
1.8726029 -1.4168808 0.54213202
1.8637649 -1.4284865 0.54213202
1.8548783 -1.4400067 0.54213202
1.8534768 -1.4576256 0.54438156
1.8519027 -1.4753138 0.54663104
1.8501793 -1.4930395 0.54888058
1.6035399 -1.7287881 0.54438156
1.5993509 -1.7459012 0.54663104
1.6146512 -1.7846787 0.55562907
