# .PCD v0.7 - Point Cloud Data file format
VERSION 0.7
FIELDS x y z
SIZE 4 4 4
TYPE F F F
COUNT 1 1 1
WIDTH 1469
HEIGHT 1
VIEWPOINT 0 0 0 1 0 0 0
POINTS 1469
DATA ascii
-5.6555505 3.8539767 0.59875995
-5.6967974 3.9347286 0.60573238
-6.1260171 4.5832605 0.66935611
-6.2320619 4.7239618 0.68417257
-6.2101569 4.7690945 0.68504411
-6.1879334 4.8141351 0.68591571
-6.2749238 4.9454169 0.69898903
-6.3916469 5.1028366 0.71554863
-6.5066314 5.2619166 0.73210824
-6.6352787 5.4352603 0.75041091
-6.731329 5.5849829 0.76522744
-6.8486376 5.7553463 0.78265858
-6.9716477 5.9338598 0.80096126
-7.1000576 6.1208382 0.82013553
-7.2260022 6.3100991 0.83930981
-6.8201971 6.0324068 0.7966035
-7.5093484 6.7265248 0.88201612
-7.6587763 6.947597 0.90467662
-7.8130479 7.1775494 0.92820865
-8.1837463 7.6130438 0.97788739
-8.2451935 7.7660594 0.99096078
-8.3480988 7.9615979 1.0092635
-8.5128794 8.221509 1.0354102
-8.7172155 8.5258265 1.0667863
-8.9529009 8.8686256 1.1025201
-9.2129412 9.2427349 1.1417402
-9.4691572 9.6199217 1.1809603
-9.9570713 10.243549 1.2498133
-11.727522 12.217607 1.4816476
-12.089137 12.753771 1.5374273
-12.015569 12.836754 1.5382988
-11.921156 12.897362 1.5365558
-11.826456 12.957291 1.5348126
-11.918219 13.223738 1.5574731
-11.882625 13.522122 1.5749042
-11.797425 13.596519 1.5749042
-11.705285 13.662807 1.5740327
-11.606338 13.720876 1.5722896
-11.519902 13.793526 1.5722896
-11.420329 13.850266 1.5705465
-11.320505 13.906294 1.5688033
-11.232903 13.977151 1.5688033
-11.138673 14.039646 1.5679318
-11.050236 14.109358 1.5679318
-10.955277 14.170626 1.5670602
-10.853934 14.223344 1.5653172
-10.764357 14.291257 1.5653172
-10.680289 14.366607 1.5661887
-10.583921 14.425394 1.5653172
-10.44049 14.418993 1.5574731
-10.338107 14.468094 1.55573
-10.258475 14.54905 1.5574731
-10.177836 14.629853 1.5592163
-10.05625 14.653322 1.5548584
1.0121868 2.1216173 -0.37231401
1.0384237 2.1418781 -0.37700707
1.0649546 2.1618919 -0.3817001
1.0873574 2.1728232 -0.38482878
1.1144148 2.1923623 -0.38952181
1.1417601 2.2116461 -0.39421484
1.1693912 2.2306719 -0.39890787
1.1973059 2.2494366 -0.4036009
1.225502 2.2679377 -0.40829393
1.2539774 2.2861719 -0.41298699
1.2875339 2.3127668 -0.41924435
1.3166913 2.3303864 -0.42393738
1.3462501 2.3476555 -0.42863044
1.3809718 2.3732235 -0.4348878
1.405898 2.3815105 -0.4380165
1.4411312 2.4065249 -0.44427386
1.481861 2.4396305 -0.4520956
1.5127017 2.4554994 -0.45678863
1.549033 2.4794526 -0.46304601
1.5857242 2.5030448 -0.4693034
1.6227722 2.5262725 -0.47556075
1.6655638 2.5574086 -0.48338249
4.4326949 4.4926701 -0.99961621
4.4538546 4.4577432 -0.99805188
4.4816303 4.4298172 -0.99805188
3.2859101 0.69274938 -0.53187716
3.2418127 0.66220611 -0.52405542
3.197463 0.63224477 -0.51623374
3.1625679 0.60472226 -0.50997633
3.1177421 0.5758695 -0.50215465
3.0824041 0.54933715 -0.49589723
3.037123 0.52160013 -0.48807552
3.0013616 0.49606469 -0.48181814
2.9654007 0.47099993 -0.47556075
2.929245 0.44640648 -0.4693034
2.8928986 0.42228618 -0.46304601
2.8563666 0.39864051 -0.45678863
2.8294435 0.37677449 -0.4520956
2.8023596 0.3552627 -0.44740257
2.7653122 0.33292568 -0.44114518
2.7379096 0.31218734 -0.43645215
2.7103567 0.29180667 -0.43175912
2.6826568 0.27178469 -0.42706609
2.6548135 0.2521224 -0.42237306
2.616992 0.23194887 -0.41611567
2.5888669 0.21307121 -0.41142264
2.5606091 0.19455588 -0.40672961
2.5420749 0.17709054 -0.4036009
2.513561 0.15932369 -0.39890787
2.4947782 0.14261968 -0.39577919
2.4758899 0.12607314 -0.39265051
2.447032 0.10919336 -0.38795745
2.4279337 0.092980012 -0.38482878
2.3988612 0.076566026 -0.38013574
2.3795509 0.060856085 -0.37700707
2.360136 0.045522854 -0.37387836
2.3406224 0.030512681 -0.37074968
2.3111367 0.015807398 -0.36605665
2.2914364 0.0013996618 -0.36292794
2.2716467 -0.012885765 -0.35979927
2.2616446 -0.027040537 -0.35823491
2.2416797 -0.040889703 -0.35510623
2.2117567 -0.054247189 -0.3504132
2.2014999 -0.067838721 -0.34884885
2.1714201 -0.080571048 -0.34415582
2.1610034 -0.093784586 -0.34259146
2.1406419 -0.10638019 -0.33946279
2.13007 -0.11927588 -0.33789843
2.1194208 -0.13204293 -0.33633408
2.0988417 -0.14400481 -0.3332054
2.078202 -0.15564528 -0.33007672
2.0575087 -0.16692109 -0.32694802
2.0465839 -0.17894025 -0.32538369
2.035569 -0.19105117 -0.32381934
2.0146618 -0.20197773 -0.32069066
2.0035319 -0.2135852 -0.31912631
1.9825287 -0.22388719 -0.3159976
1.9712961 -0.23499711 -0.31443328
1.9599941 -0.24604096 -0.31286892
1.9486175 -0.25705928 -0.31130457
1.9273964 -0.26659116 -0.30817589
1.9061332 -0.27586663 -0.30504721
1.8945963 -0.28636163 -0.30348286
1.8830031 -0.29672259 -0.30191851
1.8713551 -0.30694923 -0.30035415
1.859653 -0.31704128 -0.29878983
1.8381728 -0.32527742 -0.29566112
1.826378 -0.33503842 -0.2940968
1.9529027 -0.60515457 -0.32381934
1.9584235 -0.62056649 -0.32538369
1.9638684 -0.63594484 -0.32694802
1.9786454 -0.6543023 -0.33007672
1.9838896 -0.66977328 -0.33164105
1.9889801 -0.68544316 -0.3332054
1.9939516 -0.70120335 -0.33476976
1.0198553 -2.085006 -0.36762097
1.0020996 -2.1154766 -0.37074968
-1.0102941 -2.2422485 -0.38952181
-1.0325904 -2.2538152 -0.39265051
-1.063412 -2.2830961 -0.39890787
-1.0861889 -2.2942233 -0.40203658
-1.1134297 -2.314054 -0.40672961
-1.140962 -2.3336318 -0.41142264
-1.1687838 -2.3529539 -0.41611567
-1.196893 -2.3720176 -0.4208087
-1.2207826 -2.38203 -0.42393738
-1.2585245 -2.4181192 -0.43175912
-1.2921524 -2.4450939 -0.4380165
-1.3308378 -2.4804432 -0.44583821
-1.3180513 -2.4199896 -0.43645215
-1.3332305 -2.4116604 -0.43645215
-1.3435242 -2.3946221 -0.4348878
-1.3585435 -2.3861334 -0.4348878
-1.3685684 -2.3689981 -0.43332347
-1.3734375 -2.3433099 -0.43019477
-1.6281235 -2.4163501 -0.46148166
-1.7213966 -2.5201657 -0.48338249
-1.6922212 -2.4443345 -0.47086772
-1.6847762 -2.4013677 -0.46461037
-1.6938996 -2.3828328 -0.46304601
-1.7260264 -2.3962791 -0.46773905
-1.7526944 -2.4013426 -0.47086772
-1.7618748 -2.3823416 -0.4693034
-1.7649633 -2.3554163 -0.46617469
-1.7618111 -2.3206801 -0.46148166
-1.7763575 -2.3095646 -0.46148166
-1.8029745 -2.3139403 -0.46461037
-1.8174777 -2.3025663 -0.46461037
-1.8380773 -2.2988155 -0.46617469
-1.8587012 -2.2948966 -0.46773905
-1.8668193 -2.2755368 -0.46617469
-1.8368934 -2.2105865 -0.45522428
-1.8380268 -2.1838882 -0.4520956
-1.8645269 -2.1873295 -0.45522428
-1.8975966 -2.198 -0.45991731
-1.950377 -2.2306464 -0.4693034
-1.9774498 -2.2331369 -0.47243208
-1.9518768 -2.176549 -0.46304601
-1.9588035 -2.1569941 -0.46148166
-1.9855006 -2.1593575 -0.46461037
-2.0258331 -2.175864 -0.47086772
-2.0326889 -2.155906 -0.4693034
-1.8824656 -1.8749249 -0.4208087
-1.8730838 -1.8422824 -0.41611567
-1.8633671 -1.8098327 -0.41142264
-1.8747017 -1.7980891 -0.41142264
-1.8716205 -1.7726908 -0.40829393
-1.8899351 -1.7676429 -0.40985829
-1.9010042 -1.7557333 -0.40985829
-1.9119983 -1.7437543 -0.40985829
-1.9229168 -1.7317065 -0.40985829
-1.9263786 -1.713027 -0.40829393
-1.9371039 -1.7008895 -0.40829393
-1.9402899 -1.6822146 -0.40672961
-1.9507664 -1.6700542 -0.40672961
-1.968619 -1.6643122 -0.40829393
-2.0016935 -1.671007 -0.41298699
-1.9969097 -1.6458335 -0.40985829
-1.9919422 -1.6207212 -0.40672961
-2.0099275 -1.6141833 -0.40829393
-2.0123775 -1.5952768 -0.40672961
-2.022361 -1.5826012 -0.40672961
-2.0322645 -1.5698637 -0.40672961
-2.0342338 -1.551075 -0.40516526
-2.0439394 -1.538263 -0.40516526
-2.0614929 -1.5312798 -0.40672961
-2.0710242 -1.5183642 -0.40672961
-2.0803919 -1.5055033 -0.40672961
-2.0816913 -1.4867759 -0.40516526
-2.0990651 -1.4793568 -0.40672961
-2.1083188 -1.4661388 -0.40672961
-2.109345 -1.447275 -0.40516526
-2.1183968 -1.4339931 -0.40516526
-2.1273649 -1.4206547 -0.40516526
-2.1362953 -1.40719 -0.40516526
-2.1452165 -1.3935522 -0.40516526
-2.1540051 -1.3799289 -0.40516526
-2.1709826 -1.3716433 -0.40672961
-2.1795135 -1.358047 -0.40672961
-2.187886 -1.3445171 -0.40672961
-2.1962178 -1.3308636 -0.40672961
-2.1960576 -1.3119726 -0.40516526
-2.2127683 -1.3031608 -0.40672961
-2.2209125 -1.2892319 -0.40672961
-2.2289691 -1.2752521 -0.40672961
-2.2369378 -1.2612219 -0.40672961
-2.2361841 -1.2423453 -0.40516526
-2.2526097 -1.2330129 -0.40672961
-2.2603123 -1.218835 -0.40672961
-2.2766488 -1.2092422 -0.40829393
-2.27545 -1.1903356 -0.40672961
-2.2828841 -1.176015 -0.40672961
-2.2990367 -1.166116 -0.40829393
-2.3151546 -1.1560602 -0.40985829
-2.3135085 -1.1371341 -0.40829393
-2.3117166 -1.1182745 -0.40672961
-2.3276153 -1.1079726 -0.40829393
-2.3524201 -1.101704 -0.41142264
-2.3413544 -1.0786362 -0.40829393
-2.3660784 -1.0720563 -0.41142264
-2.3637457 -1.0531491 -0.40985829
-2.3793631 -1.0422394 -0.41142264
-2.3949363 -1.0311749 -0.41298699
-3.3456409 -0.28947046 -0.53187716
-3.3277032 -0.26686358 -0.52874851
-3.3194642 -0.24522308 -0.52718413
-2.9433072 0.0048800185 -0.46617469
-2.953095 0.023452396 -0.46773905
-2.982517 0.042427365 -0.47243208
-2.9920664 0.061369475 -0.47399643
-3.0409884 0.081489973 -0.48181814
-3.0404165 0.10059617 -0.48181814
-3.0495934 0.12008541 -0.48338249
-3.0586455 0.13969555 -0.48494685
-3.0675709 0.15942253 -0.48651117
-3.0763688 0.17926881 -0.48807552
-3.1047509 0.2005033 -0.49276856
-3.1132817 0.22070624 -0.49433291
-3.1118338 0.24026228 -0.49433291
-3.1397905 0.26227707 -0.49902594
-3.1479177 0.28288284 -0.50059026
-3.1559198 0.30349684 -0.50215465
-3.1736298 0.32505807 -0.5052833
-3.2010005 0.34802327 -0.50997633
-3.2085629 0.36925715 -0.51154071
-3.2257762 0.39189714 -0.51466936
-3.2428083 0.41494536 -0.51779807
-3.259691 0.43812048 -0.52092677
-3.2764349 0.46134642 -0.52405542
-3.2832589 0.4832547 -0.5256198
-3.2997265 0.50658625 -0.52874851
-3.3160129 0.53024989 -0.53187716
-3.3321021 0.55431515 -0.53500587
-3.3382857 0.57692319 -0.53657019
-3.3637607 0.6031152 -0.54126322
-3.3793056 0.62795734 -0.54439193
-3.4043338 0.65507048 -0.54908496
-3.4098008 0.67856085 -0.55064929
-3.4248192 0.70394796 -0.55377799
-3.4493144 0.7316016 -0.55847102
-3.4639475 0.75747871 -0.56159973
-3.4783905 0.78357035 -0.56472844
-3.5022633 0.81210232 -0.56942147
-3.5163064 0.83867544 -0.57255012
-3.539746 0.86780679 -0.57724315
-3.5533791 0.89485538 -0.58037186
-3.5763741 0.92457962 -0.58506489
-3.5895875 0.95209759 -0.5881936
-3.6216574 0.98500019 -0.59445095
-3.6343923 1.0131592 -0.59757966
-3.6563549 1.0444309 -0.60227269
-3.6781366 1.0757803 -0.60696572
-3.6903253 1.1042123 -0.61009443
-3.7211542 1.1387371 -0.61635178
-3.7327785 1.1679931 -0.61948049
-3.762996 1.2034593 -0.62573785
-3.7835257 1.236281 -0.63043088
-3.8037896 1.26941 -0.63512391
-3.8237863 1.30284 -0.63981694
-3.8528402 1.3398173 -0.64607435
-3.8722713 1.3739058 -0.65076739
-3.9007115 1.411654 -0.65702474
-3.9195638 1.4463921 -0.66171777
-3.9381313 1.4814243 -0.6664108
-3.974858 1.5238155 -0.67423254
-4.0020051 1.5631348 -0.6804899
-4.0196366 1.5992016 -0.68518293
-4.0461793 1.6391284 -0.69144034
-4.0816011 1.6829928 -0.69926202
-4.1074133 1.7238036 -0.70551944
-4.1326799 1.7654543 -0.71177679
-4.1666985 1.8112987 -0.71959853
-4.4457912 2.2394018 -0.78842968
-4.4843898 2.2942839 -0.79781574
-4.5224733 2.3497362 -0.8072018
-4.5599556 2.4059069 -0.81658787
-4.5967717 2.4628959 -0.82597399
-4.6418042 2.5250173 -0.83692437
-4.6777267 2.5827758 -0.84631044
-4.6787248 2.6216192 -0.84943914
-5.210063 3.3657863 -0.9824084
-5.2552118 3.4412901 -0.99492317
1.0227087 2.1073554 0.28761163
1.0447084 2.1186919 0.29004905
1.0713359 2.1387091 0.29370511
1.0982558 2.1584742 0.2973612
1.1254656 2.1779842 0.30101728
1.1483518 2.1884477 0.30345467
1.1714134 2.1987088 0.30589205
1.2040929 2.2262266 0.31076682
1.2323868 2.2447186 0.31442291
1.2657914 2.2716119 0.31929767
1.2947836 2.2894838 0.32295376
1.3192241 2.2984056 0.32539114
1.3537329 2.3243132 0.33026591
1.3834577 2.3413973 0.333922
1.4185525 2.3667119 0.33879676
1.4540193 2.3916767 0.34367153
1.4846457 2.4078393 0.34732762
1.5207943 2.4321263 0.35220239
1.5626209 2.4644351 0.35829586
1.6368252 2.5111244 0.36804542
1.6854032 2.5504749 0.37535757
4.6904392 5.8951063 0.92498833
4.7336149 5.8732471 0.92620701
2.9791946 3.5120134 0.56547374
2.9753296 3.4631116 0.56059897
3.9855709 4.1402197 0.70562351
4.0672965 4.1715989 0.71537304
4.114552 4.1669483 0.71902913
4.435411 4.4357977 0.77021426
4.4559636 4.4010377 0.76899552
4.4760418 4.3664136 0.76777685
5.2141147 4.9593186 0.88355273
5.2381787 4.9194074 0.88233405
5.2617073 4.8796487 0.88111532
5.4752598 5.0140753 0.91158265
6.2207541 5.6253214 1.0297959
6.2633796 5.5927348 1.0310147
7.4036627 6.4455538 1.2052878
7.444015 6.3989081 1.2052878
7.7186599 6.5511122 1.2430673
8.3682709 7.0124846 1.3405627
8.9321909 7.390007 1.4234339
9.2474928 7.5535002 1.4660882
11.799463 6.3912625 1.6476735
11.130075 5.938539 1.5489594
10.525781 5.5314326 1.4599947
9.9875526 5.168282 1.3807796
9.4896326 4.8342319 1.3076581
9.049818 4.5382342 1.2430673
8.6331463 4.2616124 1.1821326
8.2580118 4.0121017 1.1272914
7.9338255 3.7931681 1.0797623
7.6341724 3.5911481 1.0358894
7.3413143 3.3972178 0.99323511
7.055244 3.2114964 0.95179957
6.8485341 3.0663214 0.92133224
6.6222482 2.9155834 0.8884275
6.4309301 2.7832448 0.86039758
6.4574246 2.7466683 0.86161625
6.5111856 2.7213521 0.86649102
6.5374398 2.6839075 0.8677097
6.5636106 2.6459181 0.86892843
6.5802336 2.6043024 0.86892843
6.6149702 2.5700955 0.87136579
6.6402621 2.5320182 0.87258446
6.6560402 2.4902463 0.87258446
6.6808729 2.4517958 0.8738032
6.7054853 2.4131315 0.87502187
4.7642007 1.6809825 0.62031496
4.6901026 1.6222312 0.60934669
3.2523892 0.64177853 0.40704361
3.2076097 0.61202925 0.40095013
3.1625865 0.5828684 0.39485666
3.1270976 0.5560354 0.3899819
3.081615 0.52799553 0.38388842
3.0456986 0.50216413 0.37901366
3.0095809 0.4768056 0.37413889
2.9634535 0.45042908 0.36804542
2.9367592 0.42751095 0.36438933
2.9098952 0.40494621 0.36073324
2.8631864 0.38012356 0.35463977
2.8359768 0.35839295 0.35098371
2.7987537 0.33583692 0.34610894
2.7712226 0.31488353 0.34245285
2.7336709 0.29323092 0.33757809
2.7058334 0.27305934 0.333922
2.6778517 0.25324929 0.33026591
2.6497288 0.23380175 0.32660982
2.6214685 0.21471806 0.32295376
2.5831769 0.19525039 0.31807899
2.574451 0.17833015 0.31686029
2.5457969 0.16037728 0.3132042
2.5170133 0.14291266 0.30954814
2.4881167 0.12571618 0.30589205
2.4690261 0.10920334 0.30345467
2.4399121 0.0924659 0.29979858
2.4206104 0.076295502 0.2973612
2.4012005 0.060466249 0.29492381
2.3816857 0.045002915 0.29248643
2.3521461 0.029751949 0.28883034
2.3423603 0.015113587 0.28761163
2.3126326 0.00050447695 0.28395557
2.2927394 -0.013905764 0.28151819
2.2727573 -0.028066007 0.27908078
2.2526886 -0.041975409 0.2766434
2.2325358 -0.055634048 0.27420601
2.2123008 -0.069041111 0.27176863
2.1919863 -0.082196124 0.26933125
2.1715949 -0.095098607 0.26689386
2.1610413 -0.10824466 0.26567516
2.1404991 -0.12070306 0.26323777
2.1198864 -0.13290764 0.26080039
2.0992057 -0.144858 0.25836301
2.0784652 -0.15647435 0.25592563
2.0675633 -0.16854297 0.25470692
2.0565779 -0.18063916 0.25348824
2.0257406 -0.19094239 0.24983215
2.0146153 -0.20277216 0.24861346
1.9935632 -0.21331427 0.24617606
1.9823298 -0.22464217 0.24495737
1.9611895 -0.23456283 0.24251999
1.9498415 -0.24554424 0.2413013
1.9384205 -0.25648859 0.24008261
1.9171081 -0.26593536 0.23764521
1.9153993 -0.27797562 0.23764521
1.893988 -0.28703046 0.23520783
1.8823433 -0.29737619 0.23398913
1.8706437 -0.30758697 0.23277044
1.849107 -0.31599063 0.23033306
1.8373121 -0.32586926 0.22911437
1.8254665 -0.33561224 0.22789566
1.803821 -0.34336326 0.22545828
1.9299649 -0.61239445 0.24861346
1.9543967 -0.63371396 0.25226954
1.9598552 -0.64893097 0.25348824
1.9745772 -0.66749322 0.25592563
1.9703442 -0.67988658 0.25592563
1.9847577 -0.69884604 0.25836301
1.9896686 -0.71465796 0.25958169
1.0019596 -2.1172993 0.28761163
1.0013916 -2.15046 0.29126772
-1.0161481 -2.2528777 0.30345467
-1.0385586 -2.2644925 0.30589205
-1.0653491 -2.2849095 0.30954814
-1.0924367 -2.305078 0.3132042
-1.1155123 -2.3160532 0.31564158
-1.1431317 -2.3357437 0.31929767
-1.166623 -2.3462901 0.32173505
-1.1992412 -2.3743517 0.32660982
-1.2277271 -2.3932636 0.33026591
-1.2564973 -2.4119101 0.333922
-1.2855499 -2.4302886 0.33757809
-1.3289704 -2.4746289 0.34489024
-1.3492435 -2.4749446 0.34610894
-1.3503507 -2.4403646 0.34245285
-1.3559374 -2.4145234 0.34001547
-1.3710814 -2.4059563 0.34001547
-1.3812029 -2.3887017 0.33879676
-1.391162 -2.3714151 0.33757809
-1.4059439 -2.3626812 0.33757809
-1.4154273 -2.345427 0.33635938
-1.4248403 -2.3280916 0.33514068
-1.4237369 -2.2937939 0.33148462
-1.4328339 -2.2764032 0.33026591
-1.4257491 -2.2338891 0.32539114
-1.6597747 -2.3637848 0.35463977
-1.6168493 -2.2725811 0.34245285
-1.6077687 -2.2302513 0.33757809
-1.6100405 -2.2040758 0.33514068
-1.6238573 -2.1939161 0.33514068
-1.63761 -2.18367 0.33514068
-1.6392885 -2.1575315 0.33270329
-1.6528116 -2.1471894 0.33270329
-1.6601666 -2.1289351 0.33148462
-1.6735103 -2.1184621 0.33148462
-1.6867878 -2.1079054 0.33148462
-1.6937488 -2.0895548 0.33026591
-1.7005461 -2.0712004 0.32904723
-1.7071798 -2.0528433 0.32782853
-1.7200445 -2.0420763 0.32782853
-1.7263994 -2.0236776 0.32660982
-1.7390804 -2.0127904 0.32660982
-1.7516928 -2.0018239 0.32660982
-1.757653 -1.9833498 0.32539114
-1.77008 -1.9722672 0.32539114
-1.7823623 -1.9611744 0.32539114
-1.7877584 -1.9427898 0.32417244
-1.793069 -1.9243453 0.32295376
-1.8119358 -1.9202607 0.32417244
-1.8171083 -1.901662 0.32295376
-1.8221189 -1.8830744 0.32173505
-1.8339146 -1.8715886 0.32173505
-1.8456379 -1.8600289 0.32173505
-1.8502531 -1.8413942 0.32051638
-1.8617864 -1.8297324 0.32051638
-1.8732461 -1.8179984 0.32051638
-1.8846319 -1.8061926 0.32051638
-1.8959433 -1.7943156 0.32051638
-1.8999282 -1.7755905 0.31929767
-1.911047 -1.763618 0.31929767
-1.9220903 -1.7515758 0.31929767
-1.9256797 -1.7328253 0.31807899
-1.943949 -1.7272844 0.31929767
-1.9473025 -1.7084903 0.31807899
-1.9655007 -1.7027202 0.31929767
-1.9760954 -1.6904129 0.31929767
-1.9789488 -1.6717318 0.31807899
-1.9893322 -1.6593622 0.31807899
-1.999719 -1.6468302 0.31807899
-2.0100892 -1.6341566 0.31807899
-2.0204587 -1.6213181 0.31807899
-2.0229046 -1.6023284 0.31686029
-2.0251129 -1.5834733 0.31564158
-2.0507367 -1.5828471 0.31807899
-2.0606415 -1.5699308 0.31807899
-2.0704648 -1.5569525 0.31807899
-2.0722365 -1.5379972 0.31686029
-2.0818009 -1.525026 0.31686029
-2.0831666 -1.5062826 0.31564158
-2.0925167 -1.4932665 0.31564158
-2.1018577 -1.4800894 0.31564158
-2.1111159 -1.4668539 0.31564158
-2.1202905 -1.4535605 0.31564158
-2.1293817 -1.4402096 0.31564158
-2.1301324 -1.4212931 0.31442291
-2.1473651 -1.4132563 0.31564158
-2.1479993 -1.3941441 0.31442291
-2.1651437 -1.3858656 0.31564158
-2.1654155 -1.3669361 0.31442291
-2.1823354 -1.3586324 0.31564158
-2.1907115 -1.345085 0.31564158
-2.1990542 -1.3314017 0.31564158
-2.2073762 -1.3175584 0.31564158
-2.2156112 -1.3036631 0.31564158
-2.2237585 -1.2897164 0.31564158
-2.2318182 -1.2757187 0.31564158
-2.2397897 -1.2616707 0.31564158
-2.2476728 -1.2475728 0.31564158
-2.2641754 -1.2381879 0.31686029
-2.2719104 -1.2239374 0.31686029
-2.2707882 -1.204986 0.31564158
-2.287111 -1.1952918 0.31686029
-2.2857509 -1.176356 0.31564158
-2.3019507 -1.1664574 0.31686029
-2.3181159 -1.1564015 0.31807899
-2.325336 -1.1418136 0.31807899
-2.3324642 -1.1271806 0.31807899
-2.348464 -1.1167656 0.31929767
-2.3554347 -1.1019878 0.31929767
-2.3713284 -1.091316 0.32051638
-2.3690963 -1.0723022 0.31929767
-2.3757868 -1.0573957 0.31929767
-2.3914769 -1.0464262 0.32051638
-2.3980045 -1.0313796 0.32051638
-2.4135795 -1.020157 0.32173505
-2.4199417 -1.004972 0.32173505
-2.4262083 -0.98974729 0.32173505
-2.4415927 -0.97817475 0.32295376
-2.4476905 -0.96281451 0.32295376
-2.4629509 -0.95099145 0.32417244
-2.4688776 -0.93549758 0.32417244
-2.5211973 -0.84810942 0.32660982
-2.5359037 -0.83535701 0.32782853
-2.5411022 -0.81940705 0.32782853
-2.555666 -0.80641145 0.32904723
-2.5606823 -0.79033792 0.32904723
-2.5750997 -0.77710068 0.33026591
-2.5799315 -0.76090556 0.33026591
-2.5941992 -0.74742836 0.33148462
-2.5892894 -0.72842592 0.33026591
-2.603359 -0.71487033 0.33148462
-2.6173255 -0.70129555 0.33270329
-2.6312497 -0.68747413 0.333922
-2.6355174 -0.670928 0.333922
-2.6493149 -0.65674287 0.33514068
-2.653389 -0.64008456 0.33514068
-2.6766846 -0.62793338 0.33757809
-2.6708999 -0.60889751 0.33635938
-2.6843865 -0.59414691 0.33757809
-2.6881168 -0.57703465 0.33757809
-2.7014127 -0.56212604 0.33879676
-2.7145736 -0.5473389 0.34001547
-2.727695 -0.53220242 0.34123415
-2.7407835 -0.51665419 0.34245285
-2.7439811 -0.49939325 0.34245285
-2.7665744 -0.48581511 0.34489024
-2.7695494 -0.46855915 0.34489024
-2.7724385 -0.45114914 0.34489024
-2.7752185 -0.43371981 0.34489024
-2.8073363 -0.42068768 0.34854633
-2.8000994 -0.40163046 0.34732762
-3.0368667 0.044392876 0.37292019
-3.0365279 0.06347391 0.37292019
-3.0459909 0.082820602 0.37413889
-3.0553303 0.10229032 0.37535757
-3.0744627 0.12227346 0.37779495
-3.0736337 0.14158919 0.37779495
-3.0825951 0.16141671 0.37901366
-3.101337 0.18194535 0.38145104
-3.1100371 0.20207065 0.38266972
-3.1285067 0.22301987 0.38510713
-3.1369395 0.24343947 0.38632581
-3.1551294 0.26480559 0.38876319
-3.1731739 0.28640816 0.39120057
-3.1812031 0.30717155 0.39241928
-3.1989856 0.32890689 0.39485666
-3.2166066 0.35099769 0.39729404
-3.2241979 0.37233898 0.39851275
-3.2414846 0.39511609 0.40095013
-3.2585912 0.41828451 0.40338752
-3.2657139 0.44023517 0.40460622
-3.2825394 0.46352017 0.40704361
-3.3090379 0.48835823 0.41069967
-3.3255684 0.51187176 0.41313708
-3.3419132 0.53573698 0.41557446
-3.3482716 0.55835587 0.41679314
-3.3642566 0.58277166 0.41923052
-3.3800666 0.60740846 0.42166793
-3.4054327 0.63421422 0.42532399
-3.4208152 0.65965348 0.42776138
-3.4360371 0.68518436 0.43019879
-3.4511073 0.71076339 0.43263617
-3.4659905 0.73656046 0.43507355
-3.4806852 0.76257068 0.43751094
-3.5048709 0.79098135 0.44116703
-3.5191681 0.81747806 0.44360441
-3.5429235 0.8464939 0.44726047
-3.5568132 0.87347126 0.44969788
-3.5801265 0.90308595 0.45335394
-3.5935991 0.93053776 0.45579132
-3.6164594 0.96074468 0.45944741
-3.6390812 0.99127334 0.4631035
-3.6614215 1.0222663 0.46675956
-3.6739204 1.0510296 0.46919698
-3.6958082 1.0825026 0.47285303
-3.7175534 1.1139281 0.47650912
-3.7390068 1.1458056 0.48016521
-3.760148 1.1781778 0.48382127
-3.7810285 1.2108626 0.48747736
-3.8016465 1.243854 0.49113345
-3.8219969 1.2771538 0.49478951
-3.8514726 1.313961 0.49966431
-3.8712611 1.3479267 0.5033204
-3.9001272 1.3855131 0.50819516
-3.9193397 1.4201357 0.51185125
-3.9475811 1.4584918 0.51672602
-3.975493 1.4972605 0.52160078
-4.0030727 1.5364347 0.52647555
-4.0210714 1.5724015 0.53013164
-4.0479965 1.6123253 0.5350064
-4.0746398 1.6524948 0.53988117
-4.1010208 1.6928585 0.54475594
-4.1269255 1.733924 0.5496307
-4.1522999 1.7757897 0.55450553
-4.1864767 1.8218509 0.56059897
-4.475636 2.2566383 0.61544019
-4.5055404 2.307337 0.62153363
-4.5349836 2.3584971 0.62762713
-4.5814195 2.4195654 0.63615799
-4.6096482 2.472156 0.64225143
-4.6462035 2.5297747 0.64956361
-4.6823401 2.5877221 0.65687573
-4.6747451 2.6217682 0.65809447
-5.2684155 3.3125246 0.76412076
-5.2304692 3.3353453 0.7616834
-5.2010379 3.3628111 0.76046467
-5.2382121 3.4330571 0.76899552
-5.3076501 3.5260601 0.78240114
-5.3759508 3.6203234 0.79580683
-5.6318188 3.8442872 0.83724236
-6.1206141 4.526947 0.93473786
-6.1317644 4.5950737 0.9408313
-6.2213478 4.7235408 0.95911169
-6.1994147 4.7685871 0.96033043
-6.1615 4.8013458 0.95911169
-6.5129523 5.1413074 1.0188277
-6.379745 5.1015463 1.0029846
-6.5172467 5.2789693 1.0297959
-6.6220675 5.4331374 1.0517324
-6.7404733 5.6015105 1.0761063
-6.8570151 5.7715845 1.1004802
-6.9792366 5.9497743 1.1260728
-7.1067576 6.1364856 1.152884
-7.2393546 6.3319263 1.1809139
-6.8053532 6.0288134 1.1163231
-7.5135212 6.7409019 1.2394112
-7.6620164 6.9615169 1.2710972
-7.640039 7.0296807 1.2747533
-7.9808717 7.4358554 1.339344
-8.1007023 7.6418128 1.3673741
-8.1964531 7.8292785 1.3917478
-8.53234 8.2532597 1.4575573
-8.7636061 8.5848618 1.5063051
-8.9976225 8.9271326 1.5562714
-9.227973 9.2723732 1.6062379
-9.4826059 9.6487255 1.6610792
1.0145584 2.1222978 -0.28883034
1.0408843 2.1426647 -0.29248643
1.0631124 2.153883 -0.29492381
1.0899712 2.1737785 -0.29857987
1.1126168 2.184576 -0.30101728
1.1400009 2.20399 -0.30467334
1.1676723 2.2231452 -0.30832943
1.1909584 2.2332807 -0.31076682
1.2285937 2.2693958 -0.31686029
1.2571688 2.2877271 -0.32051638
1.2811874 2.2971199 -0.32295376
1.3152528 2.3235185 -0.32782853
1.3448608 2.3409116 -0.33148462
1.3746405 2.3580806 -0.33514068
1.4096394 2.38357 -0.34001547
1.4399061 2.4002001 -0.34367153
1.4807556 2.433501 -0.349765
1.5116541 2.4494889 -0.35342109
1.5480771 2.4735968 -0.35829586
1.5848619 2.4973426 -0.36317062
1.627376 2.5290692 -0.3692641
1.6649272 2.5520458 -0.37413889
5.0838981 5.4104896 -0.91158265
5.1104822 5.371695 -0.91036397
4.4301348 4.483027 -0.77387029
4.4441729 4.4410715 -0.77143294
4.471797 4.4132557 -0.77143294
5.1987052 5.004137 -0.88599008
5.2232838 4.9640799 -0.88477141
5.2545857 4.930934 -0.88477141
5.4237885 5.026001 -0.90792662
7.0723662 3.2693899 -0.95667434
6.8396425 3.1101594 -0.92255092
6.623209 2.9623573 -0.89086491
6.4325953 2.8290696 -0.86283493
6.4593544 2.7925353 -0.86405361
6.504178 2.7635393 -0.8677097
6.5305724 2.7264428 -0.86892843
6.5568748 2.6888363 -0.87014711
6.5738702 2.647012 -0.87014711
6.590486 2.6053672 -0.87014711
6.6067257 2.5639067 -0.87014711
6.6412559 2.5294104 -0.87258446
6.6663151 2.4911067 -0.8738032
6.6911545 2.4525881 -0.87502187
3.2388263 0.65894675 -0.4058249
3.2039487 0.63091302 -0.40095013
3.1590981 0.6014874 -0.39485666
3.114006 0.57265073 -0.38876319
3.0686784 0.5444048 -0.38266972
3.0426877 0.52009606 -0.37901366
3.0067201 0.49452478 -0.37413889
2.9607487 0.46787742 -0.36804542
2.9243767 0.44331482 -0.36317062
2.8976369 0.42065391 -0.35951456
2.8608978 0.39698252 -0.35463977
2.8338165 0.375092 -0.35098371
2.7967269 0.35231707 -0.34610894
2.7693198 0.33120188 -0.34245285
2.7417586 0.31044516 -0.33879676
2.7041781 0.28899327 -0.333922
2.6763134 0.26901871 -0.33026591
2.6483057 0.24940586 -0.32660982
2.6201582 0.23015569 -0.32295376
2.5918746 0.21126953 -0.31929767
2.5634584 0.19274761 -0.31564158
2.5448148 0.17527319 -0.3132042
2.5260468 0.15815108 -0.31076682
2.4972491 0.14082037 -0.30711073
2.4782531 0.12424216 -0.30467334
2.4492369 0.10736444 -0.30101728
2.4300301 0.09112253 -0.29857987
2.4007993 0.074714273 -0.29492381
2.3714569 0.058785439 -0.29126772
2.3519318 0.043516818 -0.28883034
2.3323081 0.028597755 -0.28639296
2.3125899 0.014025976 -0.28395557
2.2927816 -0.00040018992 -0.28151819
2.262958 -0.014613796 -0.2778621
2.2528968 -0.028705567 -0.2766434
2.2328248 -0.04248238 -0.27420601
2.2126691 -0.056008406 -0.27176863
2.1924326 -0.069282845 -0.26933125
2.1820357 -0.082681052 -0.26811254
2.1517258 -0.095075086 -0.26445648
2.1312602 -0.10759197 -0.2620191
2.1206326 -0.12041818 -0.26080039
2.1000226 -0.13249016 -0.25836301
2.089247 -0.14499514 -0.2571443
2.0685074 -0.15653023 -0.25470692
2.0576055 -0.16853331 -0.25348824
2.0466189 -0.18058556 -0.25226954
2.0256643 -0.19174917 -0.24983215
2.0046604 -0.20256539 -0.24739476
1.9934794 -0.2140971 -0.24617606
1.9723809 -0.22428831 -0.24373868
1.9610986 -0.23532224 -0.24251999
1.9497449 -0.24630989 -0.2413013
1.9383196 -0.25724974 -0.24008261
1.9170034 -0.26668817 -0.23764521
1.905468 -0.27729836 -0.23642652
1.8938752 -0.28777418 -0.23520783
1.8822265 -0.29811531 -0.23398913
1.8607296 -0.30670726 -0.23155175
1.8489827 -0.3167167 -0.23033306
1.8274118 -0.32485354 -0.22789566
1.8253345 -0.33632904 -0.22789566
1.9525446 -0.6067481 -0.25105083
1.9675585 -0.62518591 -0.25348824
1.9635916 -0.63753575 -0.25348824
1.9690249 -0.65281332 -0.25470692
1.9743149 -0.6682685 -0.25592563
1.9888397 -0.68714273 -0.25836301
2.0032046 -0.70622563 -0.26080039
1.0646418 -0.99766916 -0.17914793
1.0511527 -0.99750656 -0.17792924
1.0448647 -1.0040911 -0.17792924
1.0314217 -1.0037144 -0.17671055
1.0250951 -1.010175 -0.17671055
1.0257533 -1.0236071 -0.17792924
1.0053828 -1.015878 -0.17549185
1.0060073 -1.0291854 -0.17671055
-1.0170324 -2.2524786 -0.30345467
-1.039448 -2.2640843 -0.30589205
-1.066246 -2.2844911 -0.30954814
-1.0933421 -2.3046489 -0.3132042
-1.1164213 -2.3156152 -0.31564158
-1.1440492 -2.3352945 -0.31929767
-1.1719664 -2.3547177 -0.32295376
-1.1956955 -2.3650229 -0.32539114
-1.2286664 -2.3927815 -0.33026591
-1.2574446 -2.4114163 -0.333922
-1.2911482 -2.4385555 -0.33879676
-1.3064451 -2.4303946 -0.33879676
-1.3216892 -2.4221385 -0.33879676
-1.3368825 -2.4137857 -0.33879676
-1.3471583 -2.3966863 -0.33757809
-1.3572735 -2.3795528 -0.33635938
-1.3672253 -2.3623877 -0.33514068
-1.3820423 -2.3537502 -0.33514068
-1.6547226 -2.4516118 -0.36317062
-1.6758051 -2.449285 -0.36438933
-1.6911606 -2.4387078 -0.36438933
-1.7120515 -2.4362288 -0.36560804
-1.73287 -2.4336598 -0.36682671
-1.7422137 -2.4147511 -0.36560804
-1.7104895 -2.3396561 -0.35585847
-1.6956152 -2.2889853 -0.349765
-1.7099644 -2.2782857 -0.349765
-1.7602917 -2.3149016 -0.35707718
-1.7990313 -2.3352468 -0.36195195
-1.8136685 -2.3238971 -0.36195195
-1.8220778 -2.3046701 -0.36073324
-1.848932 -2.30867 -0.36317062
-1.8759066 -2.3124242 -0.36560804
-1.8714955 -2.2775855 -0.36195195
-1.8857684 -2.2657821 -0.36195195
-1.9127624 -2.2690659 -0.36438933
-1.926981 -2.2570035 -0.36438933
-1.9346325 -2.2373431 -0.36317062
-1.9290341 -2.2027431 -0.35951456
-1.929665 -2.1757271 -0.35707718
-1.9499291 -2.1709445 -0.35829586
-1.9701157 -2.1660779 -0.35951456
-1.9902222 -2.1611309 -0.36073324
-2.010437 -2.15593 -0.36195195
-1.916306 -1.9297324 -0.333922
-1.8650522 -1.8546647 -0.32295376
-1.8625045 -1.8290014 -0.32051638
-1.8739601 -1.8172624 -0.32051638
-1.8781722 -1.7985879 -0.31929767
-1.8822248 -1.7799313 -0.31807899
-1.8933707 -1.7680705 -0.31807899
-1.9044429 -1.7561387 -0.31807899
-1.9154389 -1.7441386 -0.31807899
-1.9263602 -1.7320687 -0.31807899
-1.9372046 -1.7199314 -0.31807899
-1.9479735 -1.7077252 -0.31807899
-1.95116 -1.6889565 -0.31686029
-1.9616606 -1.676749 -0.31686029
-1.9720113 -1.6645632 -0.31686029
-1.9823594 -1.652226 -0.31686029
-1.9850368 -1.6334317 -0.31564158
-1.995332 -1.6208395 -0.31564158
-2.0056167 -1.6080959 -0.31564158
-2.0235333 -1.6015342 -0.31686029
-2.0335562 -1.5887885 -0.31686029
-2.0434983 -1.5759805 -0.31686029
-2.0533605 -1.5631092 -0.31686029
-2.0552056 -1.5442151 -0.31564158
-2.064868 -1.5312709 -0.31564158
-2.0743821 -1.5183574 -0.31564158
-2.0837498 -1.5054758 -0.31564158
-2.0931029 -1.4924444 -0.31564158
-2.094321 -1.4735528 -0.31442291
-2.111692 -1.4660245 -0.31564158
-2.1126723 -1.4471191 -0.31442291
-2.1299472 -1.4393731 -0.31564158
-2.1306901 -1.4204569 -0.31442291
-2.1396346 -1.4069479 -0.31442291
-2.1485541 -1.3932889 -0.31442291
-2.1573257 -1.379668 -0.31442291
-2.1659522 -1.3660853 -0.31442291
-2.1744335 -1.3525449 -0.31442291
-2.1743116 -1.3338559 -0.3132042
-2.1910841 -1.3254012 -0.31442291
-2.2481623 -1.2466904 -0.31564158
-2.2559514 -1.2325397 -0.31564158
-2.2636507 -1.2183414 -0.31564158
-2.2800307 -1.2087429 -0.31686029
-2.2963786 -1.1989877 -0.31807899
-2.2950399 -1.1799965 -0.31686029
-2.3112638 -1.1700366 -0.31807899
-2.3185699 -1.1554909 -0.31807899
-2.325784 -1.1409007 -0.31807899
-2.3418453 -1.1305795 -0.31929767
-2.339937 -1.1115847 -0.31807899
-2.3558671 -1.1010624 -0.31929767
-2.3537204 -1.0820931 -0.31807899
-2.3695173 -1.0713716 -0.31929767
-2.3852713 -1.0604953 -0.32051638
-2.3918877 -1.0454867 -0.32051638
-2.3984091 -1.0304381 -0.32051638
-2.4048362 -1.0153482 -0.32051638
-2.4111683 -1.0002182 -0.32051638
-2.4174051 -0.98504937 -0.32051638
-2.4235468 -0.96984035 -0.32051638
-2.4295924 -0.95459431 -0.32051638
-2.4540637 -0.94645238 -0.32295376
-2.4599617 -0.93101507 -0.32295376
-2.4750679 -0.91899461 -0.32417244
-2.4901192 -0.9068222 -0.32539114
-2.4957681 -0.89115787 -0.32539114
-2.4919496 -0.87218076 -0.32417244
-2.4692147 -0.84684575 -0.32051638
-2.5215302 -0.84711969 -0.32660982
-2.5268033 -0.83125913 -0.32660982
-2.531976 -0.8153671 -0.32660982
-2.5465159 -0.80242449 -0.32782853
-2.5515072 -0.7864092 -0.32782853
-2.5659015 -0.77322531 -0.32904723
-2.570709 -0.75708872 -0.32904723
-2.5849538 -0.7436651 -0.33026591
-2.9676001 0.025897615 -0.36438933
-2.9971516 0.044990711 -0.36804542
-3.0166564 0.064243242 -0.3704828
-3.0261147 0.083470568 -0.37170148
-3.0354505 0.10281767 -0.37292019
-3.044662 0.12228698 -0.37413889
-3.0537481 0.14187446 -0.37535757
-3.0726199 0.1621055 -0.37779495
-3.081449 0.18199241 -0.37901366
-3.1000533 0.20264572 -0.38145104
-3.108619 0.22282866 -0.38266972
-3.1269481 0.24390069 -0.38510713
-3.1451347 0.26521012 -0.38754451
-3.1532915 0.28586155 -0.38876319
-3.1613255 0.3064878 -0.3899819
-3.1791117 0.32810935 -0.39241928
-3.1967356 0.35009924 -0.39485666
-3.2141917 0.37246379 -0.39729404
-3.2314751 0.39520091 -0.39973143
-3.2387362 0.41704577 -0.40095013
-3.2557049 0.44018722 -0.40338752
-3.2725294 0.46341878 -0.4058249
-3.2892115 0.48673365 -0.40826228
-3.3057508 0.51013374 -0.41069967
-3.3123035 0.53232402 -0.41191837
-3.3382621 0.55803549 -0.41557446
-3.3542485 0.5823943 -0.41801184
-3.3602912 0.60521835 -0.41923052
-3.3856659 0.63192868 -0.42288661
-3.401062 0.65724981 -0.42532399
-3.4163017 0.68264341 -0.42776138
-3.4313862 0.70810795 -0.43019879
-3.4559932 0.73585397 -0.43385485
-3.4706905 0.76181084 -0.43629223
-3.485198 0.78797942 -0.43872961
-3.4995122 0.81436211 -0.44116703
-3.5232852 0.84326398 -0.44482309
-3.5371933 0.8701275 -0.44726047
-3.5605257 0.8996284 -0.45091656
-3.5740178 0.92696661 -0.45335394
-3.5968983 0.95705992 -0.45701003
-3.6195402 0.98747897 -0.46066612
-3.632338 1.0157043 -0.4631035
-3.6544182 1.0470257 -0.46675956
-3.6763403 1.0783463 -0.47041565
-3.6981084 1.1096623 -0.47407174
-3.7195792 1.1414496 -0.47772783
-3.7407444 1.173713 -0.48138389
-3.7616503 1.2062851 -0.48503998
-3.7822928 1.2391678 -0.48869607
-3.8120828 1.2755047 -0.49357083
-3.8227782 1.3058494 -0.49600822
-3.8426149 1.339644 -0.49966431
-3.8715277 1.3770673 -0.50453907
-3.900121 1.4149042 -0.50941384
-3.9283895 1.4531565 -0.5142886
-3.9470434 1.4883151 -0.51794469
-3.9746737 1.5273275 -0.52281946
-4.0019689 1.5667431 -0.52769423
-4.0289235 1.6065637 -0.53256905
-4.0556068 1.6466049 -0.53744382
-4.0820189 1.686865 -0.54231858
-4.1079359 1.7278715 -0.54719335
-4.1424675 1.7735374 -0.55328679
-4.4481659 2.2449811 -0.6117841
-4.4958014 2.3045778 -0.62031496
-4.5252519 2.3556967 -0.6264084
-4.571682 2.4167495 -0.63493925
-4.6086631 2.4739923 -0.64225143
-4.6452103 2.5315983 -0.64956361
-4.6813226 2.5895624 -0.65687573
-4.6564198 2.6138613 -0.65565705
-4.9415331 2.855294 -0.70074874
-4.9919953 2.9264443 -0.71049827
-5.2754974 3.3199069 -0.76533943
-5.2458735 3.3481085 -0.76412076
-5.1997352 3.3648248 -0.76046467
-5.2202835 3.4241974 -0.76655817
-5.2897348 3.5171523 -0.77996379
-5.3662968 3.616889 -0.79458809
-6.249063 4.6868129 -0.95911169
-6.2511039 4.7500029 -0.96398652
-6.1674418 4.8098679 -0.96033043
-6.338995 5.0730414 -0.9968912
1.0193499 2.0962415 0.36918533
1.0456258 2.1163604 0.37387836
1.0677637 2.1274037 0.37700707
1.0945672 2.1470509 0.3817001
1.1216592 2.1664443 0.38639313
1.1490376 2.185581 0.39108616
1.1767001 2.2044582 0.39577919
1.2046448 2.2230728 0.40047222
1.2328693 2.2414224 0.40516526
1.2613713 2.2595041 0.40985829
1.2951293 2.285845 0.41611567
1.3195119 2.2946727 0.41924435
1.3588789 2.3289404 0.42706609
1.3835473 2.3373551 0.43019477
1.4185433 2.3624868 0.43645215
1.4487717 2.378834 0.44114518
1.4844512 2.4032969 0.44740257
1.5204945 2.4274037 0.45365995
1.636176 2.5058243 0.47399643
1.6845989 2.5449102 0.48338249
2.9673574 3.4924953 0.72585589
2.9763579 3.4588089 0.72272724
3.8480053 4.041554 0.88385469
3.9830549 4.1310172 0.90888423
4.0713964 4.169157 0.92296332
4.118505 4.1644049 0.92765635
4.4311461 4.4245777 0.99179447
4.4516106 4.3899322 0.99023014
4.478725 4.3622665 0.99023014
5.2211719 4.958118 1.1404072
5.2452044 4.9182587 1.1388429
5.2687559 4.8784947 1.1372786
5.4815359 5.0119133 1.1763872
6.2093644 5.6061635 1.3249999
6.4350066 5.6647444 1.3578511
6.8282862 5.935216 1.4329396
7.2476897 6.2202549 1.5127213
7.7387471 6.5577121 1.6065819
8.3403673 6.9779587 1.7223434
8.962781 7.4034662 1.8412336
9.6214657 7.8463778 1.9663812
11.123828 5.9239869 1.9961038
10.522318 5.5190711 1.8819066
9.9690895 5.1486683 1.7770954
9.4910374 4.8254318 1.6863635
9.0267353 4.5177898 1.5987602
8.6385212 4.2558312 1.525236
8.2651634 4.007556 1.4548405
7.9425282 3.7896681 1.393831
7.6353755 3.5843933 1.3359503
7.343904 3.3914161 1.2811983
7.0861344 3.2189348 1.2327036
6.8714828 3.07021 1.1920305
6.6463695 2.9199739 1.1497933
6.4288311 2.7763436 1.1091204
6.4825158 2.7513309 1.1153777
6.5087905 2.7143483 1.116942
6.5349879 2.6768222 1.1185064
6.5519075 2.6351376 1.1185064
6.5959945 2.6045504 1.1231995
6.621438 2.5666249 1.1247637
6.637434 2.5249708 1.1247637
6.6531677 2.483217 1.1247637
6.6779137 2.4447606 1.1263281
6.7024388 2.406091 1.1278925
4.7514939 1.6723623 0.79781574
4.6964068 1.6203407 0.78686535
3.335058 0.69900846 0.5396989
3.2909873 0.66821331 0.53187716
3.2466631 0.63799995 0.52405542
3.1669917 0.58110893 0.50997633
3.1219518 0.55259144 0.50215465
3.0766807 0.52466315 0.49433291
3.04093 0.49892509 0.48807552
2.9952228 0.47211975 0.48025379
2.9590664 0.44738492 0.47399643
2.9324942 0.42453843 0.4693034
2.8959689 0.40069002 0.46304601
2.8592613 0.37731755 0.45678863
2.822376 0.35442239 0.45053124
2.7951248 0.33317485 0.44583821
2.7677193 0.3122839 0.44114518
2.7303412 0.29070494 0.4348878
2.7026305 0.27059212 0.43019477
2.6747763 0.25083914 0.42550173
2.6467814 0.23144697 0.4208087
2.6186497 0.21241693 0.41611567
2.5903847 0.19374928 0.41142264
2.5619895 0.1754453 0.40672961
2.5334599 0.15763035 0.40203658
2.5146651 0.14082566 0.39890787
2.4859014 0.123647 0.39421484
2.4668941 0.10716791 0.39108616
2.4379129 0.090446137 0.38639313
2.4186952 0.0743073 0.38326442
2.3993688 0.058534581 0.38013574
2.3700633 0.042921305 0.37544271
2.3505325 0.027910901 0.37231401
2.3309069 0.013234456 0.36918533
2.3111904 -0.0013109685 0.36605665
2.2913833 -0.015697189 0.36292794
2.2714872 -0.029834561 0.35979927
2.2515049 -0.043722246 0.35667059
2.2314386 -0.057360325 0.35354188
2.2014186 -0.070432149 0.34884885
2.1811934 -0.08350689 0.34572017
2.1707585 -0.096770152 0.34415582
2.1503794 -0.10940375 0.34102714
2.1299279 -0.12178512 0.33789843
2.1094067 -0.13391384 0.33476976
2.0986707 -0.14647725 0.3332054
2.0780199 -0.15805936 0.33007672
2.0573134 -0.1693114 0.32694802
2.0463688 -0.18138489 0.32538369
2.0156741 -0.19161324 0.32069066
2.0144227 -0.20435096 0.32069066
1.9934589 -0.21488675 0.31756195
1.9822673 -0.22619009 0.3159976
1.9612156 -0.23610668 0.31286892
1.9499043 -0.247108 0.31130457
1.9287323 -0.25674808 0.30817589
1.9172988 -0.26749676 0.30661154
1.9058069 -0.27811196 0.30504721
1.8942577 -0.28859335 0.30348286
1.8728976 -0.29739174 0.30035415
1.8612473 -0.3075434 0.29878983
1.8495438 -0.31756046 0.29722548
1.8377883 -0.32744268 0.29566112
1.8162693 -0.33539617 0.29253244
1.8044249 -0.34494692 0.29096809
1.929445 -0.61392128 0.32069066
1.9537354 -0.63517207 0.32538369
1.9591362 -0.65037692 0.32694802
1.9643908 -0.66576928 0.32851237
1.9695029 -0.68132776 0.33007672
1.9838105 -0.70026422 0.3332054
1.9979571 -0.71940714 0.33633408
-1.0170032 -2.250057 0.39108616
-1.0393695 -2.2615714 0.39421484
-1.0661012 -2.2818415 0.39890787
-1.0931281 -2.3018639 0.4036009
-1.1161553 -2.3127406 0.40672961
-1.1437106 -2.3322859 0.41142264
-1.1715553 -2.3515751 0.41611567
-1.195227 -2.361793 0.41924435
-1.2281033 -2.3893745 0.42550173
-1.2568024 -2.4078789 0.43019477
-1.285782 -2.4261158 0.4348878
-1.3290795 -2.4701757 0.44427386
-1.3493081 -2.4704444 0.44583821
-1.3504373 -2.436003 0.44114518
-1.3560305 -2.4102538 0.4380165
-1.3711478 -2.401686 0.4380165
-1.38126 -2.3844769 0.43645215
-1.3912106 -2.3672359 0.4348878
-1.6421084 -2.3347783 0.4520956
-1.6106869 -2.2602117 0.43958083
-1.6016423 -2.2180786 0.43332347
-1.6097149 -2.2000005 0.43175912
-1.6176237 -2.1819088 0.43019477
-1.631301 -2.1717019 0.43019477
-1.644914 -2.1614094 0.43019477
-1.6524307 -2.1432099 0.42863044
-1.6658642 -2.1327851 0.42863044
-1.6669748 -2.1067851 0.42550173
-1.6801791 -2.0962696 0.42550173
-1.6870917 -2.0780036 0.42393738
-1.7001148 -2.0673623 0.42393738
-1.7130708 -2.0566394 0.42393738
-1.7195903 -2.038286 0.42237306
-1.7323632 -2.0274415 0.42237306
-1.7386045 -2.009048 0.4208087
-1.7511934 -1.9980845 0.4208087
-1.7571565 -1.9796553 0.41924435
-1.7695603 -1.9685757 0.41924435
-1.7817984 -1.9575057 0.41924435
-1.7805052 -1.9319029 0.41611567
-1.7925354 -1.9207458 0.41611567
-1.8045678 -1.9094456 0.41611567
-1.8165295 -1.8980696 0.41611567
-1.8352933 -1.8937111 0.41768003
-1.8402374 -1.8750931 0.41611567
-1.8450202 -1.856488 0.41455132
-1.8566484 -1.8448588 0.41455132
-1.8611535 -1.8262392 0.41298699
-1.8796844 -1.8213824 0.41455132
-1.8839551 -1.8027077 0.41298699
-1.8952446 -1.7908349 0.41298699
-1.9064593 -1.7788914 0.41298699
-1.9103351 -1.760185 0.41142264
-1.9286624 -1.7547942 0.41298699
-1.9396501 -1.7426416 0.41298699
-1.9431726 -1.7238654 0.41142264
-1.9465359 -1.705114 0.40985829
-1.9646813 -1.6993113 0.41142264
-1.9752369 -1.6870301 0.41142264
-1.9781015 -1.6683916 0.40985829
-1.9884818 -1.6560062 0.40985829
-1.9988474 -1.6434796 0.40985829
-2.0092146 -1.6307892 0.40985829
-2.0118544 -1.6117809 0.40829393
-2.0220027 -1.5990313 0.40829393
-2.0320094 -1.5862957 0.40829393
-2.0419362 -1.5734969 0.40829393
-2.0596435 -1.5666156 0.40985829
-2.0615475 -1.5477136 0.40829393
-2.0712314 -1.5347301 0.40829393
-2.0807588 -1.5217879 0.40829393
-2.0901477 -1.5088667 0.40829393
-2.0914857 -1.4900532 0.40672961
-2.1088867 -1.482563 0.40829393
-2.1181602 -1.4692832 0.40829393
-2.1273501 -1.4559455 0.40829393
-2.136456 -1.4425503 0.40829393
-2.1372576 -1.4236226 0.40672961
-2.154484 -1.415484 0.40829393
-2.1634576 -1.4017301 0.40829393
-2.1722751 -1.3880264 0.40829393
-2.1809533 -1.3743502 0.40829393
-2.1894789 -1.3607272 0.40829393
-2.1978676 -1.3471354 0.40829393
-2.2062373 -1.3333839 0.40829393
-2.2230566 -1.324551 0.40985829
-2.2228186 -1.3055549 0.40829393
-2.2309778 -1.2915628 0.40829393
-2.2390487 -1.2775198 0.40829393
-2.2470315 -1.2634263 0.40829393
-2.2549253 -1.2492828 0.40829393
-2.2627304 -1.2350901 0.40829393
-2.279145 -1.2255263 0.40985829
-2.2868001 -1.2111819 0.40985829
-2.2943649 -1.1967896 0.40985829
-2.3106251 -1.1868629 0.41142264
-2.3180366 -1.1723216 0.41142264
-2.316515 -1.1533318 0.40985829
-2.3325851 -1.1431004 0.41142264
-2.3486176 -1.1327124 0.41298699
-2.3556881 -1.1179333 0.41298699
-2.3626659 -1.1031101 0.41298699
-2.3695502 -1.0882434 0.41298699
-2.3853424 -1.0773993 0.41455132
-2.3920648 -1.0623904 0.41455132
-2.3986926 -1.0473398 0.41455132
-2.4143023 -1.0361431 0.41611567
-2.4025633 -1.0132775 0.41298699
-2.4271317 -1.0057236 0.41611567
-2.4334028 -0.99045372 0.41611567
-2.4487493 -0.97881073 0.41768003
-2.4548509 -0.96340549 0.41768003
-2.4608557 -0.94796228 0.41768003
-2.4667633 -0.93248165 0.41768003
-2.5282478 -0.84827143 0.42237306
-2.5241442 -0.82928646 0.4208087
-2.5481102 -0.81945813 0.42393738
-2.5532086 -0.80343181 0.42393738
-2.5582063 -0.78737372 0.42393738
-2.572561 -0.77413064 0.42550173
-2.5773742 -0.75795156 0.42550173
-2.5915785 -0.74446958 0.42706609
-2.605715 -0.73083889 0.42863044
-2.6102204 -0.71458024 0.42863044
-2.6145978 -0.69839412 0.42863044
-2.6284661 -0.68454206 0.43019477
-2.6422889 -0.67044264 0.43175912
-2.6464493 -0.65382749 0.43175912
-2.6505053 -0.63718587 0.43175912
-2.6736915 -0.62501699 0.4348878
-2.6775656 -0.60820615 0.4348878
-2.6910086 -0.59336519 0.43645215
-2.6947339 -0.5762108 0.43645215
-2.7079663 -0.56130213 0.4380165
-2.7113922 -0.54451257 0.4380165
-2.7244613 -0.52931982 0.43958083
-2.7471926 -0.5155974 0.44270954
-2.7600913 -0.50011718 0.44427386
-2.7728662 -0.48470661 0.44583821
-2.8087232 -0.38262552 0.44896692
-2.8208666 -0.36624125 0.45053124
-2.9478748 -0.17707253 0.46773905
-2.9489291 -0.1585463 0.46773905
-2.9893303 -0.14188848 0.47399643
-3.0022163 0.04624553 0.47556075
-3.0314903 0.065751329 0.48025379
-3.0408902 0.085072756 0.48181814
-3.0501668 0.10451651 0.48338249
-3.0790563 0.12487906 0.48807552
-3.0782108 0.1442236 0.48807552
-3.0871069 0.16408505 0.48963988
-3.0958743 0.1840656 0.4912042
-3.114368 0.20480925 0.49433291
-3.1228709 0.22508414 0.49589723
-3.1410885 0.24624419 0.49902594
-3.1493211 0.26680821 0.50059026
-3.1574187 0.28748539 0.50215465
-3.1850562 0.31003517 0.50684768
-3.1928985 0.33078185 0.508412
-3.2104061 0.3528735 0.51154071
-3.2277472 0.37531874 0.51466936
-3.2351093 0.39695185 0.51623374
-3.252106 0.42008284 0.51936239
-3.26896 0.44328791 0.5224911
-3.2856679 0.46659502 0.5256198
-3.3022349 0.4899694 0.52874851
-3.3088963 0.511931 0.53031284
-3.3348882 0.53729844 0.53500587
-3.3411877 0.55987287 0.53657019
-3.3667955 0.58593631 0.54126322
-3.3727677 0.60883248 0.54282761
-3.39797 0.63562626 0.54752064
-3.4229422 0.66289294 0.55221367
-3.4283681 0.68645602 0.55377799
-3.4433322 0.71198243 0.5569067
-3.4677689 0.73978639 0.56159973
-3.4823453 0.76580203 0.56472844
-3.4967306 0.79203176 0.56785709
-3.5205421 0.82071286 0.57255012
-3.5345252 0.84742326 0.57567883
-3.5579011 0.87670279 0.58037186
-3.5714722 0.90388787 0.58350056
-3.5944014 0.93375939 0.5881936
-3.6170945 0.96395636 0.59288663
-3.630022 0.99186981 0.59601527
-3.6522012 1.0228276 0.60070831
-3.6740928 1.0542446 0.6054014
-3.6958375 1.0856196 0.61009443
-3.7174172 1.1170254 0.61478746
-3.7292511 1.1460217 0.61791611
-3.7502453 1.1783113 0.62260914
-3.7803833 1.2139314 0.62886655
-3.8008361 1.2468954 0.63355958
-3.8303871 1.2833037 0.63981694
-3.8409395 1.3137372 0.64294565
-3.869909 1.3508658 0.649203
-3.8892589 1.3850943 0.65389603
-3.9176126 1.4229928 0.66015345
-3.9456432 1.4612998 0.6664108
-3.9641042 1.4965283 0.67110384
-3.9914966 1.5355904 0.67736125
-4.0185518 1.5750574 0.68361861
-4.0452685 1.6149222 0.68987596
-4.0717225 1.6549848 0.69613338
-4.0978966 1.6952845 0.70239073
-4.1326594 1.7402086 0.71021247
-4.1668806 1.7859542 0.71803421
-4.1826682 1.8241032 0.72272724
-4.2252955 1.8743769 0.7321133
-4.430634 2.2034836 0.78373665
-4.4695969 2.2579992 0.79312271
-4.5080462 2.3130927 0.80250877
-4.545979 2.3687551 0.81189483
-4.5832682 2.4252112 0.82128096
-4.6112285 2.4777334 0.82910264
-4.6561675 2.5399442 0.84005308
-4.6833215 2.5930696 0.84787476
-5.2650757 3.3162775 0.98553711
-5.2355199 3.3444328 0.98397279
-5.2061496 3.3718364 0.9824084
-5.2512107 3.4473927 0.99492317
-5.3118048 3.5348384 1.0105666
-5.3713717 3.6233766 1.0262101
-6.799768 4.6493664 1.3046634
-6.7785401 4.6976228 1.3062278
-6.7163281 4.7177444 1.2999704
-6.6620011 4.7432475 1.2952774
-6.5517898 4.7274718 1.2796339
-6.0754671 4.44209 1.1920305
-6.0871167 4.5095744 1.1998523
-6.0744619 4.5595884 1.202981
-6.0456924 4.5976672 1.202981
-6.1105747 4.7078972 1.2217531
-6.1665187 4.8130474 1.238961
-6.3143535 4.9925914 1.2749408
-6.4370389 5.1556573 1.3062278
-6.5349107 5.3017855 1.3328216
-6.6464543 5.4618878 1.3625442
-6.7562408 5.6235933 1.3922668
-6.8793521 5.7996254 1.425118
-7.000515 5.9774175 1.4579692
-7.1194038 6.1573081 1.4908204
-7.2509079 6.3522296 1.5268004
-6.7894945 6.0242906 1.4376327
-7.5375948 6.7731957 1.6050175
-7.6848159 6.9932613 1.6456906
-7.8440919 7.2288198 1.6894922
-8.0155115 7.4797335 1.7364225
-8.184391 7.732748 1.7833529
-8.3785906 8.0158548 1.8365406
-8.5621567 8.2951317 1.8881639
-8.7844095 8.6189594 1.9491735
1.0156569 2.1203146 -0.20568755
1.0420392 2.1407626 -0.20830221
1.0643017 2.1520324 -0.21004534
1.0912188 2.1720076 -0.21266001
1.1184285 2.1917286 -0.21527468
1.1413448 2.2023478 -0.2170178
1.1737167 2.2303963 -0.22050403
1.1970965 2.2405505 -0.22224714
1.2253994 2.2592552 -0.22486182
1.253984 2.2776916 -0.22747648
1.2877073 2.3045533 -0.23096271
1.3121156 2.3136768 -0.23270583
1.3467056 2.339807 -0.23619206
1.381552 2.3656645 -0.23967829
1.4116219 2.3826494 -0.24229296
1.4470906 2.4078872 -0.24577919
1.4829315 2.4327724 -0.24926542
1.5191413 2.4573007 -0.25275165
1.5504255 2.4730282 -0.25536633
1.5926558 2.5052726 -0.25972411
2.9528956 3.5172536 -0.40178797
