# .PCD v0.7 - Point Cloud Data file format
VERSION 0.7
FIELDS x y z
SIZE 4 4 4
TYPE F F F
COUNT 1 1 1
WIDTH 1473
HEIGHT 1
VIEWPOINT 0 0 0 1 0 0 0
POINTS 1473
DATA ascii
-2.3833606 -1.3075906 -0.62761343
-2.4257164 -1.3113068 -0.63661146
-2.4597089 -1.3097788 -0.64336002
-2.5024056 -1.3124002 -0.65235806
-2.5538886 -1.3190074 -0.66360557
-2.9713035 -1.3275727 -0.75133651
-2.9617443 -1.3010398 -0.7468375
-2.9519696 -1.2746797 -0.74233848
-2.9509511 -1.2523005 -0.74008894
-2.9587476 -1.2337668 -0.74008894
-2.9483027 -1.2080227 -0.73558992
-3.191047 -1.1466463 -0.78282964
-3.2441394 -1.1427603 -0.79407722
-3.2512434 -1.1223898 -0.79407722
-3.2581348 -1.1022241 -0.79407722
-3.3204076 -1.1003711 -0.80757427
-3.336524 -1.0824938 -0.80982381
-3.3432596 -1.0615085 -0.80982381
-3.3498633 -1.0404813 -0.80982381
-3.3749809 -1.0250765 -0.81432283
-3.4467404 -1.0232621 -0.83006936
-3.4624596 -1.0042999 -0.8323189
-3.4780765 -0.98518038 -0.83456838
-3.4654045 -0.95815247 -0.83006936
-3.443053 -0.92904705 -0.82332087
-3.3733704 -0.88781953 -0.80532473
-3.3600059 -0.86176521 -0.80082572
-3.1001287 -0.69210851 -0.73334044
-3.0758476 -0.66642737 -0.72659189
-3.0609033 -0.64308059 -0.72209287
-3.0553353 -0.62189323 -0.71984339
-3.0591826 -0.60268295 -0.71984339
-3.0629089 -0.58345056 -0.71984339
-3.0569253 -0.56246459 -0.71759385
-3.0855219 -0.44875398 -0.71984339
-3.126884 -0.43472615 -0.72884142
-3.2358041 -0.42916191 -0.75358599
-3.1417668 -0.39661956 -0.7310909
-3.0861502 -0.36991307 -0.71759385
-3.0884135 -0.35051584 -0.71759385
-3.0905511 -0.33113769 -0.71759385
-3.1313217 -0.31589407 -0.72659189
-3.2205253 -0.30471301 -0.7468375
-3.1641405 -0.27933174 -0.73334044
-3.1519594 0.17760161 -0.72884142
-3.1799552 0.1992293 -0.73558992
-3.1883636 0.21984105 -0.73783946
-3.1869402 0.23959216 -0.73783946
-3.2048149 0.26094952 -0.74233848
-3.1739929 0.27852458 -0.73558992
-3.191582 0.30028808 -0.74008894
-3.1896322 0.32033449 -0.74008894
-3.1875603 0.34033433 -0.74008894
-3.1853905 0.36007816 -0.74008894
-3.183094 0.37984374 -0.74008894
-3.1903121 0.40105057 -0.74233848
-3.1877294 0.42108873 -0.74233848
-3.1850207 0.44110855 -0.74233848
-3.1918292 0.46250999 -0.74458796
-3.1984942 0.48401263 -0.7468375
-3.1953897 0.50410056 -0.7468375
-3.1921597 0.52416688 -0.7468375
-3.1984081 0.54585171 -0.74908698
-3.1949155 0.56593621 -0.74908698
-3.1912963 0.58600003 -0.74908698
-3.206696 0.60967886 -0.75358599
-3.1932414 0.62793583 -0.75133651
-3.1987817 0.6499263 -0.75358599
-3.2137072 0.67401284 -0.75808501
-3.209409 0.69419086 -0.75808501
-3.214494 0.71646297 -0.76033455
-3.2099292 0.7366451 -0.76033455
-3.21472 0.75903898 -0.76258409
-3.2193563 0.78152031 -0.76483357
-3.2238362 0.80409151 -0.76708311
-3.2281597 0.82674801 -0.76933259
-3.2229106 0.84697956 -0.76933259
-3.2270091 0.86946756 -0.77158213
-3.240325 0.89470267 -0.77608114
-3.2439351 0.9179793 -0.77833062
-3.2380421 0.93855458 -0.77833062
-3.2508476 0.96414071 -0.78282964
-3.2448008 0.9842993 -0.78282964
-3.5683851 1.3065053 -0.87730908
-3.4871767 1.3013761 -0.85931301
-3.4516101 1.3128678 -0.85256445
-3.425123 1.3274856 -0.84806544
-3.3895261 1.3382444 -0.84131694
-3.3720102 1.3558809 -0.8390674
-3.372442 1.3807318 -0.84131694
-3.3726935 1.4056435 -0.84356642
-3.3727658 1.4306108 -0.84581596
-3.2605753 1.605464 -0.8390674
-3.0935671 1.5474555 -0.79857624
-3.1098261 1.5801374 -0.80532473
-3.0910387 1.5954466 -0.80307525
-3.1239786 1.6376922 -0.81432283
-3.13083 1.6664437 -0.81882185
-3.146014 1.6999794 -0.82557034
-3.1352711 1.7197119 -0.82557034
-3.1414497 1.748822 -0.83006936
-3.1390376 1.7730451 -0.8323189
-3.1364262 1.7973386 -0.83456838
-3.1419187 1.8268042 -0.8390674
-3.1471629 1.856411 -0.84356642
-3.1437984 1.8811506 -0.84581596
-3.1402457 1.9059228 -0.84806544
-3.1448042 1.9358305 -0.85256445
-3.1491094 1.9658719 -0.85706353
-3.1531615 1.9960418 -0.86156255
-3.1569569 2.0263414 -0.86606157
-3.1604967 2.0567656 -0.87056059
-3.1556439 2.0819495 -0.87281007
-3.1586995 2.1125689 -0.87730908
-3.1614931 2.1433098 -0.8818081
-3.1640255 2.1741672 -0.88630712
-3.1582975 2.1995735 -0.88855666
-3.1603365 2.2306108 -0.89305568
-3.1621084 2.2617617 -0.8975547
-3.1715035 2.298739 -0.90430325
-3.1648502 2.3243892 -0.90655273
-3.1736345 2.3616786 -0.91330129
-3.1742926 2.3933051 -0.91780031
-3.1746793 2.4250309 -0.92229933
-3.1747909 2.4568574 -0.92679834
-3.1822965 2.4947903 -0.93354684
-3.1742163 2.520761 -0.93579638
-3.1813145 2.5587003 -0.94254488
-3.1880357 2.5968575 -0.94929343
-3.1866887 2.6292386 -0.95379245
-3.1850586 2.6617062 -0.95829147
-3.1905842 2.7005501 -0.96504003
-3.1883185 2.7332616 -0.96953905
-3.1929116 2.7726843 -0.97628754
-3.1971624 2.8122396 -0.9830361
-3.201257 2.8517151 -0.9897846
-3.197777 2.8847914 -0.99428362
1.0044978 1.4258146 -0.40266237
1.0080887 1.3907027 0.09001784
1.0227184 1.3923898 0.090541206
1.0374089 1.3939476 0.091064565
1.0521592 1.3953755 0.091587923
1.0669681 1.3966727 0.092111282
1.0818346 1.3978386 0.092634641
1.0967575 1.3988725 0.093157999
1.1117361 1.3997738 0.093681358
1.1267689 1.4005418 0.094204716
1.1355466 1.3934344 0.094204716
1.1506364 1.3939736 0.094728082
1.172183 1.4020393 0.0957748
1.180969 1.3946468 0.0957748
1.1962095 1.3947793 0.096298158
1.2114983 1.3947752 0.096821517
1.2334297 1.4021317 0.097868234
1.248858 1.4018105 0.098391593
1.2643307 1.4013506 0.098914959
1.2798465 1.4007515 0.099438317
1.2954047 1.4000123 0.099961676
1.3110038 1.3991325 0.10048503
1.3266426 1.3981118 0.10100839
1.3492393 1.4041502 0.10205511
1.3649765 1.4028245 0.10257848
1.3876588 1.4085684 0.10362519
1.4034349 1.406991 0.10414855
1.4193442 1.4051712 0.10467191
1.4424266 1.4101876 0.10571863
1.4584428 1.408033 0.10624199
1.4817168 1.4126233 0.10728871
1.4978342 1.4101309 0.10781207
1.5139787 1.4074914 0.10833543
1.5448617 1.4182112 0.1099055
1.5611409 1.4151837 0.11042886
1.5848833 1.4186678 0.11147559
1.6087307 1.4219087 0.1125223
1.6251569 1.4183391 0.11304566
1.6491663 1.421138 0.11409238
1.6656688 1.4172193 0.11461575
1.6974795 1.4259959 0.11618582
1.7140921 1.4216776 0.11670918
1.7384437 1.4235332 0.1177559
1.7628858 1.4251385 0.11880262
1.787416 1.4264923 0.11984934
1.8120321 1.4275937 0.12089606
1.8367087 1.4284716 0.12194277
1.8613654 1.4292278 0.1229895
1.886125 1.4297019 0.12403622
1.911063 1.4297878 0.12508294
1.9441327 1.4355164 0.12665302
1.9693806 1.4348633 0.12769973
1.9946514 1.4340119 0.12874645
2.0197866 1.4331837 0.12979317
2.0531912 1.4377934 0.13136324
2.086832 1.4418948 0.13293333
2.1123533 1.4400045 0.13398005
2.1545055 1.4489962 0.13607349
2.1802101 1.4464723 0.1371202
2.2059674 1.4436821 0.13816692
2.240165 1.4460407 0.139737
2.2744784 1.4480262 0.14130709
2.3173618 1.4549468 0.14340052
2.3434391 1.4508713 0.14444724
2.3780797 1.4517286 0.14601731
2.4213786 1.4573567 0.14811075
2.4562526 1.4574015 0.14968084
2.4912217 1.457065 0.15125091
2.534934 1.4613334 0.15334435
2.5701141 1.4601765 0.15491442
2.6140924 1.4635127 0.15700787
2.6582127 1.4663532 0.15910131
2.7024467 1.4687405 0.16119474
2.7467091 1.4708251 0.16328818
2.7911239 1.472371 0.16538163
6.4797096 3.1621161 0.37786561
6.490448 3.1170177 0.37734222
6.4918466 3.0676427 0.37629551
6.4928813 3.0183735 0.37524879
6.5026364 2.9733653 0.37472543
5.901155 1.8066984 0.3234362
5.5105772 1.6493219 0.30145511
5.5303893 1.61756 0.30197847
5.5403056 1.583263 0.30197847
6.4653888 1.7605468 0.35117427
6.466671 1.7173258 0.35065091
6.4676661 1.6741583 0.35012755
6.4780574 1.6334879 0.35012755
7.0603952 1.7332201 0.38100576
7.6830721 1.8349726 0.41397741
7.6652675 1.7798862 0.41240734
7.6860127 1.7340125 0.4129307
9.1253242 1.8812013 0.48829445
9.1270714 1.8223718 0.48777109
9.5012903 1.8342284 0.50713539
10.288271 1.9186037 0.54848081
10.771715 1.939775 0.57360208
11.393609 1.9785794 0.60605037
12.046214 2.0129416 0.64006871
12.778506 2.0521486 0.67827398
13.659499 2.106899 0.72432965
19.139688 2.5852382 1.0121773
19.046602 2.4509099 1.0064204
19.031889 2.3275518 1.0048504
19.046137 2.2079258 1.0048504
13.867462 -0.31166905 0.72694641
12.886984 -0.37044656 0.67565721
12.046104 -0.42098814 0.63169497
11.294918 -0.46500403 0.59244299
10.663344 -0.50613427 0.55947137
10.071612 -0.54149199 0.52859312
9.5297213 -0.57242894 0.50033176
9.0376921 -0.59973794 0.47468713
8.6055193 -0.62463623 0.45218265
8.2231674 -0.64826012 0.43229499
7.8408213 -0.66771525 0.41240734
7.5182385 -0.68785179 0.39565983
7.1957254 -0.70396209 0.37891233
6.9329143 -0.72225559 0.36530498
6.6900191 -0.7394706 0.35274434
6.4471908 -0.75366288 0.34018371
6.4225054 -0.79171312 0.33913699
6.4471283 -0.83579761 0.34070706
6.4517212 -0.87707275 0.34123042
6.4560347 -0.91854179 0.34175378
6.4600139 -0.96055663 0.34227714
6.4735875 -1.0041885 0.34332386
6.4671502 -1.0448432 0.34332386
6.4506092 -1.083802 0.3428005
6.4535098 -1.1260273 0.34332386
6.4659801 -1.1700041 0.34437057
6.4586067 -1.2100445 0.34437057
6.4607487 -1.252149 0.34489393
3.067981 -0.96306413 0.16852178
3.0143249 -0.96706825 0.16590498
2.9702308 -0.97354716 0.16381153
2.9167063 -0.97634071 0.16119474
2.8632655 -0.97850066 0.15857795
2.819344 -0.98331696 0.1564845
2.7660842 -0.98422724 0.15386771
2.7223828 -0.98772311 0.15177427
2.6787295 -0.99075919 0.14968084
2.6350746 -0.9934786 0.14758739
2.5914929 -0.9956888 0.14549395
2.5479887 -0.9973914 0.14340052
2.5138431 -1.0022857 0.14183044
2.4797378 -1.0067908 0.14026035
2.4364636 -1.0070525 0.13816692
2.4025617 -1.0105143 0.13659684
2.3686948 -1.0136335 0.13502677
2.3348107 -1.0165372 0.13345669
2.2918541 -1.0150115 0.13136324
2.2672207 -1.0211893 0.13031653
2.2335384 -1.022903 0.12874645
2.1999972 -1.0240792 0.12717637
2.1665115 -1.0249149 0.1256063
2.1330287 -1.0255258 0.12403622
2.0996249 -1.025757 0.12246613
2.0752485 -1.0300492 0.12141941
2.0509186 -1.0340425 0.1203727
2.0266943 -1.0376279 0.11932598
1.9936274 -1.0363798 0.1177559
1.9694135 -1.0395621 0.11670918
1.9452389 -1.0424815 0.11566246
1.9211061 -1.0451386 0.11461575
1.8882755 -1.0427063 0.11304566
1.8642638 -1.0447856 0.11199895
1.8489817 -1.0515417 0.11147559
1.8250393 -1.0531558 0.11042886
1.8011502 -1.0545111 0.10938215
1.7773168 -1.055608 0.10833543
1.7450049 -1.0512655 0.10676535
1.7299359 -1.0568511 0.10624199
1.6978692 -1.0518004 0.10467191
1.6827708 -1.0571353 0.10414855
1.6592504 -1.0569571 0.10310183
1.6441878 -1.0619435 0.10257848
1.6207914 -1.0612853 0.10153175
1.5975436 -1.0602628 0.10048503
1.5826402 -1.0645928 0.099961676
1.567669 -1.0688901 0.099438317
1.5527067 -1.0730414 0.098914959
1.5295749 -1.0713181 0.097868234
1.51467 -1.0751274 0.097344875
1.499778 -1.0787917 0.096821517
1.4849178 -1.0822873 0.096298158
1.4701499 -1.085535 0.0957748
1.4553814 -1.0886652 0.095251441
1.4325947 -1.0857246 0.094204716
1.4178417 -1.0885994 0.093681358
1.4031864 -1.0912329 0.093157999
1.3806731 -1.0875926 0.092111282
1.3659112 -1.0901368 0.091587923
1.3512095 -1.0924926 0.091064565
1.3289614 -1.0881904 0.09001784
1.3144885 -1.0900508 0.089494482
1.2999667 -1.0918657 0.088971123
1.2854744 -1.0935414 0.088447765
1.2710128 -1.0950779 0.087924406
1.2566009 -1.0964558 0.087401047
1.2422993 -1.0976087 0.086877689
1.2280141 -1.0986465 0.086354323
1.2210869 -1.1063406 0.086354323
1.1993951 -1.1004882 0.085307606
1.1851411 -1.1012049 0.084784247
1.1709259 -1.1017861 0.084260888
1.1567503 -1.1022326 0.08373753
1.1426158 -1.1025447 0.083214171
1.1285232 -1.1027229 0.082690813
1.1215906 -1.1097733 0.082690813
1.1076381 -1.1096333 0.082167447
1.0937124 -1.1093816 0.081644088
1.0867205 -1.1162316 0.081644088
1.0727829 -1.1158209 0.081120729
1.0658486 -1.1224465 0.081120729
1.0520236 -1.1217622 0.080597371
1.0381693 -1.1210231 0.080074012
1.024366 -1.1201545 0.079550654
1.0173076 -1.1265686 0.079550654
1.003563 -1.1254847 0.079027295
-1.002196 -2.297487 0.13136324
-1.0247121 -2.309401 0.13240996
-1.0350947 -2.2938144 0.1318866
-1.0578159 -2.3054185 0.13293333
-1.0765018 -2.3077767 0.13345669
-1.0952591 -2.3099906 0.13398005
-1.1097516 -2.3030634 0.13398005
-1.1285915 -2.3050141 0.13450341
-1.143052 -2.2978776 0.13450341
-1.1664749 -2.3084762 0.13555013
-1.1900758 -2.3188705 0.13659684
-1.204622 -2.3113475 0.13659684
-1.2237536 -2.3125799 0.1371202
-1.2427839 -2.3137507 0.13764356
-1.2619135 -2.3147535 0.13816692
-1.2764326 -2.3067791 0.13816692
-1.0328629 -1.3598841 0.089494482
-1.0231169 -1.3296244 0.087924406
-1.0498698 -1.3467978 0.089494482
-1.0706891 -1.3558493 0.090541206
-1.0854026 -1.3569113 0.091064565
-1.0937893 -1.3501601 0.091064565
-1.1766753 -1.3456445 0.093681358
-1.1718656 -1.3232723 0.092634641
-1.2482486 -1.3072881 0.094728082
-1.2771478 -1.3210679 0.096298158
-2.0926633 -1.3057374 0.12926981
-2.0838153 -1.282097 0.12822309
-2.125982 -1.2896967 0.13031653
-2.1768959 -1.3019422 0.13293333
-2.2366481 -1.3186696 0.13607349
-2.2621577 -1.3146256 0.1371202
-2.2877042 -1.3103127 0.13816692
-2.3219817 -1.3106393 0.139737
-2.3650579 -1.3154792 0.14183044
-2.3994341 -1.3152004 0.14340052
-2.4427052 -1.3192511 0.14549395
-2.4862113 -1.3226379 0.14758739
-2.5298553 -1.3255295 0.14968084
-2.5736322 -1.327924 0.15177427
-2.6175377 -1.32982 0.15386771
-2.6704986 -1.3356832 0.1564845
-2.7146535 -1.3365664 0.15857795
-2.7678144 -1.3414989 0.16119474
-2.8121698 -1.3414311 0.16328818
-2.8749018 -1.3489407 0.16642834
-2.9196846 -1.3473833 0.16852178
-2.9735601 -1.3496487 0.17113857
-2.9819815 -1.3309387 0.17113857
-2.9811406 -1.3081634 0.17061521
-2.9709618 -1.2814962 0.16956849
-2.9697607 -1.2589064 0.16904514
-3.0242329 -1.1501575 0.16956849
-3.1062491 -1.1590621 0.17375538
-3.0478249 -1.1154962 0.17009185
-3.0453744 -1.0929509 0.16956849
-3.0521815 -1.0737948 0.16956849
-3.0588505 -1.0546467 0.16956849
-3.0653262 -1.0356745 0.16956849
-3.0622206 -1.013474 0.16904514
-3.0685279 -0.99421364 0.16904514
-3.0651948 -0.97189564 0.16852178
-3.0712409 -0.95261741 0.16852178
-3.0867221 -0.93619996 0.16904514
-3.082969 -0.91394877 0.16852178
-3.0790586 -0.89178181 0.16799842
-3.0846009 -0.87241805 0.16799842
-3.0803814 -0.85041326 0.16747506
-3.0855916 -0.83131069 0.16747506
-3.0810378 -0.80958807 0.1669517
-3.0860636 -0.79021424 0.1669517
-3.1006572 -0.77322477 0.16747506
-3.0957496 -0.75137305 0.1669517
-3.0906906 -0.72961193 0.16642834
-3.0952137 -0.71017909 0.16642834
-3.0898676 -0.68854445 0.16590498
-3.1038933 -0.67122835 0.16642834
-3.0982759 -0.64966261 0.16590498
-3.1022966 -0.6301837 0.16590498
-3.0963962 -0.60875177 0.16538163
-3.0903492 -0.58742064 0.16485827
-3.103792 -0.56984544 0.16538163
-3.0974302 -0.54886079 0.16485827
-3.10078 -0.52960879 0.16485827
-3.1040461 -0.51011652 0.16485827
-3.1071901 -0.4906024 0.16485827
-3.1003375 -0.46957511 0.16433489
-3.1032269 -0.45008513 0.16433489
-3.1059935 -0.43057901 0.16433489
-3.1086378 -0.41105425 0.16433489
-3.1012509 -0.39026806 0.16381153
-3.1036417 -0.37077388 0.16381153
-3.115833 -0.35238898 0.16433489
-3.1080503 -0.33179536 0.16381153
-3.119983 -0.31352982 0.16433489
-3.1218703 -0.29414228 0.16433489
-3.1137087 -0.27364781 0.16381153
-3.1352732 -0.25570118 0.16485827
-3.1268599 -0.23524836 0.16433489
-3.1183136 -0.21490973 0.16381153
-3.1196022 -0.19531347 0.16381153
-3.1207678 -0.17570785 0.16381153
-3.1218102 -0.15609694 0.16381153
-3.1227272 -0.13652977 0.16381153
-3.1235132 -0.11717851 0.16381153
-3.124181 -0.097771168 0.16381153
-3.1247334 -0.078140356 0.16381153
-3.1351473 -0.058693387 0.16433489
-3.1254687 -0.03887026 0.16381153
-3.1356373 -0.019292299 0.16433489
-3.1257105 0.00040763797 0.16381153
-3.1356323 0.020111835 0.16433489
-3.1354439 0.039812263 0.16433489
-3.1351318 0.059512794 0.16433489
-3.1346962 0.079209298 0.16433489
-3.1341381 0.098852605 0.16433489
-3.1334655 0.11827005 0.16433489
-3.132668 0.13778473 0.16433489
-3.1317267 0.15773778 0.16433489
-3.1306612 0.1776344 0.16433489
-3.1394498 0.19792883 0.16485827
-3.1381478 0.2175996 0.16485827
-3.1367395 0.23703961 0.16485827
-3.1451595 0.25733498 0.16538163
-3.1434805 0.27709058 0.16538163
-3.1416774 0.29683691 0.16538163
-3.1397505 0.31656986 0.16538163
-3.1476343 0.33730423 0.16590498
-3.145484 0.35680071 0.16590498
-3.1531219 0.37752259 0.16642834
-3.1506879 0.39732584 0.16642834
-3.1580288 0.41842678 0.1669517
-3.1454463 0.43688622 0.16642834
-3.1525216 0.45807773 0.1669517
-3.1495812 0.47787562 0.1669517
-3.1563802 0.49921638 0.16747506
-3.1630349 0.52065969 0.16799842
-3.1803062 0.64747256 0.17009185
-3.1761751 0.66744298 0.17009185
-3.1719191 0.68738538 0.17009185
-3.1675372 0.70730227 0.17009185
-3.1727633 0.7294271 0.17061521
-3.1681173 0.74934852 0.17061521
-3.1730502 0.77159828 0.17113857
-3.1778278 0.7939412 0.17166193
-3.1727769 0.81389147 0.17166193
-3.1772714 0.83630097 0.17218529
-3.1913114 0.861175 0.17323202
-3.1762605 0.8783738 0.17270865
-3.1898165 0.90403551 0.17375538
-3.1840229 0.92423362 0.17375538
-3.187808 0.94678754 0.17427874
-3.1914203 0.96947467 0.17480209
-3.185266 0.9895069 0.17480209
-3.1885037 1.0125241 0.17532545
-3.1915779 1.0356194 0.17584881
-3.1755285 1.0525112 0.17532545
-3.1972308 1.0820458 0.17689553
-3.1903687 1.1021141 0.17689553
-3.1927996 1.1254569 0.17741889
-3.195081 1.1488227 0.17794225
-3.1879015 1.1685976 0.17794225
-3.1992893 1.1953707 0.17898896
-3.1917157 1.2154478 0.17898896
-3.1840155 1.2354788 0.17898896
-3.1947646 1.2628011 0.18003568
-3.1867676 1.2828485 0.18003568
-3.1878848 1.3066325 0.18055904
-3.2072606 1.3381735 0.18212913
-3.1895978 1.3543948 0.18160577
-3.1901917 1.3783705 0.18212913
-3.199753 1.4064237 0.18317585
-3.1908526 1.4265013 0.18317585
-3.2000091 1.4547868 0.18422256
-3.1480422 1.6518828 0.186316
-3.1376014 1.671629 0.186316
-3.1446035 1.7008126 0.18736272
-3.1601169 1.7349541 0.18893281
-3.1491821 1.7547241 0.18893281
-3.1556356 1.7840325 0.18997952
-3.1444921 1.803601 0.18997952
-3.1417294 1.8283448 0.19050288
-3.147378 1.8582036 0.1915496
-3.1527755 1.8882035 0.19259632
-3.1579189 1.9183459 0.19364303
-3.1543059 1.9433872 0.19416639
-3.1589706 1.9737518 0.19521311
-3.1549432 1.9989049 0.19573647
-3.1591249 2.0294845 0.19678319
-3.1714149 2.0656435 0.19835328
-3.1583731 2.08553 0.19835328
-3.1618049 2.1164424 0.19939999
-3.1649714 2.1474817 0.20044671
-3.1678729 2.178642 0.20149343
-3.170506 2.2099249 0.20254014
-3.1810284 2.2470865 0.20411022
-3.1749661 2.2728429 0.20463358
-3.1767905 2.3044736 0.20568031
-3.170294 2.3303037 0.20620367
-3.1796179 2.3680711 0.20777375
-3.1806185 2.4000335 0.20882046
-3.1813436 2.4320996 0.20986718
-3.1817894 2.4642711 0.2109139
-3.1898139 2.5027061 0.21248397
-3.181885 2.5288606 0.21300733
-3.1894927 2.5673125 0.21457742
-3.1889632 2.5996962 0.21562414
-3.195668 2.638756 0.21719421
-3.194345 2.671597 0.21824093
-3.2003562 2.7109783 0.21981101
-3.1907928 2.7375891 0.22033437
-3.203439 2.7840626 0.22242782
-3.2006752 2.8175588 0.22347453
-3.205272 2.8575492 0.22504461
-3.2021255 2.8909643 0.22609133
-3.2062638 2.9309628 0.2276614
-3.2099807 2.9711742 0.22923149
-3.2131076 3.0117719 0.23080157
-3.2086058 3.0456519 0.23184828
-3.2110057 3.0865123 0.23341836
-3.2130163 3.1275241 0.23498844
-3.2146392 3.1686804 0.23655851
-3.2229369 3.2170365 0.23865196
-3.2307544 3.265619 0.2407454
-3.2241287 3.3001411 0.24179211
-3.231065 3.3490801 0.24388555
-3.2306225 3.3910072 0.24545564
-3.2366245 3.4403315 0.24754907
-3.2353344 3.4825494 0.24911915
-3.2403934 3.5322435 0.2512126
-3.2383072 3.5746844 0.25278267
-3.2427304 3.62445 0.25487611
-3.2399893 3.666975 0.25644618
-3.2431464 3.7173591 0.25853962
-3.2523129 3.7754943 0.26115641
-3.2544076 3.8262815 0.26324984
-3.2559896 3.8772445 0.26534331
-3.2570605 3.9283755 0.26743674
-3.2576146 3.9796734 0.26953018
-3.2639303 4.0388975 0.27214697
-3.2696271 4.0983586 0.27476376
-3.2685277 4.1502018 0.2768572
-3.2730322 4.2100778 0.27947399
-3.2769141 4.2701707 0.28209081
-3.2801669 4.3304787 0.28470761
-3.2827921 4.3909931 0.2873244
-3.2847829 4.4517117 0.28994119
-3.2920201 4.5206976 0.29308134
-3.2926886 4.581841 0.29569814
-3.2927198 4.6431675 0.29831496
-3.2978323 4.7128577 0.30145511
-3.4089437 5.0725646 0.32029605
-3.4156291 5.1521478 0.32395956
-3.4214504 5.2320113 0.32762307
-3.4264014 5.3121486 0.33128661
-3.4197588 5.375701 0.3339034
-3.4442914 5.4901357 0.33966035
-3.4374342 5.6352882 0.34594068
-3.3813736 5.6225424 0.34384722
-3.3408854 5.635088 0.34332386
-3.476732 5.9491115 0.36111808
-3.3495622 5.8150787 0.35169762
-3.3622606 5.9228544 0.35693121
-3.4809892 6.222755 0.37367871
-3.5237718 6.3931813 0.38257584
-3.4120498 6.2835579 0.37472543
1.011427 1.4127464 -0.33773193
1.0260479 1.4143091 -0.33963999
1.0349139 1.4078344 -0.33963999
1.0496029 1.4091766 -0.34154809
1.0702623 1.4182249 -0.34536427
1.0851142 1.4192706 -0.34727237
1.1000214 1.4201852 -0.34918046
1.1149825 1.4209683 -0.35108855
1.1299968 1.4216191 -0.35299665
1.145063 1.4221369 -0.35490471
1.1601801 1.4225214 -0.3568128
1.169095 1.4152036 -0.3568128
1.1842632 1.4153585 -0.3587209
1.1994791 1.4153786 -0.36062899
1.2083485 1.4078141 -0.36062899
1.2364902 1.4224194 -0.36635327
1.2518897 1.4219902 -0.36826137
1.2673322 1.4214232 -0.37016943
1.2828168 1.420718 -0.37207752
1.2983421 1.4198742 -0.37398562
1.3205769 1.4260935 -0.37780181
1.3362259 1.4249283 -0.3797099
1.3519121 1.4236226 -0.38161799
1.3744386 1.4292512 -0.38543415
1.390209 1.4276502 -0.38734224
1.4059196 1.4259994 -0.38925034
1.428629 1.4311247 -0.39306653
1.4445714 1.4290236 -0.39497462
1.4605435 1.4267784 -0.39688271
1.4836088 1.4312041 -0.40069887
1.5067871 1.4353956 -0.40451506
1.5300759 1.4393517 -0.40833125
1.5390893 1.4297096 -0.40833125
1.5625098 1.4332821 -0.41214743
1.5860353 1.4366163 -0.41596359
1.6023469 1.433167 -0.41787168
1.6260353 1.436067 -0.42168787
1.649823 1.4387254 -0.42550406
1.6662688 1.4347359 -0.42741215
1.6902082 1.4369546 -0.43122831
1.706722 1.4326174 -0.4331364
1.7308058 1.4343932 -0.43695259
1.7625761 1.4421383 -0.44267687
1.7792387 1.4372035 -0.44458497
1.8035834 1.4382362 -0.44840112
1.8280107 1.4390192 -0.45221731
1.852487 1.4395921 -0.4560335
1.8847355 1.4460125 -0.46175775
1.9171654 1.4520459 -0.46748203
1.9341133 1.4458488 -0.46939012
1.9668883 1.4511088 -0.47511441
1.9919647 1.4501041 -0.47893056
2.0250168 1.4546534 -0.48465484
2.0500064 1.4534336 -0.48847103
2.0831327 1.4575419 -0.49419528
2.1084061 1.4555784 -0.49801147
2.1337361 1.4533544 -0.50182766
2.1672685 1.4563441 -0.50755191
2.2009218 1.4589691 -0.51327616
2.2429085 1.4666003 -0.52090853
2.2685778 1.4631196 -0.52472472
2.3025739 1.4646424 -0.53044897
2.3449934 1.4710115 -0.53808135
2.3792341 1.4717407 -0.5438056
2.4051952 1.4669855 -0.54762179
2.4480147 1.472079 -0.55525416
2.4994359 1.4816973 -0.5647946
2.5341222 1.4808215 -0.57051891
2.5774016 1.4844669 -0.57815123
2.6208253 1.4876263 -0.5857836
2.655822 1.4855058 -0.59150785
2.6908946 1.4830036 -0.59723216
2.7432604 1.4895465 -0.6067726
2.9532845 -0.94876432 -0.60295641
2.9006312 -0.95199615 -0.59341598
2.8480554 -0.95460433 -0.58387554
2.8048511 -0.95976812 -0.57624316
2.7616954 -0.96442717 -0.56861079
2.7186148 -0.96852291 -0.56097841
2.6664298 -0.96859103 -0.55143797
2.6143289 -0.9681071 -0.54189754
2.5806432 -0.97411442 -0.53617328
2.5378246 -0.9762125 -0.52854091
2.4859433 -0.97423011 -0.51900047
2.4615393 -0.98255229 -0.51518428
2.4189422 -0.98321396 -0.50755191
2.3855271 -0.98708129 -0.50182766
2.3522246 -0.99041474 -0.49610338
2.3099282 -0.98955935 -0.48847103
2.276669 -0.99228722 -0.48274675
2.2524416 -0.99861515 -0.47893056
2.2192767 -1.0006434 -0.47320631
2.1951213 -1.0063378 -0.46939012
2.1621509 -1.0074809 -0.46366584
2.1381013 -1.0125024 -0.45984969
2.1051617 -1.0131457 -0.4541254
2.0722995 -1.0134156 -0.44840112
2.0483091 -1.0176806 -0.44458497
2.0068429 -1.0127953 -0.43695259
1.9917933 -1.020733 -0.4350445
1.9592843 -1.0195044 -0.42932025
1.9441606 -1.027209 -0.42741215
1.9203676 -1.0301236 -0.42359596
1.8879944 -1.0280858 -0.41787168
1.864315 -1.0304308 -0.41405553
1.8406812 -1.0325193 -0.41023934
1.8256265 -1.0392082 -0.40833125
1.8105606 -1.0457487 -0.40642315
1.7870158 -1.0471783 -0.40260696
1.763525 -1.0483536 -0.39879081
1.7401136 -1.0492377 -0.39497462
1.7252046 -1.0548782 -0.39306653
1.7019266 -1.0552393 -0.38925034
1.6786426 -1.0554618 -0.38543415
1.6554236 -1.0554338 -0.38161799
1.6405157 -1.0604851 -0.3797099
1.6256332 -1.0653555 -0.37780181
1.6026477 -1.0645446 -0.37398562
1.587855 -1.0690066 -0.37207752
1.5729986 -1.0734291 -0.37016943
1.5500764 -1.0721233 -0.36635327
1.5352714 -1.0762069 -0.36444518
1.5124742 -1.0744621 -0.36062899
1.4977267 -1.0782088 -0.3587209
1.4750851 -1.0759956 -0.35490471
1.4604955 -1.0792805 -0.35299665
1.4458985 -1.0824575 -0.35108855
1.4234266 -1.0796566 -0.34727237
1.4166387 -1.0885479 -0.34727237
1.4021204 -1.0912753 -0.34536427
1.3798666 -1.0878479 -0.34154809
1.3652385 -1.0904899 -0.33963999
1.3506812 -1.0929307 -0.33773193
1.3362908 -1.0950567 -0.33582383
1.3143489 -1.090806 -0.33200765
1.2999551 -1.0927265 -0.33009955
1.2855893 -1.0945092 -0.32819146
1.2712528 -1.0961549 -0.32628337
1.2569708 -1.0976361 -0.32437527
1.2427918 -1.098901 -0.32246721
1.228622 -1.100059 -0.32055911
1.214414 -1.1011631 -0.31865102
1.2002409 -1.1021324 -0.31674293
1.1861038 -1.1029673 -0.31483483
1.1648575 -1.0969386 -0.31101865
1.1579423 -1.104236 -0.31101865
1.1439201 -1.1046708 -0.30911058
1.1299385 -1.1049732 -0.30720249
1.1160226 -1.1051195 -0.30529439
1.1022218 -1.1050627 -0.3033863
1.0953296 -1.1118946 -0.3033863
1.081477 -1.1117187 -0.30147821
1.0744951 -1.1184683 -0.30147821
1.0675443 -1.1251044 -0.30147821
1.053816 -1.1245575 -0.29957011
1.0400623 -1.1239518 -0.29766202
1.0263581 -1.1232179 -0.29575393
1.0127045 -1.1223565 -0.29384586
-1.0161264 -2.2876284 -0.48656294
-1.0345209 -2.2901447 -0.48847103
-1.0488899 -2.2835994 -0.48847103
-1.0673705 -2.2858584 -0.4903791
-1.0901299 -2.2968431 -0.49419528
-1.1045398 -2.2899482 -0.49419528
-1.118906 -2.282963 -0.49419528
-1.1376035 -2.2846749 -0.49610338
-1.1563666 -2.2862415 -0.49801147
-1.175194 -2.2876625 -0.49991956
-1.1940849 -2.2889366 -0.50182766
-1.2175825 -2.2987642 -0.50564384
-1.2364501 -2.2998221 -0.50755191
-1.2507257 -2.2920899 -0.50755191
-1.2698586 -2.2927732 -0.50946003
-2.3159373 -3.575789 -0.82811105
-2.3221951 -3.5365505 -0.82238674
-2.3606882 -3.5464044 -0.82811105
-2.3884146 -3.539639 -0.83001912
-1.0797087 -1.3487222 -0.33582383
-1.1004089 -1.3572564 -0.33963999
-1.1088265 -1.3503882 -0.33963999
-1.1047356 -1.3283004 -0.33582383
-1.1446807 -1.3588707 -0.34536427
-1.1595674 -1.3591194 -0.34727237
-1.168084 -1.3518069 -0.34727237
-1.1830192 -1.351828 -0.34918046
-1.1719569 -1.3223293 -0.34345618
-1.2195836 -1.358771 -0.35490471
-1.2610795 -1.3874285 -0.36444518
-1.2164729 -1.3218044 -0.34918046
-1.271513 -1.3644857 -0.36253709
-1.3204842 -1.3993056 -0.37398562
-1.3020929 -1.3626223 -0.36635327
-1.4930824 -1.3782598 -0.39497462
-1.4726942 -1.3424001 -0.38734224
-1.4956917 -1.3462546 -0.39115843
-2.0990069 -1.2903082 -0.47893056
-2.132257 -1.2923584 -0.48465484
-2.1656144 -1.2940412 -0.4903791
-2.2075343 -1.3003373 -0.49801147
-2.2411282 -1.301228 -0.50373572
-2.2748196 -1.3017473 -0.50946003
-2.308605 -1.3018941 -0.51518428
-2.351033 -1.3064865 -0.52281666
-2.384912 -1.3060397 -0.52854091
-2.4102643 -1.3005085 -0.5323571
-2.4617281 -1.3083736 -0.54189754
-2.4959908 -1.3065375 -0.54762179
-2.5477769 -1.3133173 -0.55716228
-2.7477062 -1.3304391 -0.59341598
-2.800262 -1.3343827 -0.60295641
-2.8531473 -1.3373474 -0.61249685
-2.906153 -1.3397552 -0.62203729
-2.9055734 -1.3174154 -0.62012923
-2.94069 -1.3111252 -0.62585348
-2.9398797 -1.2886815 -0.62394542
-2.9389036 -1.2663001 -0.62203729
-2.9377625 -1.2439818 -0.62012923
-3.1972389 -1.1460369 -0.66019911
-3.2321601 -1.1356878 -0.66592336
-3.2670519 -1.1250162 -0.67164767
-3.2646585 -1.1016141 -0.66973954
-3.2621245 -1.0782138 -0.66783148
-3.2594953 -1.054674 -0.66592336
-3.2660575 -1.0341734 -0.66592336
-3.2443607 -1.0049186 -0.66019911
-3.2412157 -0.98166853 -0.65829104
-3.2661448 -0.96685678 -0.66210723
-3.2815852 -0.9490431 -0.66401529
-3.2874832 -0.92840564 -0.66401529
-3.293232 -0.90780348 -0.66401529
-3.21348 -0.86443144 -0.64684248
-3.2282875 -0.84692544 -0.64875054
-3.2430556 -0.82905614 -0.65065867
-3.2196238 -0.80154967 -0.64493442
-3.2055163 -0.77668053 -0.64111823
-3.1721146 -0.74751902 -0.63348585
-3.1193378 -0.71442366 -0.62203729
-3.133347 -0.69694239 -0.62394542
-3.0896878 -0.66688514 -0.61440498
-3.0842087 -0.6454491 -0.61249685
-3.0689623 -0.62215626 -0.60868067
-3.0824432 -0.60475188 -0.61058879
-3.0765381 -0.58354241 -0.60868067
-3.0801313 -0.56426859 -0.60868067
-3.0739021 -0.54346406 -0.6067726
-3.0868983 -0.52599084 -0.60868067
-3.0804555 -0.50499612 -0.6067726
-3.0738707 -0.48410484 -0.60486448
-3.0768518 -0.46478087 -0.60486448
-3.0797114 -0.44544017 -0.60486448
-3.0921733 -0.42742437 -0.6067726
-3.0947976 -0.40798813 -0.6067726
-3.1070402 -0.38975599 -0.60868067
-3.1386697 -0.37370887 -0.61440498
-3.1799741 -0.35837716 -0.62203729
-3.1040659 -0.33015439 -0.6067726
-3.0962846 -0.30993733 -0.60486448
-3.0981517 -0.29068056 -0.60486448
-3.1096959 -0.27206337 -0.6067726
-3.1896167 -0.25887284 -0.62203729
-3.1716025 -0.23736085 -0.61822116
-3.1436512 -0.2154161 -0.61249685
-3.1449428 -0.19565897 -0.61249685
-3.155911 -0.17644374 -0.61440498
-3.1765659 -0.15758307 -0.61822116
-3.1872973 -0.13811633 -0.62012923
-3.1684728 -0.11763655 -0.61631304
-3.1593313 -0.097629808 -0.61440498
-3.1500692 -0.077536605 -0.61249685
-3.1504941 -0.057743546 -0.61249685
-3.1507947 -0.037946522 -0.61249685
-3.1411548 -0.018093143 -0.61058879
-3.1510229 0.0016495514 -0.61249685
-3.1509502 0.021447044 -0.61249685
-3.1507533 0.041245367 -0.61249685
-3.1504319 0.061040383 -0.61249685
-3.1499863 0.080834664 -0.61249685
-3.1494184 0.10055531 -0.61249685
-3.1487348 0.1200674 -0.61249685
-3.1479244 0.13971236 -0.61249685
-3.1469705 0.15976256 -0.61249685
-3.1458929 0.17973757 -0.61249685
-3.1447015 0.19950099 -0.61249685
-3.1531832 0.21986903 -0.61440498
-3.1517603 0.23940216 -0.61440498
-3.1502109 0.25899321 -0.61440498
-3.1485214 0.27878219 -0.61440498
-3.1467078 0.2985585 -0.61440498
-3.154536 0.31931329 -0.61631304
-3.1524749 0.33905774 -0.61631304
-3.1600668 0.35969436 -0.61822116
-3.1577692 0.37933642 -0.61822116
-3.1553233 0.39917052 -0.61822116
-3.1624839 0.42028034 -0.62012923
-3.1597807 0.44014326 -0.62012923
-3.1569529 0.45998713 -0.62012923
-3.1637049 0.48129088 -0.62203729
-3.1606185 0.5011586 -0.62203729
-3.1670926 0.52260637 -0.62394542
-3.1637466 0.54249454 -0.62394542
-3.16994 0.56408107 -0.62585348
-3.1663334 0.58398628 -0.62585348
-3.1722436 0.60571122 -0.6277616
-3.1683753 0.62563014 -0.6277616
-3.1739998 0.64748812 -0.62966967
-3.1890805 0.67146218 -0.63348585
-3.1752057 0.68940443 -0.63157779
-3.1803911 0.7114833 -0.63348585
-3.1854236 0.73365617 -0.63539392
-3.1807511 0.75365537 -0.63539392
-3.1854904 0.77594972 -0.63730204
-3.1900747 0.79833156 -0.6392101
-3.2040105 0.82324606 -0.64302629
-3.1987932 0.84329045 -0.64302629
-3.2124593 0.8682164 -0.64684248
-3.2069793 0.88824445 -0.64684248
-3.2106991 0.91133606 -0.64875054
-3.2142954 0.93437058 -0.65065867
-3.227262 0.95986551 -0.65447485
-3.2306232 0.98276895 -0.65638292
-3.2337575 1.0059648 -0.65829104
-3.6574619 1.3166759 -0.75560361
-3.6400182 1.3359303 -0.75369555
-3.6224473 1.3550985 -0.75178742
-3.5863442 1.367342 -0.74606317
-3.5593824 1.3827385 -0.74224699
-3.5506246 1.4050744 -0.74224699
-3.5326219 1.4236856 -0.74033886
-3.5054436 1.4384015 -0.73652273
-3.4782214 1.4528306 -0.73270655
-3.4690239 1.4746571 -0.73270655
-3.4777098 1.5042173 -0.73652273
-3.0851166 1.6204084 -0.67737192
-3.1181819 1.6628567 -0.68691236
-3.1163054 1.6870885 -0.68882048
-3.1314518 1.7208188 -0.69454473
-3.1291895 1.7451725 -0.6964528
-3.1268594 1.769362 -0.69836092
-3.1328244 1.7985433 -0.70217711
-3.1299438 1.8231335 -0.70408517
-3.1268785 1.8477565 -0.70599329
-3.1320455 1.8774614 -0.70980942
-3.1369631 1.9073021 -0.71362561
-3.1416276 1.9372801 -0.7174418
-3.1377165 1.962185 -0.71934992
-3.1419055 1.9923757 -0.72316611
-3.1375823 2.0173855 -0.72507417
-3.1412909 2.0477819 -0.72889036
-3.1447418 2.0783024 -0.73270655
-3.1479313 2.1089482 -0.73652273
-3.1508605 2.139714 -0.74033886
-3.1535256 2.1706014 -0.74415505
-3.1478765 2.1959882 -0.74606317
-3.1580622 2.2327247 -0.75178742
-3.1599312 2.2639563 -0.75560361
-3.1615305 2.2953012 -0.7594198
-3.1628611 2.3267531 -0.76323599
-3.1639197 2.3583136 -0.76705217
-3.1647072 2.3899772 -0.7708683
-3.1730156 2.4277098 -0.77659261
-3.1654584 2.4536114 -0.77850068
-3.1654201 2.4855776 -0.78231686
-3.1651604 2.5175691 -0.78613305
-3.1724339 2.5556066 -0.7918573
-3.1716955 2.5876923 -0.79567349
-3.1780739 2.6263299 -0.80139774
-3.1765649 2.6588466 -0.80521393
-3.1822586 2.6977971 -0.81093824
-3.1875291 2.7369914 -0.81666249
-3.1848407 2.7701271 -0.82047868
-3.1892874 2.809757 -0.82620293
-3.1935434 2.8493469 -0.83192718
-3.1902082 2.8824477 -0.83574337
-3.194015 2.9220369 -0.84146768
-3.1973898 2.9618514 -0.84719193
-3.2073534 3.0087473 -0.8548243
-3.1955032 3.0356002 -0.85673237
-3.1905148 3.0692296 -0.86054856
-3.1852312 3.1029141 -0.86436474
-3.207083 3.4116168 -0.91015887
-3.2189767 3.4676709 -0.91969937
-3.2369227 3.5312455 -0.93114787
-3.2345128 3.5732756 -0.93687212
-3.2384799 3.6225212 -0.9445045
-3.2353849 3.6646621 -0.95022881
-3.2445464 3.7219164 -0.95976925
-3.2403095 3.7645473 -0.9654935
-3.2483757 3.822233 -0.97503394
-3.249536 3.8726454 -0.98266631
-3.2501881 3.923224 -0.99029869
-3.2565486 3.981559 -0.99983913
1.0067201 1.3865217 0.14990787
1.0213155 1.3881932 0.15077943
1.0359714 1.3897357 0.151651
1.0506867 1.3911486 0.15252255
1.0654606 1.392431 0.1533941
1.0802916 1.3935825 0.15426566
1.0890265 1.3867673 0.15426566
1.1101218 1.3954895 0.15600878
1.1251186 1.3962438 0.15688033
1.1338692 1.3891469 0.15688033
1.1489227 1.389673 0.15775189
1.170423 1.3977021 0.15949501
1.1856256 1.397918 0.16036656
1.2008766 1.3979977 0.16123812
1.2161753 1.3979406 0.16210967
1.2315204 1.3977462 0.16298124
1.2402784 1.3899808 0.16298124
1.2556665 1.3895518 0.1638528
1.2778232 1.396333 0.1655959
1.2865713 1.3882767 0.1655959
1.3089031 1.3946937 0.16733903
1.3245029 1.3936632 0.16821058
1.3401414 1.3924913 0.16908213
1.3557792 1.3912147 0.16995369
1.3783666 1.3969703 0.17169681
1.3940741 1.395413 0.17256837
1.4169841 1.4006326 0.17431149
1.4328853 1.3986603 0.17518304
1.4559897 1.4034569 0.17692615
1.4719946 1.4011494 0.1777977
1.4952866 1.4055188 0.17954083
1.5113895 1.4028732 0.18041238
1.5495496 1.4202738 0.18389861
1.5732148 1.4238794 0.18564174
1.589558 1.4206049 0.18651329
1.6059217 1.4171811 0.18738484
1.6298158 1.4201518 0.18912795
1.6462582 1.4163805 0.18999952
1.6703098 1.418908 0.19174263
1.6944574 1.4211887 0.19348575
1.718699 1.4232215 0.19522886
1.7507449 1.4313107 0.19784354
1.7674555 1.4265389 0.19871509
1.7841749 1.4216135 0.19958664
1.8165619 1.4288517 0.20220132
1.841202 1.4296789 0.20394443
1.8658369 1.4303654 0.20568755
1.8905894 1.4307495 0.20743066
1.9075229 1.424804 0.20830221
1.9405323 1.4304714 0.21091689
1.965718 1.4298002 0.21266001
1.9989885 1.4347827 0.21527468
2.0322266 1.4396455 0.21788935
2.0493109 1.4326788 0.21876091
2.0828731 1.4367437 0.22137558
2.1165662 1.4404429 0.22399026
2.1586578 1.4493277 0.22747648
2.1843324 1.4467379 0.2292196
2.2100589 1.443882 0.23096271
2.2442093 1.4461557 0.23357739
2.2784743 1.4480566 0.23619206
2.312851 1.4495833 0.23880672
2.3473356 1.4507346 0.2414214
2.3819251 1.4515094 0.24403608
2.416616 1.451906 0.24665074
2.4599762 1.4569999 0.25013697
2.4948914 1.4565829 0.25275165
2.5298975 1.455784 0.25536633
2.5736566 1.4595163 0.25885254
2.6175609 1.4627556 0.26233879
2.6616061 1.4654999 0.265825
2.7057481 1.4678212 0.26931125
2.7411478 1.4651163 0.27192593
2.794286 1.471235 0.27628371
6.4842992 3.1580522 0.63100755
6.4860468 3.1086369 0.62926447
6.4874301 3.0593245 0.62752134
6.4974875 3.0143101 0.6266498
6.4981728 2.9651549 0.62490666
5.5165963 1.6842244 0.50463176
5.5175238 1.6466806 0.50376016
5.5468445 1.6177099 0.5055033
5.5471802 1.5805818 0.50463176
6.4522481 1.708071 0.58394349
6.4724989 1.6699857 0.58481503
6.4828639 1.629285 0.58481503
6.9768009 1.7068895 0.62839288
7.6657748 1.8244777 0.68940192
7.6867929 1.778522 0.69027346
7.6977687 1.7303997 0.69027346
9.1122589 1.9300667 0.81490618
9.1240425 1.8735719 0.81490618
9.1258049 1.8145635 0.81403464
9.4697962 1.8203279 0.84366757
10.29405 1.9114316 0.91600686
10.766559 1.930239 0.95697004
11.387031 1.9680974 1.0110066
12.038093 2.0017323 1.0676578
12.758769 2.0388424 1.13041
13.588432 2.0851645 1.2027493
19.006182 2.5520053 1.677748
19.071249 2.4388545 1.6821058
19.076305 2.3177772 1.6812342
19.080597 2.1967325 1.6803627
19.064312 2.0735712 1.677748
19.086874 1.9547613 1.6786196
19.098728 1.8353183 1.6786196
19.109734 1.716951 1.6786196
19.100193 1.5963341 1.6768764
19.099915 1.4755257 1.6760049
19.108809 1.3554889 1.6760049
19.126888 1.2360411 1.6768764
19.124332 1.115262 1.6760049
19.140911 0.99559635 1.6768764
19.136814 0.87537885 1.6760049
19.151823 0.75718504 1.6768764
19.16614 0.63779509 1.677748
19.18973 0.51622248 1.6794912
19.192608 0.39501157 1.6794912
19.194687 0.27609035 1.6794912
19.196033 0.15663196 1.6794912
19.196638 0.036017232 1.6794912
19.206448 -0.084642828 1.6803627
13.86328 -0.32247034 1.213208
12.865231 -0.37979487 1.1260521
12.046271 -0.43033484 1.0545845
11.336684 -0.47564384 0.99270391
10.686698 -0.51565635 0.93605268
10.066523 -0.5491488 0.88201612
9.5557528 -0.5815261 0.83756667
9.0350704 -0.60659349 0.79224569
8.633728 -0.63340575 0.75738341
8.2224684 -0.65470427 0.72164953
7.8708048 -0.67649645 0.691145
7.5291262 -0.69481093 0.66151208
7.2172823 -0.71179396 0.63449377
6.9451652 -0.72904694 0.61096174
6.6929278 -0.74511409 0.58917284
6.4605598 -0.76037031 0.56912696
6.4259963 -0.79726827 0.56651235
6.4505177 -0.84131795 0.56912696
6.4353113 -0.8799184 0.56825542
6.4395723 -0.92136079 0.56912696
6.4435086 -0.96327633 0.56999856
6.4471717 -1.0052776 0.5708701
6.4407282 -1.0457664 0.5708701
6.4438534 -1.0878721 0.57174164
6.4565153 -1.1317785 0.57348478
6.4591103 -1.1739287 0.57435632
6.4517131 -1.2139256 0.57435632
6.4537778 -1.2561308 0.57522792
2.9716892 -0.97661084 0.27366903
2.9088287 -0.9762454 0.26843968
2.8649411 -0.98158669 0.26495346
2.8116987 -0.98312795 0.26059568
2.7679617 -0.98731101 0.25710943
2.7337053 -0.99422753 0.25449476
2.6807618 -0.99390501 0.25013697
2.6371894 -0.99664217 0.24665074
2.5936897 -0.99887162 0.24316452
2.5502677 -1.0005944 0.23967829
2.5161784 -1.0055082 0.23706362
2.4821293 -1.0100336 0.23444894
2.4389479 -1.0102919 0.23096271
2.405102 -1.0137757 0.22834805
2.3621244 -1.0130179 0.22486182
2.328321 -1.0158879 0.22224714
2.2945755 -1.0183735 0.21963246
2.2608919 -1.0204757 0.2170178
2.2363558 -1.0262895 0.21527468
2.1938415 -1.0232817 0.21178845
2.1694274 -1.0283804 0.21004534
2.1359987 -1.0290201 0.20743066
2.1115961 -1.0336608 0.20568755
2.0783005 -1.0335997 0.20307288
2.0540102 -1.0375974 0.20132977
2.0298145 -1.0412103 0.19958664
1.9967893 -1.0400165 0.19697197
1.9726028 -1.0432277 0.19522886
1.9484556 -1.046176 0.19348575
1.9243498 -1.0488627 0.19174263
1.8915708 -1.0464656 0.18912795
1.876272 -1.053453 0.1882564
1.843649 -1.0504264 0.18564174
1.8283882 -1.0570036 0.18477017
1.8131177 -1.0634309 0.18389861
1.7635946 -1.0493327 0.17954083
1.7484665 -1.0551977 0.17866927
1.716404 -1.0504104 0.1760546
1.7013693 -1.0558188 0.17518304
1.6778392 -1.0558761 0.17343992
1.654376 -1.0556799 0.17169681
1.6393464 -1.0606422 0.17082526
1.6160191 -1.0599498 0.16908213
1.6011249 -1.0644268 0.16821058
1.5862082 -1.0688037 0.16733903
1.5712351 -1.0731305 0.16646747
1.5480796 -1.0716414 0.16472435
1.5331607 -1.0756258 0.1638528
1.5182532 -1.0794648 0.16298124
1.4952756 -1.0773361 0.16123812
1.4804608 -1.0807953 0.16036656
1.4657264 -1.0840238 0.15949501
1.4509796 -1.0871508 0.15862344
1.4361855 -1.0902227 0.15775189
1.4135433 -1.0870403 0.15600878
1.3910627 -1.0835344 0.15426566
1.3764423 -1.0860372 0.1533941
1.3617146 -1.0885634 0.15252255
1.3470707 -1.0908724 0.151651
1.3325828 -1.0928808 0.15077943
1.3180925 -1.0947876 0.14990787
1.2959414 -1.0902216 0.14816476
1.2890657 -1.0983427 0.14816476
1.2670555 -1.0934033 0.14642164
1.2526896 -1.0947529 0.14555009
1.238422 -1.095892 0.14467853
1.231578 -1.1035776 0.14467853
1.2172426 -1.1045995 0.14380698
1.2029431 -1.1054851 0.14293541
1.1886809 -1.1062348 0.14206386
1.1744571 -1.1068493 0.1411923
1.153066 -1.1004511 0.13944918
1.146129 -1.1076742 0.13944918
1.132027 -1.1078858 0.13857763
1.1179984 -1.1079335 0.13770607
1.10408 -1.1077833 0.13683452
1.0901762 -1.1075332 0.13596296
1.0831959 -1.114361 0.13596296
1.0693048 -1.1139288 0.13509139
1.0555283 -1.1133037 0.13421984
1.0417706 -1.1125791 0.13334829
1.0347595 -1.1191028 0.13334829
1.0209905 -1.1182255 0.13247673
1.0072737 -1.1172197 0.13160516
1.0002341 -1.1235265 0.13160516
-1.0095326 -2.3093553 0.22050403
-1.0280702 -2.3120694 0.22137558
-1.0466816 -2.3146412 0.22224714
-1.0653658 -2.31707 0.22311869
-1.0841216 -2.3193552 0.22399026
-1.1029481 -2.3214958 0.22486182
-1.1175127 -2.3145199 0.22486182
-1.1364208 -2.3163965 0.22573337
-1.1553965 -2.3181262 0.22660492
-1.1744386 -2.3197086 0.22747648
-1.1889905 -2.3122838 0.22747648
-1.2127177 -2.3224285 0.2292196
-1.2318887 -2.3235981 0.23009115
-1.2509823 -2.3246934 0.23096271
-1.2702003 -2.3256061 0.23183428
-1.0753205 -1.3595176 0.151651
-1.0838041 -1.352764 0.151651
-1.0796115 -1.3305511 0.14990787
-1.1131703 -1.3545929 0.1533941
-1.1152864 -1.3399154 0.15252255
-1.1108412 -1.3176484 0.15077943
-1.1320357 -1.3257948 0.15252255
-1.1468599 -1.3261911 0.1533941
-1.1682968 -1.3339472 0.15513723
-1.1634343 -1.3116748 0.1533941
-1.1849667 -1.3191613 0.15513723
-1.2066025 -1.3264611 0.15688033
-1.2080493 -1.3116318 0.15600878
-1.2433659 -1.3332301 0.15949501
-1.2380383 -1.3109064 0.15775189
-1.2599851 -1.3175352 0.15949501
-1.2819837 -1.3240167 0.16123812
-1.3180947 -1.3444673 0.16472435
-1.3124787 -1.3220201 0.16298124
-1.2925076 -1.2856458 0.15949501
-1.3360945 -1.3124038 0.1638528
-1.3085611 -1.2693026 0.15949501
-1.9883686 -1.2730371 0.20655911
-2.0299098 -1.2819701 0.21004534
-2.105495 -1.3114475 0.2170178
-2.088227 -1.2825516 0.21440312
-2.1388509 -1.2952065 0.21876091
-2.1897147 -1.3072751 0.22311869
-2.2322271 -1.3137016 0.22660492
-2.2749054 -1.3196449 0.23009115
-2.3004489 -1.3152142 0.23183428
-2.3347046 -1.3154041 0.23444894
-2.3690166 -1.3152797 0.23706362
-2.4120781 -1.3197027 0.24054985
-2.4553201 -1.3235744 0.24403608
-2.4987822 -1.3268086 0.24752231
-2.5335524 -1.3249316 0.25013697
-2.5861099 -1.3317914 0.25449476
-2.6299667 -1.333537 0.257981
-2.6739461 -1.3347833 0.26146722
-2.8243675 -1.3444899 0.27366903
-2.8779848 -1.3475921 0.27802682
-2.9498148 -1.3584788 0.28412771
-2.9673665 -1.344028 0.28499928
-2.9757528 -1.325357 0.28499928
-2.9840214 -1.3066337 0.28499928
-2.9738715 -1.2799821 0.28325617
-2.9635053 -1.2535099 0.28151304
-3.0084453 -1.1414496 0.28151304
-3.0809104 -1.1468517 0.28761396
-3.0506246 -1.1138048 0.28412771
-3.0575626 -1.0946153 0.28412771
-3.0643799 -1.0753826 0.28412771
-3.0710471 -1.0561916 0.28412771
-3.0775323 -1.0371437 0.28412771
-3.0839269 -1.0179714 0.28412771
-3.0807829 -0.99551141 0.28325617
-3.0774786 -0.97313124 0.2823846
-3.0835321 -0.95377576 0.2823846
-3.0894639 -0.93438262 0.2823846
-3.095274 -0.91495264 0.2823846
-3.0913908 -0.89272261 0.28151304
-3.0873508 -0.87057763 0.2806415
-3.1023412 -0.85389066 0.28151304
-3.0979514 -0.83206785 0.2806415
-3.1127064 -0.81529659 0.28151304
-3.0984623 -0.79079664 0.27976993
-3.1033697 -0.77131373 0.27976993
-3.0984724 -0.7494567 0.27889836
-3.1031199 -0.72997451 0.27889836
-3.1173568 -0.71268213 0.27976993
-3.1120477 -0.69092292 0.27889836
-3.1065891 -0.66925699 0.27802682
-3.1107328 -0.64972544 0.27802682
-3.1147537 -0.63016653 0.27802682
-3.1186516 -0.61058444 0.27802682
-3.1126385 -0.58912402 0.27715525
-3.1260624 -0.57143199 0.27802682
-3.1197326 -0.55032116 0.27715525
-3.1132755 -0.52922785 0.27628371
-3.1165395 -0.50965536 0.27628371
-3.1196802 -0.49006444 0.27628371
-3.1226978 -0.47045252 0.27628371
-3.125592 -0.45082366 0.27628371
-3.1184943 -0.42981517 0.27541214
-3.1211333 -0.41021356 0.27541214
-3.1137643 -0.38935798 0.27454057
-3.1062565 -0.36861295 0.27366903
-3.1085114 -0.34908777 0.27366903
-3.1007278 -0.32858515 0.27279747
-3.112617 -0.31035489 0.27366903
-3.1144881 -0.29098001 0.27366903
-3.1261792 -0.27226898 0.27454057
-3.1476874 -0.25422612 0.27628371
-3.1392882 -0.23370327 0.27541214
-3.1406946 -0.21397486 0.27541214
-3.1320341 -0.19362167 0.27454057
-3.1232421 -0.17338744 0.27366903
-3.12427 -0.15375936 0.27366903
-3.1251707 -0.13421178 0.27366903
-3.1259425 -0.11484542 0.27366903
-3.1265965 -0.095389731 0.27366903
-3.1271341 -0.075743794 0.27366903
-3.1275485 -0.056094863 0.27366903
-3.1278391 -0.036442053 0.27366903
-3.1280062 -0.01678947 0.27366903
-3.1380119 0.0028745674 0.27454057
-3.1279702 0.022518573 0.27366903
-3.1377282 0.042306792 0.27454057
-3.1274405 0.061823063 0.27366903
-3.1369488 0.081732333 0.27454057
-3.1363761 0.10135462 0.27454057
-3.1356878 0.12078588 0.27454057
-3.1448236 0.14083016 0.27541214
-3.1438625 0.16086057 0.27541214
-3.1427791 0.18079741 0.27541214
-3.1415811 0.20054126 0.27541214
-3.1502025 0.22088701 0.27628371
-3.1487734 0.24040164 0.27628371
-3.1472166 0.25999087 0.27628371
-3.1455207 0.27976102 0.27628371
-3.1536181 0.30046329 0.27715525
-3.1516678 0.32027289 0.27715525
-3.159507 0.3410517 0.27802682
-3.1474357 0.3594912 0.27715525
-3.1550279 0.38026354 0.27802682
-3.1525762 0.40008038 0.27802682
-3.1598749 0.42119601 0.27889836
-3.1670322 0.44242078 0.27976993
-3.1641901 0.46231017 0.27976993
-3.1513746 0.48068085 0.27889836
-3.1581306 0.50203508 0.27976993
-3.1647422 0.52349478 0.2806415
-3.1712086 0.54505563 0.28151304
-3.1677215 0.56496924 0.28151304
-3.1739054 0.58667123 0.2823846
-3.1799409 0.60847485 0.28325617
-3.1760552 0.62844205 0.28325617
-3.1818039 0.65038121 0.28412771
-3.1776547 0.67035925 0.28412771
-3.1831143 0.69243008 0.28499928
-3.1787009 0.71241558 0.28499928
-3.1838686 0.73461431 0.28587082
-3.1694977 0.75230306 0.28499928
-3.193742 0.77928793 0.28761396
-3.1887829 0.79933852 0.28761396
-3.1933448 0.82184207 0.2884855
-3.1881411 0.84180272 0.2884855
-3.1828642 0.8615405 0.2884855
-3.1966155 0.88674533 0.29022861
-3.1909018 0.90709054 0.29022861
-3.1946745 0.93000865 0.29110017
-3.1888506 0.94978523 0.29110017
-3.1924083 0.97251314 0.29197174
-3.1957457 0.995516 0.29284328
-3.1894279 1.0155749 0.29284328
-3.1924567 1.0386775 0.29371485
-3.185868 1.0587149 0.29371485
-3.19802 1.0851139 0.29545796
-3.1911392 1.1051853 0.29545796
-3.1935246 1.128534 0.29632953
-3.1957741 1.1518676 0.29720107
-3.1979265 1.1750827 0.29807264
-3.1905518 1.1949613 0.29807264
-3.1829803 1.2149854 0.29807264
-3.2031372 1.2457926 0.30068731
-3.2045083 1.2695622 0.30155885
-3.2057068 1.2933981 0.30243042
-3.1975167 1.3135154 0.30243042
-3.1983917 1.3374224 0.30330199
-3.2082579 1.3652945 0.3050451
-3.1996167 1.3854246 0.3050451
-3.199965 1.4095175 0.30591664
-3.2001371 1.4336677 0.30678821
-3.1390719 1.6503202 0.31027445
-3.1550055 1.6840848 0.3128891
-3.1531208 1.7086203 0.31376067
-3.15978 1.7380012 0.31550378
-3.1662426 1.7674451 0.31724688
-3.1552305 1.7870295 0.31724688
-3.1440494 1.8066289 0.31724688
-3.1498477 1.8363835 0.31899002
-3.1553967 1.8662802 0.32073313
-3.1436079 1.8860701 0.32073313
-3.1572258 1.9213201 0.32334781
-3.1535685 1.9463525 0.32421935
-3.1581662 1.9766982 0.32596248
-3.1625051 2.0071797 0.32770559
-3.1582091 2.0324006 0.32857713
-3.1620626 2.063092 0.33032027
-3.1656556 2.0939097 0.33206338
-3.1689844 2.1248555 0.33380648
-3.1638107 2.1503236 0.33467805
-3.1666443 2.1814637 0.33642116
-3.1692121 2.2127221 0.33816427
-3.1715102 2.2441001 0.33990738
-3.1735399 2.2755923 0.34165052
-3.1752968 2.3071997 0.34339362
-3.1767826 2.338917 0.34513673
-3.1779933 2.3707452 0.34687984
-3.1789303 2.4026787 0.34862298
-3.1795893 2.4347188 0.35036609
-3.1799719 2.4668601 0.35210919
-3.187907 2.5052586 0.35472387
-3.1877604 2.5375609 0.35646698
-3.1874871 2.5697687 0.35821009
-3.1945837 2.6084557 0.36082476
-3.1934838 2.641175 0.36256787
