# .PCD v0.7 - Point Cloud Data file format
VERSION 0.7
FIELDS x y z
SIZE 4 4 4
TYPE F F F
COUNT 1 1 1
WIDTH 1489
HEIGHT 1
VIEWPOINT 0 0 0 1 0 0 0
POINTS 1489
DATA ascii
4.9227767 -1.9742043 0.84005308
4.9195175 -2.0085881 0.84161741
4.9160991 -2.0428205 0.84318173
4.9123425 -2.0773284 0.84474611
4.9082661 -2.1120563 0.84631044
4.9039469 -2.1468151 0.84787476
4.9084067 -2.1856203 0.85100347
4.9035749 -2.2204916 0.85256779
4.8895264 -2.2512569 0.85256779
4.8931761 -2.2903082 0.8556965
4.8876081 -2.3252509 0.85726088
2.7928729 -1.4152199 0.49589723
2.740015 -1.4101416 0.48807552
2.6873333 -1.4044558 0.48025379
2.6349015 -1.3980352 0.47243208
2.5914047 -1.395601 0.46617469
2.5392377 -1.3881946 0.45835298
2.4957991 -1.3851705 0.4520956
2.4525709 -1.3815297 0.44583821
2.4095426 -1.3773066 0.43958083
2.3666656 -1.3725979 0.43332347
2.3239443 -1.3674054 0.42706609
2.2984123 -1.3717428 0.42393738
2.2560701 -1.3655003 0.41768003
2.2223129 -1.3639529 0.41298699
2.1886621 -1.3620404 0.40829393
2.1530738 -1.3481021 -0.22224714
2.1194484 -1.3453995 -0.21963246
2.0858669 -1.3424466 -0.2170178
2.052362 -1.3391943 -0.21440312
2.0189815 -1.3355746 -0.21178845
1.9940022 -1.3371372 -0.21004534
1.9608449 -1.332839 -0.20743066
1.9278215 -1.3281772 -0.204816
1.903175 -1.3287537 -0.20307288
1.8786403 -1.3290135 -0.20132977
1.8460072 -1.3233178 -0.19871509
1.8295964 -1.3290353 -0.19784354
1.797141 -1.3227888 -0.19522886
1.764837 -1.3161876 -0.19261418
1.7407079 -1.3151443 -0.19087107
1.7167039 -1.3137954 -0.18912795
1.7005855 -1.3183961 -0.1882564
1.6687644 -1.3105962 -0.18564174
1.6371095 -1.3024491 -0.18302706
1.6133804 -1.3002076 -0.18128394
1.5974619 -1.3040195 -0.18041238
1.5738821 -1.3013349 -0.17866927
1.5503997 -1.2984059 -0.17692615
1.5270168 -1.2952338 -0.17518304
1.5113629 -1.2982286 -0.17431149
1.4957739 -1.30103 -0.17343992
1.4726619 -1.2971843 -0.17169681
1.4570484 -1.2997802 -0.17082526
1.4340688 -1.2955532 -0.16908213
1.4112003 -1.2910893 -0.16733903
1.3884451 -1.2863896 -0.1655959
1.3803351 -1.2950881 -0.1655959
1.3577267 -1.2900118 -0.1638528
1.3352371 -1.2847031 -0.16210967
1.3200738 -1.2860433 -0.16123812
1.3049881 -1.2872018 -0.16036656
1.2828199 -1.2812539 -0.15862344
1.2677401 -1.2822049 -0.15775189
1.2526997 -1.2830167 -0.15688033
1.2307845 -1.2765194 -0.15513723
1.2159401 -1.2769463 -0.15426566
1.2011802 -1.2771987 -0.1533941
1.186394 -1.2773826 -0.15252255
1.1716112 -1.2774699 -0.151651
1.1568743 -1.2774221 -0.15077943
1.1421846 -1.2772399 -0.14990787
1.1275432 -1.2769239 -0.14903632
1.112951 -1.2764745 -0.14816476
1.0919791 -1.2682832 -0.14642164
1.0776472 -1.2674351 -0.14555009
1.0697042 -1.2741461 -0.14555009
1.0489627 -1.2655026 -0.14380698
1.0346816 -1.2643589 -0.14293541
1.0204566 -1.2630861 -0.14206386
1.0062885 -1.2616847 -0.1411923
-3.4779909 -0.91470534 -0.31463224
-3.4740195 -0.89036131 -0.31376067
-3.4408836 -0.85886574 -0.31027445
-3.4558923 -0.83958095 -0.31114599
-4.2714539 -0.73037308 -0.37912747
-4.4037223 -0.72468948 -0.39045772
-4.3983488 -0.69545126 -0.38958615
-4.4124808 -0.66929483 -0.39045772
-4.4642673 -0.50587678 -0.3930724
-4.4673576 -0.47781834 -0.3930724
-4.5396552 -0.45671904 -0.39917329
-4.5721889 -0.4309926 -0.40178797
-4.5251884 -0.39789224 -0.39743018
-4.5176702 -0.36864293 -0.39655861
-4.5298309 -0.34099704 -0.39743018
-4.5318842 -0.31252989 -0.39743018
-4.5238161 -0.28342506 -0.39655861
-4.5255075 -0.25499684 -0.39655861
-4.4872103 -0.22481062 -0.3930724
-4.4885168 -0.19700322 -0.3930724
-4.4797058 -0.16856976 -0.39220083
-4.4707193 -0.1401089 -0.39132929
-4.4615526 -0.11176524 -0.39045772
-4.4820871 -0.084105402 -0.39220083
-4.4725661 -0.055816587 -0.39132929
-4.4529047 -0.027591402 -0.38958615
-4.4330664 0.00038687946 -0.38784304
-4.413053 0.028112413 -0.38609993
-4.4127893 0.055840928 -0.38609993
-4.4123511 0.083564885 -0.38609993
-4.4017801 0.11103668 -0.38522837
-4.4009957 0.13869038 -0.38522837
-4.4000468 0.16609956 -0.38522837
-4.3989329 0.19335938 -0.38522837
-4.3976383 0.22085068 -0.38522837
-4.3961639 0.24847619 -0.38522837
-4.3945012 0.27633297 -0.38522837
-4.3926516 0.30432373 -0.38522837
-4.3906598 0.3318204 -0.38522837
-4.3785911 0.3582066 -0.38435683
-4.3861899 0.38644183 -0.38522837
-4.3935933 0.41492879 -0.38609993
-4.3710999 0.44028971 -0.38435683
-4.368288 0.46736491 -0.38435683
-4.3751531 0.49601871 -0.38522837
-4.3719044 0.52388173 -0.38522837
-4.3586249 0.55023611 -0.38435683
-4.3649573 0.57891983 -0.38522837
-4.3612332 0.60633522 -0.38522837
-4.357338 0.63372439 -0.38522837
-4.3533063 0.66085207 -0.38522837
-4.3392882 0.68625665 -0.38435683
-4.3447437 0.71498311 -0.38522837
-4.3401656 0.74226654 -0.38522837
-4.3354163 0.76952296 -0.38522837
-4.3304958 0.79674673 -0.38522837
-4.335145 0.82604098 -0.38609993
-4.3297944 0.8536424 -0.38609993
-4.3243165 0.88097197 -0.38609993
-4.3186965 0.90812379 -0.38609993
-4.3226404 0.93735319 -0.3869715
-4.3166661 0.96449339 -0.3869715
-4.310575 0.99136126 -0.3869715
-4.314044 1.0203438 -0.38784304
-4.3075824 1.0472883 -0.38784304
-4.3105822 1.076746 -0.38871461
-4.3036714 1.1040437 -0.38871461
-4.2875667 1.2742587 -0.39132929
-4.2986517 1.3065945 -0.3930724
-4.2808876 1.3304807 -0.39220083
-4.2819381 1.3603671 -0.3930724
-4.2733059 1.3872454 -0.3930724
-4.2645059 1.4140668 -0.3930724
-4.2649722 1.4440293 -0.39394394
-4.2558155 1.4707972 -0.39394394
-4.2558846 1.5008222 -0.3948155
-4.2557449 1.5309039 -0.39568707
-4.2460418 1.5576143 -0.39568707
-4.2548332 1.59124 -0.39743018
-4.2447515 1.6179414 -0.39743018
-4.2437887 1.6481853 -0.39830175
-4.242703 1.6782526 -0.39917329
-4.2414637 1.70823 -0.40004486
-4.2399211 1.7384868 -0.4009164
-4.2289147 1.7650914 -0.4009164
-4.2269092 1.7955235 -0.40178797
-4.2338333 1.82995 -0.40353107
-4.2312698 1.8607565 -0.40440264
-4.2284241 1.8917412 -0.40527418
-4.2255635 1.9223058 -0.40614575
-4.2316556 1.9568133 -0.40788886
-4.6856723 2.4975142 -0.46454009
-4.7923217 2.5936985 -0.47674191
-4.1559448 2.2833333 -0.41486132
-4.1154151 2.2948446 -0.41224664
-4.1097121 2.3253388 -0.41311821
-4.1211443 2.3656366 -0.41573289
-4.1148863 2.3963625 -0.41660443
-4.1083255 2.4272358 -0.417476
-4.1015382 2.4581234 -0.41834757
-4.0945253 2.4890189 -0.41921911
-4.087285 2.5199256 -0.42009068
-4.0798187 2.550837 -0.42096224
-4.0805373 2.5870903 -0.42270535
-4.0809617 2.6234508 -0.42444846
-4.0727429 2.6544809 -0.42532003
-4.0726075 2.6910007 -0.42706314
-4.0638952 2.7220814 -0.42793468
-4.0631962 2.7587523 -0.42967781
-4.053988 2.7898762 -0.43054935
-4.0608916 2.8323889 -0.43316403
-4.0511494 2.8635995 -0.4340356
-4.0492749 2.9005983 -0.43577871
-4.0469337 2.9379082 -0.43752182
-4.0441828 2.9754379 -0.43926492
-4.0332966 3.0068753 -0.44013649
-4.0302234 3.0441654 -0.4418796
-4.0270076 3.081316 -0.44362271
-4.0235863 3.1184137 -0.44536585
-4.0196877 3.1558051 -0.44710895
-4.0231709 3.1996005 -0.44972363
-4.010745 3.2310662 -0.45059517
-4.0058022 3.2687981 -0.45233831
-4.0005407 3.306597 -0.45408142
-3.9949641 3.3444562 -0.45582452
-3.9966652 3.3888199 -0.4584392
-1.7362674 1.5102787 -0.20132977
-1.7041879 1.5015513 -0.19871509
-1.6798861 1.4989278 -0.19697197
-1.6631745 1.5026294 -0.19610041
-1.6463182 1.5063605 -0.19522886
-1.614769 1.496503 -0.19261418
-1.5908386 1.4929503 -0.19087107
-1.5743359 1.4959166 -0.18999952
-1.5505977 1.4919137 -0.1882564
-1.5340585 1.4946744 -0.18738484
-1.5104545 1.4902899 -0.18564174
-1.4940143 1.4927094 -0.18477017
-1.4705997 1.487897 -0.18302706
-1.4473059 1.4828491 -0.18128394
-1.4310467 1.4847412 -0.18041238
-1.414822 1.486487 -0.17954083
-1.3918086 1.4808297 -0.1777977
-1.3757005 1.4822434 -0.17692615
-1.3596289 1.4835141 -0.1760546
-1.3369122 1.4772546 -0.17431149
-1.3143275 1.4707696 -0.17256837
-1.2918785 1.464059 -0.17082526
-1.2826537 1.4721475 -0.17082526
-1.2603854 1.4650733 -0.16908213
-1.2447056 1.4653714 -0.16821058
-1.2290728 1.4655298 -0.16733903
-1.2134867 1.4655507 -0.16646747
-1.1979498 1.4654331 -0.1655959
-1.1824619 1.4651791 -0.16472435
-1.1670253 1.4647881 -0.1638528
-1.1454815 1.4564315 -0.16210967
-1.1363082 1.4635997 -0.16210967
-1.1210297 1.4628036 -0.16123812
-1.1058072 1.4618732 -0.16036656
-1.0906399 1.4608099 -0.15949501
-1.0755309 1.4596137 -0.15862344
-1.0604793 1.458286 -0.15775189
-1.0454878 1.4568266 -0.15688033
-1.0305561 1.4552373 -0.15600878
-1.0156865 1.4535176 -0.15513723
-1.0008787 1.4516693 -0.15426566
1.003613 1.2765104 -0.14206386
1.0178199 1.2779719 -0.14293541
1.0258294 1.2715516 -0.14293541
1.0401022 1.272795 -0.14380698
1.0480788 1.2662348 -0.14380698
1.0624142 1.2672585 -0.14467853
1.0703555 1.2605582 -0.14467853
1.0847503 1.2613612 -0.14555009
1.099197 1.2620327 -0.14642164
1.1136948 1.2625723 -0.14729321
1.1282425 1.2629791 -0.14816476
1.142839 1.2632527 -0.14903632
1.1507536 1.2560471 -0.14903632
1.1586229 1.2487919 -0.14903632
1.1800889 1.2560079 -0.15077943
1.1879573 1.2485684 -0.15077943
1.2026907 1.2482536 -0.151651
1.2174668 1.2478026 -0.15252255
1.2322845 1.2472149 -0.1533941
1.2471427 1.2464899 -0.15426566
1.2548825 1.2386978 -0.15426566
1.2696661 1.2378532 -0.15513723
1.2846222 1.2367324 -0.15600878
1.2996951 1.2353871 -0.15688033
1.3147355 1.2339712 -0.15775189
1.3297693 1.2324579 -0.15862344
1.3448354 1.2308042 -0.15949501
1.3525422 1.2223301 -0.15949501
1.3749942 1.2271485 -0.16123812
1.3825711 1.2186055 -0.16123812
1.4052564 1.2229438 -0.16298124
1.4205747 1.2204589 -0.1638528
1.4282546 1.2114624 -0.1638528
1.4511131 1.2152567 -0.1655959
1.4663975 1.212463 -0.16646747
1.4817039 1.2095251 -0.16733903
1.497031 1.2064425 -0.16821058
1.5123774 1.2032148 -0.16908213
1.5355109 1.2060784 -0.17082526
1.5508263 1.2026463 -0.17169681
1.5662234 1.1989849 -0.17256837
1.581674 1.1951259 -0.17343992
1.6051232 1.1970758 -0.17518304
1.6206359 1.1928723 -0.1760546
1.6362236 1.1884315 -0.17692615
1.6599559 1.1895899 -0.17866927
1.6837037 1.1905853 -0.18041238
1.6993209 1.1856831 -0.18128394
1.7230834 1.1863747 -0.18302706
1.7386409 1.1812743 -0.18389861
1.7542653 1.1759307 -0.18477017
1.7782383 1.1758747 -0.18651329
1.8022791 1.1755635 -0.1882564
2.7551813 1.0507243 -0.257981
2.7990494 1.0473571 -0.26146722
2.8242223 1.0367683 -0.26321033
2.8774557 1.0361251 -0.26756811
5.5897222 1.8167509 -0.51421887
5.572547 1.772535 -0.51160419
5.5566826 1.3909103 -0.50114554
5.5653419 1.3558478 -0.50114554
5.3719134 0.85305029 -0.47587034
5.3771405 0.81945699 -0.47587034
5.3821831 0.78565544 -0.47587034
5.3771467 0.75044584 -0.4749988
5.8557453 0.77976304 -0.51683354
5.6529894 0.7166447 -0.49853083
6.6216359 0.75502622 -0.58307189
6.5866303 0.70914102 -0.57958567
6.5909562 0.66774219 -0.57958567
8.0178223 0.71063554 -0.70421839
7.9923439 0.65779293 -0.70160371
7.7181864 0.58643019 -0.67720014
8.0198545 0.55869335 -0.70334685
8.0231791 0.50872928 -0.70334685
8.4240046 0.48176086 -0.73820913
9.1929283 0.46810699 -0.80531907
9.1857367 0.40989307 -0.80444747
9.7256813 0.3727732 -0.8515116
10.185845 0.32633165 -0.89160323
10.70556 0.27507576 -0.93692422
11.31466 0.21861055 -0.99008924
10.544339 -2.1379642 -0.94128203
9.9653425 -2.0849309 -0.89073169
9.4262705 -2.033726 -0.84366757
8.9076328 -1.9804834 -0.79834658
8.5065851 -1.947486 -0.7634843
8.0772295 -1.9026783 -0.72600734
7.7262444 -1.871316 -0.69550282
7.4146543 -1.8452445 -0.66848451
7.0941558 -1.8124816 -0.64059472
6.8129697 -1.7856808 -0.61619109
6.5226812 -1.7532387 -0.59091592
6.2810397 -1.7306761 -0.56999856
6.0399485 -1.7051486 -0.54908115
5.828145 -1.6849626 -0.53077847
5.6263943 -1.6650116 -0.51334733
5.4537349 -1.6512545 -0.49853083
5.2814775 -1.6353954 -0.48371437
5.1096406 -1.6174381 -0.46889788
4.9666796 -1.6065868 -0.45669609
4.9659462 -1.640887 -0.45756763
4.9650688 -1.6749709 -0.4584392
4.964015 -1.7089441 -0.45931077
4.962635 -1.7432394 -0.46018231
4.9609623 -1.7777466 -0.46105388
4.9590511 -1.8123014 -0.46192542
4.9569016 -1.8469023 -0.46279699
4.945199 -1.8780107 -0.46279699
4.9333019 -1.9090451 -0.46279699
4.9304771 -1.9436576 -0.46366856
4.9274125 -1.9783099 -0.46454009
4.9242158 -2.012732 -0.46541166
4.9208488 -2.047029 -0.4662832
4.9171314 -2.08163 -0.46715477
4.9131045 -2.1164253 -0.46802634
4.908834 -2.1512518 -0.46889788
4.9043193 -2.1861081 -0.46976945
4.89956 -2.2209926 -0.47064102
4.9036031 -2.2600725 -0.47238412
4.8983269 -2.2950647 -0.47325566
2.8163729 -1.4063401 -0.27541214
2.7630589 -1.4014763 -0.27105436
2.7099187 -1.3959988 -0.26669657
2.6569586 -1.38991 -0.26233879
2.6130569 -1.3877423 -0.25885254
2.5605633 -1.3802708 -0.25449476
2.5168536 -1.3772591 -0.25100854
2.4731951 -1.3739135 -0.24752231
2.4297576 -1.3699361 -0.24403608
2.3865149 -1.3653874 -0.24054985
2.3434267 -1.3603501 -0.23706362
2.3090813 -1.3598812 -0.23444894
2.2749095 -1.3589113 -0.23183428
2.2323644 -1.3523338 -0.22834805
2.1984775 -1.3504965 -0.22573337
2.1562445 -1.3430248 -0.22224714
2.1709821 -1.3604856 0.49801147
2.1376548 -1.3581183 0.49228719
2.1043596 -1.3555174 0.48656294
2.0711446 -1.3526101 0.48083866
2.0380502 -1.3493396 0.47511441
1.996929 -1.3402369 0.46748203
1.9722363 -1.3417146 0.46366584
1.9395231 -1.3373629 0.45794159
1.9070234 -1.3325393 0.45221731
1.8907191 -1.3386573 0.45030922
1.85838 -1.3332922 0.44458497
1.8261467 -1.3276256 0.43886068
1.8019624 -1.3274289 0.4350445
1.7699866 -1.32111 0.42932025
1.7539009 -1.326179 0.42741215
1.7222712 -1.3191139 0.42168787
1.7062297 -1.3238448 0.41977978
1.6747252 -1.3163409 0.41405553
1.6510626 -1.3146086 0.41023934
1.6274886 -1.3126314 0.40642315
1.6040052 -1.3104103 0.40260696
1.5806144 -1.3079463 0.39879081
1.5573187 -1.3052408 0.39497462
1.5416034 -1.3086473 0.39306653
1.511098 -1.2990184 0.38734224
1.4882125 -1.2954657 0.38352609
1.4727157 -1.2982589 0.38161799
1.4572068 -1.3009491 0.3797099
1.4344412 -1.2969127 0.37589371
1.4190242 -1.299271 0.37398562
1.3892384 -1.2881384 0.36826137
1.3739613 -1.2901224 0.36635327
1.3516008 -1.2852013 0.36253709
1.3293569 -1.2800506 0.3587209
1.3143365 -1.2814461 0.3568128
1.2993854 -1.2826692 0.35490471
1.2843933 -1.283833 0.35299665
1.2625036 -1.2779114 0.34918046
1.2475944 -1.2787924 0.34727237
1.2327247 -1.2795364 0.34536427
1.2112049 -1.2729602 0.34154809
1.2032943 -1.2804404 0.34154809
1.1819059 -1.2735524 0.33773193
1.1672485 -1.2737163 0.33582383
1.1526359 -1.2737467 0.33391574
1.1380694 -1.273644 0.33200765
1.1235499 -1.2734088 0.33009955
1.1090786 -1.2730416 0.32819146
1.0883309 -1.2650362 0.32437527
1.0741163 -1.2642741 0.32246721
1.0535687 -1.2559277 0.31865102
1.0456568 -1.2625227 0.31865102
1.0314897 -1.2614685 0.31674293
1.0173774 -1.2602866 0.31483483
1.0033209 -1.2589773 0.31292674
-3.4749572 -0.91244918 0.69836092
-3.4520922 -0.8832975 0.69263667
-4.2866817 -0.73126858 0.84528381
-4.3977256 -0.72192967 0.86627281
-4.4021749 -0.69428265 0.86627281
-4.4064498 -0.6666106 0.86627281
-4.4381981 -0.50115824 0.86818093
-4.4412594 -0.47326127 0.86818093
-4.4441452 -0.44534796 0.86818093
-4.446856 -0.41741475 0.86818093
-4.4396119 -0.38861144 0.86627281
-4.4419661 -0.36070782 0.86627281
-4.4441447 -0.33279231 0.86627281
-4.4265614 -0.30351833 0.86245662
-4.428381 -0.27570075 0.86245662
-4.4300261 -0.24786992 0.86245662
-4.4314823 -0.22029839 0.86245662
-4.4327626 -0.19283639 0.86245662
-4.4240727 -0.16473719 0.86054856
-4.4250202 -0.13693564 0.86054856
-4.4257932 -0.10913102 0.86054856
-4.4165769 -0.081139438 0.85864049
-4.4071841 -0.053270336 0.85673237
-4.4074321 -0.025577091 0.85673237
-4.4075055 0.0021148149 0.85673237
-4.3975892 0.029742595 0.8548243
-4.3973155 0.057371572 0.8548243
-4.3968682 0.085000619 0.8548243
-4.3962474 0.11262397 0.8548243
-4.395453 0.14024523 0.8548243
-4.394495 0.16759411 0.8548243
-4.3835659 0.19438462 0.85291618
-4.3822641 0.2218032 0.85291618
-4.3807836 0.24933442 0.85291618
-4.3889108 0.27773699 0.8548243
-4.3772597 0.30500743 0.85291618
-4.375268 0.3323611 0.85291618
-4.3829079 0.36026835 0.8548243
-4.3707905 0.38681421 0.85291618
-4.358501 0.41334331 0.85100812
-4.3558445 0.44045696 0.85100812
-4.3530321 0.46743762 0.85100812
-4.3499928 0.49492165 0.85100812
-4.3467517 0.52262211 0.85100812
-4.3433671 0.55004227 0.85100812
-4.349556 0.57861704 0.85291618
-4.3361125 0.60457784 0.85100812
-4.3419414 0.63322812 0.85291618
-4.3379169 0.66023451 0.85291618
-4.3337431 0.68709987 0.85291618
-4.32936 0.7141971 0.85291618
-4.3247867 0.74138618 0.85291618
-4.3297081 0.77026308 0.8548243
-4.3247824 0.79745322 0.8548243
-4.3196373 0.82486963 0.8548243
-4.3142948 0.85236996 0.8548243
-4.3184481 0.88154209 0.85673237
-4.3128238 0.90865928 0.85673237
-4.3070297 0.93573838 0.85673237
-4.301065 0.96278274 0.85673237
-4.2949905 0.98952836 0.85673237
-4.2887769 1.0161214 0.85673237
-4.2918739 1.0452538 0.85864049
-4.294744 1.0745834 0.86054856
-4.2878413 1.1018037 0.86054856
-4.2808328 1.2740617 0.86818093
-4.2822471 1.3034199 0.87008899
-4.2740097 1.330183 0.87008899
-4.284276 1.3629639 0.87390518
-4.2662926 1.3868201 0.87199712
-4.2574944 1.4135996 0.87199712
-4.2578254 1.4434727 0.87390518
-4.2486711 1.4701979 0.87390518
-4.2578626 1.5033994 0.87772137
-4.248332 1.5301237 0.87772137
-4.247849 1.5601696 0.87962943
-4.2471552 1.5902719 0.88153756
-4.2462511 1.6204247 0.88344562
-4.2359862 1.6470715 0.88344562
-4.2347808 1.6770154 0.88535374
-4.2334127 1.706893 0.88726181
-4.2317328 1.7370703 0.88916993
-4.2297921 1.7674104 0.891078
-4.2186041 1.7939508 0.891078
-4.2162576 1.8243208 0.89298606
-4.2135863 1.8549811 0.89489418
-4.2106428 1.8857973 0.89680225
-4.2077065 1.9161491 0.89871037
-4.2135692 1.9504306 0.90252656
-4.2012854 1.9767514 0.90252656
-4.1976376 2.0073457 0.90443462
-4.08006 2.2772329 0.90825081
-4.0914354 2.3170898 0.91397506
-4.0940232 2.3521764 0.91779125
-4.09619 2.3876283 0.92160743
-4.0980053 2.4233122 0.92542362
-4.0911174 2.4540613 0.92733169
-4.0840025 2.4848213 0.92923981
-4.0683103 2.5104315 0.92923981
-4.069098 2.5463595 0.933056
-4.0613079 2.5771344 0.93496406
-4.0615449 2.6132252 0.93878025
-4.0614891 2.6494184 0.94259644
-4.0529494 2.6803007 0.9445045
-4.0523367 2.7166443 0.94832069
-4.051425 2.7530875 0.95213687
-4.0421319 2.7840559 0.95404494
-4.040657 2.820637 0.95786113
-4.0388827 2.857307 0.96167731
-4.0368052 2.8940675 0.9654935
-4.0342493 2.931155 0.96930969
-4.0233998 2.9626153 0.97121775
-4.0203595 2.9996867 0.97503394
-4.0249233 3.0426476 0.98075819
-4.0137057 3.0736029 0.98266631
-4.010097 3.1104457 0.9864825
-4.0059981 3.1476004 0.99029869
-4.001502 3.1849358 0.99411488
-3.9966962 3.2223365 0.997931
-3.9915762 3.259804 1.0017473
-3.9861441 3.297332 1.0055634
-3.98792 3.3412261 1.0112877
-3.981818 3.3789184 1.0151038
-1.742028 1.4971915 0.44649303
-1.7102847 1.4888752 0.44076878
-1.6934029 1.4932475 0.43886068
-1.6693926 1.4907262 0.4350445
-1.6455615 1.4878743 0.43122831
-1.6216522 1.484979 0.42741215
-1.6049626 1.4886038 0.42550406
-1.5813164 1.4851661 0.42168787
-1.5578568 1.4814067 0.41787168
-1.5414879 1.4843144 0.41596359
-1.5180748 1.4802648 0.41214743
-1.4947746 1.4759792 0.40833125
-1.4785302 1.4784007 0.40642315
-1.4554169 1.4736923 0.40260696
-1.4392747 1.4757807 0.40069887
-1.4163554 1.4706535 0.39688271
-1.4003217 1.4724109 0.39497462
-1.3776032 1.466869 0.39115843
-1.3550091 1.4611011 0.38734224
-1.3391728 1.4623462 0.38543415
-1.3233739 1.4634511 0.38352609
-1.301077 1.4570926 0.3797099
-1.2854038 1.4578761 0.37780181
-1.2697732 1.4585197 0.37589371
-1.2541847 1.4590255 0.37398562
-1.2322891 1.4519085 0.37016943
-1.2168369 1.452099 0.36826137
-1.2014321 1.4521523 0.36635327
-1.1798643 1.4444678 0.36253709
-1.1707656 1.4518522 0.36253709
-1.1555061 1.4515001 0.36062899
-1.1402982 1.4510132 0.3587209
-1.1251416 1.4503933 0.3568128
-1.1100388 1.4496402 0.35490471
-1.0949893 1.4487553 0.35299665
-1.0799958 1.4477382 0.35108855
-1.0650578 1.4465908 0.34918046
-1.0501778 1.4453126 0.34727237
-1.0353553 1.4439055 0.34536427
-1.020593 1.4423687 0.34345618
-1.0058904 1.4407045 0.34154809
1.0113206 1.2525604 0.31292674
1.0253851 1.25378 0.31483483
1.0395046 1.2548721 0.31674293
1.0473686 1.2483159 0.31674293
1.061548 1.2491907 0.31865102
1.0821828 1.2573764 0.32246721
1.0900615 1.2505522 0.32246721
1.0978975 1.2436785 0.32246721
1.1122326 1.2440737 0.32437527
1.1200273 1.2370608 0.32437527
1.1344118 1.2372344 0.32628337
1.1421632 1.2300823 0.32628337
1.1565938 1.230033 0.32819146
1.1710685 1.2298506 0.33009955
1.1855866 1.2295346 0.33200765
1.2001464 1.2290845 0.33391574
1.2147473 1.2284997 0.33582383
1.2224422 1.220843 0.33582383
1.2370046 1.2201052 0.33773193
1.2515718 1.2192672 0.33963999
1.2733965 1.2249486 0.34345618
1.2882917 1.2235719 0.34536427
1.3031474 1.2221328 0.34727237
1.3108006 1.2139208 0.34727237
1.3328898 1.21891 0.35108855
1.3478075 1.21709 0.35299665
1.3626819 1.2152122 0.35490471
1.3775516 1.2132338 0.3568128
1.3851868 1.2045091 0.3568128
1.4002801 1.2020544 0.3587209
1.4153261 1.199541 0.36062899
1.4378916 1.2032238 0.36444518
1.4529909 1.2004178 0.36635327
1.4681114 1.1974691 0.36826137
1.4832519 1.1943778 0.37016943
1.5060955 1.1972516 0.37398562
1.5135169 1.1878557 0.37398562
1.5286071 1.1844679 0.37589371
1.5515809 1.1868097 0.3797099
1.5668414 1.1829522 0.38161799
1.5821143 1.1789496 0.38352609
1.6053064 1.1806173 0.38734224
1.6127629 1.1704109 0.38734224
1.6361486 1.171543 0.39115843
1.6595432 1.1725235 0.39497462
1.6749301 1.1676871 0.39688271
1.6902517 1.1628048 0.39879081
1.7055454 1.1578234 0.40069887
1.7372233 1.1635185 0.40642315
1.7526897 1.1579915 0.40833125
1.7681549 1.1523159 0.41023934
1.7918751 1.1517992 0.41405553
5.7048807 3.3701622 1.2879606
5.7174602 3.3293118 1.2860526
5.7212386 3.2835498 1.2822365
5.7503009 3.2523704 1.2841445
5.7534738 3.2066183 1.2803284
5.7304859 3.1467805 1.2707878
5.7242432 3.0967007 1.2650636
5.7262607 3.051441 1.2612474
5.719245 3.0017161 1.2555232
5.7205515 2.9567075 1.251707
5.7040219 2.9028969 1.2440746
5.704596 2.8582058 1.2402585
5.6872272 2.8049386 1.2326261
5.687077 2.7605765 1.22881
5.6865945 2.7163272 1.2249937
5.676897 2.6680179 1.2192695
5.6757283 2.6240578 1.2154533
5.5759449 1.7712048 1.1372216
5.5869637 1.7361354 1.1372216
5.5977616 1.7009974 1.1372216
5.5801086 1.6574073 1.1314974
5.5809851 1.6195781 1.1295892
5.5721622 1.5791271 1.1257731
5.5725131 1.541468 1.123865
5.5054007 0.94229186 1.0857031
5.3465014 0.88088357 1.0532657
5.3861694 0.81866896 1.0589899
5.371779 0.78198254 1.0551738
5.3668637 0.74686235 1.0532657
5.3811817 0.71441865 1.0551738
5.8919826 0.74459177 1.1543944
5.662632 0.67948842 1.1086003
6.3007674 0.7159332 1.2326261
6.5296278 0.70041025 1.2765121
6.2604332 0.63177282 1.2230856
6.4597325 0.61090952 1.2612474
6.7079005 0.5918799 1.3089497
6.946291 0.56895369 1.3547438
7.204226 0.54453409 1.4043542
7.4817038 0.5182516 1.4577807
7.7786894 0.49020267 1.5150234
8.1539955 0.4631516 1.5875309
8.4704533 0.42798352 1.6485897
8.9044695 0.39383861 1.7325456
9.3776102 0.35574433 1.824134
9.8113604 0.31047732 1.9080899
9.9112949 -2.1424439 1.9710569
9.3610773 -2.0851581 1.8642038
8.8789663 -2.0364082 1.7707075
8.4360714 -1.9907043 1.6848434
8.0418158 -1.9510916 1.6085198
7.6960306 -1.9184787 1.5417366
7.3606081 -1.8835939 1.4768616
7.0449705 -1.849404 1.4158027
6.7678566 -1.8219895 1.3623762
6.5102487 -1.7965829 1.3127658
6.2437906 -1.7653431 1.2612474
6.0251369 -1.7444786 1.2192695
5.8070006 -1.7209386 1.1772915
5.6175876 -1.7032735 1.1410378
5.4567609 -1.6920201 1.1105083
5.2869458 -1.6758485 1.0780708
5.1082172 -1.6545863 1.0437251
4.9579291 -1.6403975 1.0151038
4.9476242 -1.6712202 1.0151038
4.9464555 -1.7050415 1.0170119
4.9356918 -1.7359525 1.0170119
4.9431663 -1.7735602 1.0208281
4.9503622 -1.8113298 1.0246443
4.9572783 -1.8492599 1.0284605
4.9455609 -1.8803707 1.0284605
4.9336491 -1.9114074 1.0284605
4.9306726 -1.9459721 1.0303686
4.9274564 -1.9805748 1.0322766
4.9241209 -2.0149188 1.0341847
4.9206042 -2.0491626 1.0360929
4.9167266 -2.0837357 1.0380009
4.9125509 -2.1184742 1.039909
4.9081326 -2.1532423 1.0418171
4.903471 -2.1880383 1.0437251
4.8985653 -2.2228608 1.0456333
4.8934155 -2.2577078 1.0475414
4.8880205 -2.292577 1.0494494
4.8823805 -2.3274679 1.0513575
2.7921338 -1.4176024 0.60868067
2.7395482 -1.4126239 0.59914023
2.6871374 -1.4070413 0.58959979
2.6349902 -1.4006989 0.58005935
2.6003442 -1.4030144 0.57433504
2.548384 -1.3958317 0.5647946
2.4965441 -1.3881859 0.55525416
2.4535389 -1.3846145 0.54762179
2.410717 -1.3804909 0.53998947
2.3765328 -1.3808161 0.53426516
2.3255277 -1.3707974 0.52472472
2.291676 -1.370131 0.51900047
2.2579613 -1.3690355 0.51327616
2.2243488 -1.3675756 0.50755191
2.1908424 -1.3657521 0.50182766
2.1657491 -1.3583742 -0.13398005
2.1320105 -1.3556913 -0.13240996
2.0983007 -1.3527806 -0.13083988
2.0730414 -1.3550104 -0.12979317
2.0395131 -1.3514603 -0.12822309
2.0061123 -1.3475432 -0.12665302
1.9728421 -1.3432603 -0.12508294
1.9479251 -1.3442852 -0.12403622
1.9149781 -1.3392016 -0.12246613
1.8903477 -1.3394935 -0.12141941
1.8657001 -1.3396542 -0.1203727
1.8330212 -1.3337239 -0.11880262
1.8085293 -1.3333623 -0.1177559
1.7761143 -1.3267701 -0.11618582
1.7598673 -1.3317618 -0.11566246
1.7357308 -1.3304894 -0.11461575
1.7115909 -1.3290819 -0.11356902
1.6796596 -1.3212872 -0.11199895
1.6557047 -1.3193678 -0.11095223
1.6318409 -1.3172001 -0.1099055
1.6080704 -1.314785 -0.10885879
1.5843952 -1.3121237 -0.10781207
1.5608175 -1.3092173 -0.10676535
1.54495 -1.3125327 -0.10624199
1.5216188 -1.3090875 -0.10519527
1.505949 -1.3119304 -0.10467191
1.482728 -1.3081206 -0.10362519
1.4595859 -1.3041037 -0.10257848
1.4439583 -1.3065486 -0.10205511
1.4209952 -1.3021021 -0.10100839
1.4054657 -1.304212 -0.10048503
1.3826888 -1.2993398 -0.099438317
1.3600291 -1.2942333 -0.098391593
1.3518704 -1.302753 -0.098391593
1.3294491 -1.2971851 -0.097344875
1.3142819 -1.2983792 -0.096821517
1.2990664 -1.2995204 -0.096298158
1.2838601 -1.3005501 -0.0957748
1.2617218 -1.2942892 -0.094728082
1.246639 -1.2949969 -0.094204716
1.2248012 -1.2882483 -0.093157999
1.2099597 -1.2885326 -0.092634641
1.1950779 -1.2887608 -0.092111282
1.1734686 -1.2815142 -0.091064565
1.1653935 -1.288862 -0.091064565
1.1506214 -1.2887096 -0.090541206
1.1292934 -1.2809321 -0.089494482
1.114666 -1.2804701 -0.088971123
1.1066829 -1.287376 -0.088971123
1.0922225 -1.2865951 -0.088447765
1.0713152 -1.278102 -0.087401047
1.0632635 -1.284808 -0.087401047
1.0488515 -1.28373 -0.086877689
1.0344952 -1.282522 -0.086354323
1.0139751 -1.2733723 -0.085307606
1.0121258 -1.2875692 -0.085830964
-4.3119936 -0.73386842 -0.22923149
-4.4051995 -0.72138083 -0.23394172
-4.4096451 -0.6936869 -0.23394172
-4.4139166 -0.66596788 -0.23394172
-4.4954228 -0.50583285 -0.23708187
-4.4389296 -0.47125074 -0.23394172
-4.4418025 -0.44335213 -0.23394172
-4.4544435 -0.41636306 -0.23446508
-4.4768686 -0.39010185 -0.23551179
-4.5290008 -0.36598593 -0.2381286
-4.5212522 -0.33678168 -0.23760524
-4.4834266 -0.30564922 -0.23551179
-4.4852581 -0.27747434 -0.23551179
-4.4968843 -0.24984005 -0.23603515
-4.4983506 -0.22187641 -0.23603515
-4.469708 -0.19270958 -0.23446508
-4.4708271 -0.16472074 -0.23446508
-4.4917369 -0.13723533 -0.23551179
-4.4725437 -0.10852705 -0.23446508
-4.4531679 -0.080063008 -0.23341836
-4.4535832 -0.052082669 -0.23341836
-4.4338503 -0.023989839 -0.23237164
-4.4339132 0.0038680192 -0.23237164
-4.4338017 0.031728085 -0.23237164
-4.4335146 0.059584539 -0.23237164
-4.4230685 0.087244064 -0.23184828
-4.432416 0.11529166 -0.23237164
-4.4216228 0.14281772 -0.23184828
-4.4206495 0.17030585 -0.23184828
-4.4195094 0.19769324 -0.23184828
-4.4181852 0.22536014 -0.23184828
-4.4067121 0.25254562 -0.23132493
-4.4149861 0.28115079 -0.23184828
-4.413105 0.30927193 -0.23184828
-4.4011326 0.33603993 -0.23132493
-4.3890133 0.36248127 -0.23080157
-4.4164991 0.39260674 -0.23237164
-4.4139447 0.42034972 -0.23237164
-4.4112463 0.44778475 -0.23237164
-4.398458 0.47403848 -0.23184828
-4.395371 0.50185609 -0.23184828
-4.3821702 0.52865177 -0.23132493
-4.3886566 0.5575282 -0.23184828
-4.3751683 0.58377218 -0.23132493
-4.3714142 0.61124939 -0.23132493
-4.3773685 0.64014977 -0.23184828
-4.3733039 0.66735315 -0.23184828
-4.3690848 0.69443762 -0.23184828
-4.3646512 0.72177911 -0.23184828
-4.3600297 0.74918979 -0.23184828
-4.355237 0.77656859 -0.23184828
-4.3502712 0.80391902 -0.23184828
-4.3450799 0.83152008 -0.23184828
-4.3494906 0.86112422 -0.23237164
-4.3439751 0.88852942 -0.23237164
-4.3383064 0.91580695 -0.23237164
-4.3422246 0.94516993 -0.232895
-4.3459439 0.97462052 -0.23341836
-4.33007 0.9993763 -0.232895
-4.3335114 1.0284926 -0.23341836
-4.3269868 1.0556047 -0.23341836
-4.3202686 1.0827721 -0.23341836
-4.3229785 1.1126664 -0.23394172
-4.3158026 1.1401844 -0.23394172
-4.3085279 1.1673717 -0.23394172
-4.320353 1.1997628 -0.23498844
-4.3031244 1.224151 -0.23446508
-4.2953477 1.2511652 -0.23446508
-4.3066254 1.2835537 -0.23551179
-4.3176947 1.3160365 -0.23655851
-4.3093705 1.3430439 -0.23655851
-4.2913313 1.3670639 -0.23603515
-4.2921534 1.3970897 -0.23655851
-4.2927666 1.4271821 -0.23708187
-4.2837148 1.4541248 -0.23708187
-4.2839293 1.4842819 -0.23760524
-4.2745194 1.511168 -0.23760524
-4.2649398 1.5379968 -0.23760524
-4.2739377 1.5716558 -0.23865196
-4.2733288 1.6019852 -0.23917532
-4.2725081 1.6323665 -0.23969868
-4.2714739 1.6628007 -0.24022204
-4.2703352 1.6930085 -0.2407454
-4.2597632 1.7194353 -0.2407454
-4.2581511 1.749868 -0.24126875
-4.2562847 1.7804431 -0.24179211
-4.2725792 1.8188844 -0.24336219
-4.2519026 1.8417257 -0.24283883
-4.2584014 1.876736 -0.24388555
-4.2554722 1.9079105 -0.24440891
-4.2434845 1.9344263 -0.24440891
-4.2495389 1.9690791 -0.24545564
-4.2371268 1.9956471 -0.24545564
-4.2335114 2.0265431 -0.245979
-4.1293101 2.272922 -0.24702571
-4.1149468 2.2988234 -0.24702571
-4.11795 2.3342123 -0.24807243
-4.1207223 2.3696389 -0.24911915
-4.1230564 2.4054573 -0.25016588
-4.1164541 2.436403 -0.25068924
-4.1096268 2.4673586 -0.2512126
-4.1025715 2.4983263 -0.25173596
-4.0952907 2.5293007 -0.25225931
-4.0962434 2.5655847 -0.25330603
-4.0884733 2.5966241 -0.25382939
-4.0804729 2.6276693 -0.25435275
-4.0889688 2.6696327 -0.25592282
-4.080441 2.7007844 -0.25644618
-4.079977 2.7374961 -0.2574929
-4.0792108 2.7743104 -0.25853962
-4.0699215 2.8055525 -0.25906298
-4.0685854 2.8425088 -0.26010969
-4.066946 2.8795567 -0.26115641
-4.0568862 2.9108758 -0.26167977
-4.0544782 2.9483182 -0.26272649
-4.0516911 2.9859374 -0.2637732
-4.0487881 3.0233729 -0.26481992
-4.045639 3.0608039 -0.26586667
-4.0344567 3.0919726 -0.26639003
-4.0388865 3.1352818 -0.2679601
-4.0270271 3.1666811 -0.26848346
-4.0304832 3.2105882 -0.27005354
-4.0257754 3.24839 -0.27110025
-4.0207496 3.2862608 -0.27214697
-4.0154076 3.3241944 -0.27319369
-4.0173974 3.3686085 -0.27476376
-4.0037651 3.4002471 -0.27528712
-1.7261772 1.4847469 -0.11932598
-1.7167166 1.4956756 -0.11932598
-1.707154 1.5065811 -0.11932598
-1.690274 1.5105495 -0.11880262
-1.6734773 1.5142932 -0.11827926
-1.6417768 1.5046089 -0.11670918
-1.6248397 1.508243 -0.11618582
-1.6008439 1.5046734 -0.1151391
-1.5842561 1.507679 -0.11461575
-1.5604037 1.5037096 -0.11356902
-1.5294831 1.4925607 -0.11199895
-1.5129722 1.4951215 -0.11147559
-1.4894308 1.4904702 -0.11042886
-1.4730226 1.4926906 -0.1099055
-1.4566447 1.4947648 -0.10938215
-1.4333755 1.489496 -0.10833543
-1.4171089 1.4912341 -0.10781207
-1.4008781 1.4928261 -0.10728871
-1.3778951 1.4869492 -0.10624199
-1.361784 1.4882096 -0.10571863
-1.339016 1.4819177 -0.10467191
-1.3230304 1.4828498 -0.10414855
-1.3070855 1.4836406 -0.10362519
-1.2911838 1.4842892 -0.10310183
-1.2688185 1.4772218 -0.10205511
-1.2530532 1.4775484 -0.10153175
-1.2373333 1.477736 -0.10100839
-1.2216616 1.477784 -0.10048503
-1.2060376 1.4776944 -0.099961676
-1.190464 1.4774666 -0.099438317
-1.1687238 1.4692868 -0.098391593
-1.1594694 1.4766008 -0.098391593
-1.1440505 1.4759642 -0.097868234
-1.1286863 1.475192 -0.097344875
-1.1133765 1.4742857 -0.096821517
-1.0981237 1.473245 -0.096298158
-1.0829273 1.4720718 -0.0957748
-1.0677902 1.4707656 -0.095251441
-1.0527116 1.469328 -0.094728082
-1.0376942 1.4677589 -0.094204716
-1.0284512 1.4742502 -0.094204716
-1.0135063 1.4724567 -0.093681358
1.013249 1.2866855 -0.085830964
1.0275409 1.2881004 -0.086354323
1.035614 1.2816187 -0.086354323
1.0436462 1.2750865 -0.086354323
1.0580107 1.2761918 -0.086877689
1.07243 1.2771667 -0.087401047
1.0869032 1.2780105 -0.087924406
1.0949117 1.2711561 -0.087924406
1.1094416 1.2717768 -0.088447765
1.1107986 1.257297 -0.087924406
1.131994 1.2651774 -0.088971123
1.1399209 1.2580398 -0.088971123
1.1545547 1.2582107 -0.089494482
1.1692353 1.258247 -0.09001784
1.1839617 1.2581482 -0.090541206
1.1918434 1.2506845 -0.090541206
1.2066127 1.2503572 -0.091064565
1.2214246 1.2498934 -0.091587923
1.2362781 1.2492926 -0.092111282
1.2441032 1.2415003 -0.092111282
1.2660234 1.2477605 -0.093157999
1.2808858 1.2468581 -0.093681358
1.2887487 1.2387294 -0.093681358
1.3038574 1.2373687 -0.094204716
1.31892 1.2359518 -0.094728082
1.3339893 1.2344229 -0.095251441
1.3564632 1.2394896 -0.096298158
1.3716384 1.2376323 -0.096821517
1.3793072 1.2290798 -0.096821517
1.4018894 1.2337049 -0.097868234
1.4096668 1.2248107 -0.097868234
1.4250206 1.2223074 -0.098391593
1.4403197 1.2197521 -0.098914959
1.4632772 1.2234898 -0.099961676
1.4709357 1.2142717 -0.099961676
1.4940182 1.2176235 -0.10100839
1.5172002 1.2207326 -0.10205511
1.5326601 1.2173868 -0.10257848
1.548058 1.2139961 -0.10310183
1.5634462 1.2104949 -0.10362519
1.5868635 1.2128099 -0.10467191
1.6024247 1.2088296 -0.10519527
1.6260082 1.2106652 -0.10624199
1.6416299 1.2063384 -0.10676535
1.65734 1.2017542 -0.10728871
1.6730838 1.1969825 -0.10781207
1.6887558 1.1921693 -0.10833543
1.7126015 1.1929508 -0.10938215
1.7364451 1.193593 -0.11042886
1.7438071 1.1828113 -0.11042886
1.776077 1.1885312 -0.11199895
1.7835097 1.1773484 -0.11199895
1.8243463 1.1879157 -0.11409238
5.7576923 3.4472728 -0.35169762
5.736238 3.3856485 -0.34908083
5.7228703 3.329453 -0.3469874
2.8067145 1.0477129 -0.15700787
2.8506837 1.0439777 -0.15910131
2.9134872 1.0465512 -0.16224146
5.6238122 1.8229486 -0.30982885
5.5970798 1.7754991 -0.30773541
5.5926409 1.5446718 -0.3040719
5.5925932 1.5069036 -0.30354854
5.582634 1.4666599 -0.30250183
5.5722971 1.4269652 -0.30145511
5.5616527 1.3875782 -0.30040839
5.5800247 1.3547188 -0.30093175
5.3758397 0.849406 -0.28523096
5.3909264 0.81722558 -0.28575432
5.3663068 0.77903336 -0.28418425
5.3908787 0.74804574 -0.28523096
5.8310699 0.77181613 -0.30825877
5.6772761 0.71519369 -0.29988503
6.5344024 0.7814939 -0.34489393
6.598721 0.74716401 -0.34803411
6.5933557 0.70462734 -0.34751076
6.5877166 0.66218758 -0.3469874
8.0180798 0.70431226 -0.42182779
8.0223465 0.65391952 -0.42182779
7.6976771 0.57879186 -0.40455693
8.019968 0.5523724 -0.42130443
8.0431814 0.50374383 -0.42235115
8.7739897 0.49495926 -0.46055642
9.2157631 0.46201226 -0.48358423
9.2184839 0.40409908 -0.48358423
9.7497425 0.36602601 -0.51132226
10.240939 0.32004443 -0.53696692
10.761891 0.26794815 -0.56418163
11.35247 0.21029805 -0.59505981
11.982651 0.1471878 -0.62803149
12.712318 0.077380173 -0.6662367
13.551403 -0.0023635037 -0.71019894
14.519771 -0.09376426 -0.76096481
18.051954 -0.34346178 -0.94623405
17.889711 -0.45283505 -0.93786031
17.896494 -0.56554538 -0.9383837
17.902567 -0.67835873 -0.93890703
17.98774 -0.7947973 -0.94361728
17.992424 -0.90712851 -0.94414061
17.959795 -1.1299359 -0.9430939
17.962303 -1.2434474 -0.94361728
17.964094 -1.3570327 -0.94414061
17.945259 -1.4690622 -0.94361728
17.925728 -1.5809064 -0.9430939
17.905499 -1.6925656 -0.94257057
17.904446 -1.8060373 -0.9430939
17.882816 -1.9174335 -0.94257057
17.870415 -2.0297561 -0.94257057
17.857309 -2.1419985 -0.94257057
17.853554 -2.254241 -0.9430939
17.849144 -2.366127 -0.94361728
17.84387 -2.4792166 -0.94414061
17.82794 -2.5912833 -0.94414061
17.82118 -2.7047465 -0.944664
17.79397 -2.8151057 -0.94414061
17.785786 -2.9284749 -0.944664
13.903253 -2.4680984 -0.74003041
12.905538 -2.3735569 -0.68769443
12.036798 -2.2926042 -0.64216214
11.277312 -2.2224867 -0.60238683
10.578234 -2.153367 -0.56575167
9.9783049 -2.09571 -0.5343501
9.4281855 -2.0418909 -0.50556535
8.9570818 -1.9988625 -0.48096743
8.5161076 -1.9567074 -0.45793959
8.1246252 -1.9205803 -0.43752858
7.7630601 -1.8866897 -0.41868764
7.4313216 -1.8555925 -0.40141678
7.110086 -1.8224185 -0.38466927
6.808917 -1.7902552 -0.36896849
6.5372415 -1.7626585 -0.35483778
6.2854018 -1.7371901 -0.34175378
6.0533667 -1.7140708 -0.32971653
5.8506527 -1.6964499 -0.31924933
5.648407 -1.6763514 -0.30878213
5.4562073 -1.6566821 -0.29883832
5.2835598 -1.6405888 -0.28994119
5.1208544 -1.6254143 -0.28156745
4.9775524 -1.6144239 -0.2742404
4.97679 -1.6488073 -0.27476376
4.9759021 -1.6829188 -0.27528712
4.9842591 -1.7202322 -0.27633384
4.9733906 -1.7514066 -0.27633384
4.9810848 -1.7893729 -0.27738056
4.9603667 -1.8171993 -0.2768572
4.9488511 -1.8483303 -0.2768572
4.9464726 -1.8829409 -0.27738056
4.9438548 -1.9175944 -0.27790391
4.9409962 -1.9522893 -0.27842727
4.9378967 -1.9870238 -0.27895063
4.9346871 -2.0214736 -0.27947399
4.9312854 -2.0558519 -0.27999735
4.9275093 -2.090589 -0.28052071
4.9234447 -2.1254661 -0.28104407
4.9191365 -2.1603744 -0.28156745
4.9237013 -2.1993854 -0.28261417
4.9188776 -2.2344079 -0.28313753
4.9138074 -2.2694569 -0.28366089
4.9084907 -2.3045297 -0.28418425
2.8221481 -1.4119946 -0.16538163
2.7687078 -1.4070768 -0.16276482
2.7154422 -1.4015443 -0.16014802
2.6712022 -1.4000347 -0.15805459
2.6271815 -1.397853 -0.15596114
2.5745363 -1.3903772 -0.15334435
2.5306616 -1.3874347 -0.15125091
2.4781423 -1.3792456 -0.14863411
2.4433117 -1.3801087 -0.14706403
2.399936 -1.3755693 -0.1449706
2.3567152 -1.3705398 -0.14287716
2.3136537 -1.3650227 -0.14078373
2.2794139 -1.3639983 -0.13921364
2.2453072 -1.3625525 -0.13764356
2.2113068 -1.3607373 -0.13607349
2.1774163 -1.3585534 -0.13450341
2.1703906 -1.3624569 0.59162128
2.1372468 -1.360184 0.58487272
2.1041191 -1.3577021 0.57812423
2.0710852 -1.3548932 0.57137567
2.0381708 -1.3517233 0.56462711
2.005379 -1.348194 0.55787861
1.9727129 -1.3443063 0.55113006
1.948193 -1.3455998 0.54663104
1.9078654 -1.3353277 0.537633
1.8836594 -1.3358501 0.53313398
1.8515135 -1.3305699 0.52638549
1.8273636 -1.3307053 0.52188641
1.7954454 -1.3248051 0.51513791
1.7714783 -1.3243914 0.51063889
1.7476819 -1.3236052 0.50613987
1.7239856 -1.3225468 0.50164086
1.7002765 -1.3213667 0.49714181
1.6766291 -1.3199689 0.49264279
1.6530668 -1.318327 0.48814377
1.6295918 -1.3164414 0.48364475
1.6062065 -1.3143134 0.47914574
1.5829129 -1.3119441 0.47464672
1.559713 -1.3093344 0.4701477
1.5440322 -1.312797 0.46789819
1.5063114 -1.2969335 0.45890015
1.4909027 -1.2998383 0.45665064
1.4681196 -1.2962576 0.45215163
1.4526826 -1.2989616 0.44990209
1.4300474 -1.2949828 0.44540307
1.4075202 -1.2907714 0.44090405
1.3851029 -1.2863284 0.43640503
1.3627975 -1.2816552 0.43190601
1.347662 -1.2834729 0.42965651
1.3255441 -1.2783872 0.42515749
1.3106055 -1.2797898 0.42290798
1.2957218 -1.2810354 0.42065847
1.2807826 -1.2822363 0.41840896
1.2590158 -1.2763846 0.41390994
1.2441725 -1.2772903 0.41166043
1.2226133 -1.2710375 0.40716141
1.2079827 -1.2715441 0.40491191
1.1934137 -1.2718989 0.40266237
1.1787974 -1.2722054 0.40041286
1.1576258 -1.2652094 0.39591384
1.1365892 -1.2579982 0.39141482
1.1286625 -1.2651148 0.39141482
1.1142505 -1.2648699 0.38916531
1.0934918 -1.2571425 0.38466629
1.0856609 -1.2639115 0.38466629
1.0715061 -1.2631832 0.38241678
1.0510566 -1.2549335 0.37791777
1.0369418 -1.2540036 0.37566826
1.0228802 -1.2529463 0.37341875
1.0149876 -1.2593485 0.37341875
-2.0573478 -1.0271717 0.5308845
-2.0899057 -1.0272995 0.537633
-3.3689518 -0.90444219 0.80532473
-3.4688296 -0.90792871 0.82781988
-3.4367001 -0.87648392 0.81882185
-4.2939763 -0.72909123 1.0055312
-4.3946238 -0.71787536 1.0280263
-4.3990474 -0.69025028 1.0280263
-4.4032974 -0.66259557 1.0280263
-7.3350687 -0.77580231 1.7028794
-7.5628042 -0.75186813 1.7546182
-7.8099232 -0.72691196 1.810856
-8.0764322 -0.70055908 1.8715928
-8.3429079 -0.67088926 1.9323295
-8.6384706 -0.64005309 1.9998149
-4.4136147 -0.049880106 1.0190283
-4.4138408 -0.022148876 1.0190283
-4.4138927 0.0055855801 1.0190283
-4.4137707 0.033317465 1.0190283
-4.3939886 0.060780849 1.0145292
-4.4032617 0.088582568 1.0167787
-4.4026184 0.11624836 1.0167787
-4.4018011 0.14390723 1.0167787
-4.4008222 0.17124866 1.0167787
-4.3899426 0.19807398 1.0145292
-4.3886151 0.22558147 1.0145292
-4.3773837 0.2525889 1.0122797
-4.3854141 0.28102192 1.0145292
-4.3738155 0.30826733 1.0122797
-4.3815255 0.33624947 1.0145292
-4.3308063 0.35936254 1.0032817
-4.3672895 0.38996258 1.0122797
-4.3647532 0.4173941 1.0122797
-4.3620763 0.44450009 1.0122797
-4.3495512 0.47047147 1.0100303
-4.3561625 0.49913758 1.0122797
-4.3528943 0.52687722 1.0122797
-4.3591542 0.55552149 1.0145292
-4.3555779 0.58289862 1.0145292
-4.3421803 0.60890192 1.0122797
-4.3286281 0.63475764 1.0100303
-4.3342333 0.66310859 1.0122797
-4.3300414 0.68995106 1.0122797
-4.3256326 0.7170735 1.0122797
-4.3210416 0.74423683 1.0122797
-4.3162799 0.77137303 1.0122797
-4.3209291 0.80025095 1.0145292
-4.3253264 0.82952631 1.0167787
-4.3103967 0.85516667 1.0145292
-4.3144689 0.88426125 1.0167787
-4.3088284 0.91135108 1.0167787
-4.3030167 0.9384073 1.0167787
-4.3065424 0.96756005 1.0190283
-4.3099422 0.99648875 1.0212778
-4.3131647 1.0254281 1.0235273
-4.2971883 1.050125 1.0212778
-4.2999563 1.0794755 1.0235273
-4.2930102 1.1067768 1.0235273
-4.2952924 1.1365944 1.0257767
-4.2880473 1.1636295 1.0257767
-4.2806516 1.1905479 1.0257767
-4.2824574 1.2200913 1.0280263
-4.284061 1.2497021 1.0302758
-4.2762141 1.276293 1.0302758
-4.2775435 1.3056087 1.0325253
-4.3353558 2.3885581 1.1427513
-4.0651298 2.273087 1.075266
-4.076355 2.3127205 1.0820146
-4.0872812 2.3525152 1.0887631
-4.0892863 2.3879104 1.0932621
-4.0825858 2.4185219 1.0955117
-4.0673084 2.4441268 1.0955117
-4.0601921 2.474704 1.0977612
-4.0611386 2.5104136 1.1022601
-4.0535412 2.5410552 1.1045097
-4.0457177 2.571702 1.1067592
-4.0458603 2.6076274 1.1112581
-4.0375524 2.6383276 1.1135077
-4.0371423 2.6744053 1.1180067
-4.0364361 2.7105837 1.1225058
-4.0273809 2.7413733 1.1247553
-4.0341368 2.7832246 1.1315038
-4.0245557 2.8140993 1.1337533
-4.0226941 2.8505991 1.1382523
-4.0205336 2.8871837 1.1427513
-4.0099845 2.9184065 1.1450008
-4.0069952 2.9554591 1.1494999
-4.0039062 2.9923103 1.1539989
-4.0005631 3.029171 1.1584979
-4.0048628 3.0717545 1.1652465
-3.9934475 3.1024876 1.167496
-3.9892399 3.1395051 1.1719949
-3.9846737 3.1766551 1.176494
-3.9797959 3.2138729 1.180993
-3.9821508 3.2573216 1.1877415
-3.9766111 3.2947118 1.1922406
-3.9707601 3.3321583 1.1967396
-3.9645929 3.369663 1.2012386
-1.7427511 1.5001935 0.5308845
-1.7111521 1.4920255 0.52413595
-1.6870067 1.4899952 0.51963693
-1.6631671 1.4874837 0.51513791
-1.6466963 1.4912199 0.51288837
-1.6228516 1.4884533 0.50838935
-1.5990595 1.4854976 0.50389034
-1.5755807 1.4820775 0.49939135
-1.5593117 1.4850916 0.49714181
-1.5289339 1.4745426 0.49039328
-1.5126685 1.4773117 0.48814377
-1.489501 1.4730834 0.48364475
-1.4733317 1.4755177 0.48139524
-1.4503487 1.47087 0.47689623
-1.4342812 1.4729724 0.47464672
-1.4182441 1.4749321 0.47239721
-1.3955307 1.4696821 0.46789819
-1.372939 1.4642062 0.46339917
-1.3504726 1.4585042 0.45890015
-1.3347065 1.4597701 0.45665064
-1.3124495 1.4536628 0.45215163
-1.2968055 1.4546077 0.44990209
-1.2747644 1.4480994 0.44540307
-1.2592481 1.4487268 0.44315356
-1.2437752 1.4492159 0.44090405
-1.2283455 1.4495687 0.43865454
-1.2129613 1.4497846 0.43640503
-1.1976225 1.4498652 0.43415552
-1.1823316 1.44981 0.43190601
-1.167088 1.449621 0.42965651
-1.1458319 1.4416692 0.42515749
-1.1367508 1.4488405 0.42515749
-1.1216592 1.4482505 0.42290798
-1.1066192 1.447529 0.42065847
-1.0916338 1.4466754 0.41840896
-1.0708822 1.4378769 0.41390994
-1.0502853 1.4288749 0.40941092
-1.0412865 1.435446 0.40941092
-1.0265754 1.4340371 0.40716141
-1.0175445 1.4404593 0.40716141
1.0048201 1.2425115 0.36891973
1.0187815 1.2437112 0.37116924
1.0327976 1.2447841 0.37341875
1.046867 1.2457298 0.37566826
1.0546734 1.2391276 0.37566826
1.0688002 1.2398566 0.37791777
1.0829774 1.2404567 0.38016728
1.0972041 1.2409273 0.38241678
1.1114793 1.2412678 0.38466629
1.1192564 1.2342597 0.38466629
1.1269894 1.2272029 0.38466629
1.1413133 1.2272327 0.3869158
1.155682 1.2271307 0.38916531
1.1633693 1.2198452 0.38916531
1.1777797 1.2195202 0.39141482
1.1922317 1.219062 0.39366433
1.206724 1.2184701 0.39591384
1.2143561 1.2108639 0.39591384
1.2357395 1.2169706 0.40041286
1.243256 1.2092907 0.40041286
1.2579226 1.2081364 0.40266237
1.2797341 1.2135073 0.40716141
1.2944657 1.2120814 0.40941092
1.3092099 1.2105391 0.41166043
1.3239857 1.2088591 0.41390994
1.3387916 1.2070411 0.41615945
1.3535414 1.2051804 0.41840896
1.3682997 1.203205 0.42065847
1.3832555 1.2008967 0.42290798
1.398276 1.1984012 0.42515749
1.4132355 1.195863 0.427407
1.4281989 1.1932071 0.42965651
1.4431844 1.19041 0.43190601
1.4581908 1.1874715 0.43415552
1.473217 1.1843911 0.43640503
1.4958938 1.1872258 0.44090405
1.5109099 1.1839198 0.44315356
1.525923 1.1804978 0.44540307
1.5487788 1.1827394 0.44990209
1.5639604 1.1788497 0.45215163
1.579154 1.1748158 0.45440114
1.5943583 1.1706374 0.45665064
1.6175454 1.1719164 0.46114966
1.6249782 1.1615881 0.46114966
1.6561501 1.1681772 0.46789819
1.6714547 1.1633145 0.4701477
1.686681 1.1584249 0.47239721
1.7099577 1.158885 0.47689623
1.7333865 1.1589779 0.48139524
1.756902 1.1587934 0.48589426
1.7723155 1.1530453 0.48814377
1.7959265 1.1524111 0.49264279
5.7072959 3.365545 1.5296671
5.7283292 3.3296189 1.5296671
5.7491364 3.2935615 1.5296671
5.7527471 3.2477932 1.5251682
5.7474957 3.1973732 1.5184196
5.733294 3.1424646 1.5094216
5.7272048 3.0924911 1.502673
5.7379198 3.0518696 1.5004236
5.7224569 2.9976721 1.4914255
5.7152004 2.9482565 1.484677
5.70755 2.8990512 1.4779284
5.6995082 2.8500588 1.4711798
5.6998191 2.8055856 1.4666809
5.6822591 2.7527249 1.4576828
5.6818519 2.7085824 1.4531838
5.6811147 2.6645539 1.4486848
5.6712022 2.61656 1.4419363
2.7543747 1.007498 0.67710268
2.8155921 1.0101552 0.69059974
2.8402507 0.99895644 0.69509876
5.5842395 1.7304801 1.3497063
5.6136522 1.7010105 1.3542054
5.5868587 1.6546377 1.3452073
5.5971451 1.6195019 1.3452073
5.5884566 1.5790036 1.3407083
5.5700884 1.5360881 1.3339597
5.5702209 1.4985288 1.3317102
5.5386486 1.3050396 1.3137141
5.5181766 1.2639899 1.3069656
5.2024732 0.78656769 1.2147356
5.0915947 0.73711169 1.1877415
5.2602053 0.72780812 1.2259833
5.370934 0.70876539 1.2507279
5.5783043 0.70050055 1.2979676
5.7567492 0.68619627 1.3384588
5.8964987 0.66530657 1.3699518
6.0846524 0.64784521 1.4126925
6.3115931 0.63192779 1.4644313
6.5288639 0.61227351 1.5139205
6.7170086 0.5873667 1.5566612
6.95365 0.56405807 1.6106495
7.2388368 0.5414319 1.6758853
7.5142822 0.51457781 1.7388716
7.7993555 0.48544115 1.8041074
8.1427088 0.45618328 1.8828403
8.5444059 0.42499164 1.9750702
8.0565767 -1.9613751 1.9143335
7.6943512 -1.9244808 1.8311015
7.3613672 -1.8898637 1.7546182
7.0385756 -1.853554 1.6803844
6.7446198 -1.821417 1.6128991
6.4982781 -1.7987739 1.5566612
6.2524962 -1.7731097 1.5004236
6.0353746 -1.7525821 1.4509343
5.8094258 -1.7266225 1.3991956
5.6213388 -1.7092335 1.3564548
5.4523158 -1.6953366 1.3182131
5.2836952 -1.6793859 1.2799715
5.1062293 -1.6583755 1.2394803
4.9477391 -1.6413392 1.2034881
4.9466763 -1.6751691 1.2057376
4.936202 -1.7057862 1.2057376
4.9346046 -1.7399268 1.2079872
4.9327435 -1.7741952 1.2102367
4.9397941 -1.8118639 1.2147356
4.9556918 -1.8531038 1.2214842
4.9348459 -1.8807346 1.2192347
4.9229317 -1.9117039 1.2192347
4.9198833 -1.9461818 1.2214842
4.9165959 -1.9806968 1.2237337
4.9041967 -2.0112014 1.2237337
4.9006333 -2.0453017 1.2259833
4.896688 -2.0797818 1.2282327
4.892468 -2.1143727 1.2304822
4.8969259 -2.1529143 1.2349813
4.8833017 -2.18364 1.2349813
4.8783555 -2.218312 1.2372308
4.8820095 -2.2570975 1.2417299
4.8765497 -2.2918718 1.2439793
4.8708458 -2.3266666 1.2462288
2.8314588 -1.4180434 0.7310909
2.7790701 -1.4137166 0.71984339
2.7268493 -1.4087883 0.70859581
2.6834304 -1.4077871 0.69959778
2.6402328 -1.4061092 0.69059974
2.5971837 -1.4039075 0.6816017
2.5455239 -1.3969014 0.67035413
2.5025253 -1.3941216 0.66135609
2.4512837 -1.3858815 0.65010852
2.4171724 -1.38671 0.64336002
