# .PCD v0.7 - Point Cloud Data file format
VERSION 0.7
FIELDS x y z
SIZE 4 4 4
TYPE F F F
COUNT 1 1 1
WIDTH 1483
HEIGHT 1
VIEWPOINT 0 0 0 1 0 0 0
POINTS 1483
DATA ascii
1.8068296 -1.4251082 0.20132977
1.7821496 -1.4241517 0.19958664
1.7653763 -1.4291111 0.19871509
1.7487841 -1.4337057 0.19784354
1.7168347 -1.42547 0.19522886
1.6925957 -1.4234055 0.19348575
1.6760349 -1.4275527 0.19261418
1.6519461 -1.4250412 0.19087107
1.6354967 -1.4287934 0.18999952
1.6116894 -1.4256988 0.1882564
1.5879451 -1.4224075 0.18651329
1.5715982 -1.4256635 0.18564174
1.5479372 -1.4220309 0.18389861
1.5097972 -1.4045867 0.18041238
1.5009422 -1.4140452 0.18041238
1.4776123 -1.4096948 0.17866927
1.4543967 -1.4051076 0.17692615
1.4384186 -1.4072515 0.1760546
1.4225099 -1.4092113 0.17518304
1.4067174 -1.4109435 0.17431149
1.3839304 -1.4054738 0.17256837
1.3681275 -1.4069993 0.17169681
1.3523604 -1.4083822 0.17082526
1.33663 -1.4096226 0.16995369
1.3209765 -1.4106851 0.16908213
1.2986829 -1.4042152 0.16733903
1.2764823 -1.3975589 0.1655959
1.2610041 -1.398154 0.16472435
1.245569 -1.3986101 0.1638528
1.2367567 -1.4064085 0.1638528
1.2148329 -1.3991073 0.16210967
1.1995342 -1.3991498 0.16123812
1.190758 -1.4066263 0.16123812
1.169241 -1.3986912 0.15949501
1.1541723 -1.3982577 0.15862344
1.1390709 -1.3977596 0.15775189
1.1302661 -1.404889 0.15775189
1.1090256 -1.3963608 0.15600878
1.1002687 -1.4032712 0.15600878
1.0854547 -1.4021841 0.15513723
1.0706587 -1.4009968 0.15426566
1.0558358 -1.3997432 0.1533941
1.0410712 -1.3983589 0.15252255
1.0322645 -1.4048725 0.15252255
1.0292652 -1.4193954 0.1533941
1.0377185 -1.4501384 0.15600878
1.017094 -1.4403547 0.15426566
1.0194141 -1.463064 0.15600878
1.0045978 -1.4612035 0.15513723
-1.0047414 -1.7089509 0.17343992
-1.0256176 -1.719744 0.17518304
-1.0362536 -1.7133561 0.17518304
-1.0521046 -1.715366 0.1760546
-1.0628618 -1.7087216 0.1760546
-1.0788916 -1.7104356 0.17692615
-1.0949849 -1.7120153 0.1777977
-1.1057202 -1.7051015 0.1777977
-1.1164117 -1.6981204 0.1777977
-1.132584 -1.6993618 0.17866927
-1.1488154 -1.7004671 0.17954083
-1.1651055 -1.7014349 0.18041238
-1.192813 -1.7186326 0.18302706
-1.2093194 -1.7192522 0.18389861
-1.2200978 -1.7116199 0.18389861
-1.2366145 -1.7120295 0.18477017
-1.2530816 -1.7123737 0.18564174
-1.2696466 -1.7125449 0.18651329
-1.2863649 -1.7124988 0.18738484
-1.2970995 -1.7043825 0.18738484
-1.3199482 -1.7119777 0.18912795
-1.3368108 -1.7115014 0.18999952
-1.3537195 -1.7108804 0.19087107
-1.3706259 -1.7101519 0.19174263
-1.3811953 -1.7016269 0.19174263
-1.3980844 -1.700694 0.19261418
-1.4151169 -1.6995316 0.19348575
-1.4386122 -1.7058372 0.19522886
-1.4493018 -1.6967646 0.19522886
-1.4664518 -1.695159 0.19610041
-1.4836385 -1.6934044 0.19697197
-1.5008609 -1.6915007 0.19784354
-1.5247761 -1.6968569 0.19958664
-1.5421125 -1.6946108 0.2004582
-1.5594805 -1.6922137 0.20132977
-1.5768327 -1.689708 0.20220132
-1.5941132 -1.6871468 0.20307288
-1.6183552 -1.6915902 0.204816
-1.6289517 -1.6813884 0.204816
-1.653437 -1.6853426 0.20655911
-1.6780357 -1.6890548 0.20830221
-1.6956806 -1.685501 0.20917378
-1.720456 -1.6887703 0.21091689
-1.7310328 -1.6779271 0.21091689
-1.7559342 -1.6807946 0.21266001
-1.7736539 -1.6766205 0.21353157
-1.7985716 -1.6791953 0.21527468
-1.8236345 -1.6814756 0.2170178
-1.8415291 -1.6766915 0.21788935
-1.8668439 -1.6784085 0.21963246
-1.8848026 -1.6732594 0.22050403
-1.9102612 -1.6745174 0.22224714
-1.9358094 -1.6755209 0.22399026
-1.9538261 -1.6698506 0.22486182
-1.9793609 -1.6705629 0.22660492
-1.9973717 -1.6645902 0.22747648
-2.0308692 -1.6709962 0.23009115
-2.0567927 -1.6707652 0.23183428
-2.0750215 -1.6640414 0.23270583
-2.1088679 -1.6695211 0.23532051
-2.1271653 -1.662372 0.23619206
-2.1533437 -1.6611434 0.23793517
-2.17959 -1.659651 0.23967829
-2.2059019 -1.6578939 0.2414214
-2.2322767 -1.6558717 0.24316452
-2.258713 -1.6535827 0.24490763
-2.285208 -1.6510262 0.24665074
-2.3198256 -1.6540484 0.24926542
-2.3463235 -1.6511089 0.25100854
-2.372963 -1.6477752 0.25275165
-2.4080679 -1.649514 0.25536633
-2.4349458 -1.6454281 0.25710943
-2.4699597 -1.6468887 0.25972411
-2.4968061 -1.6424353 0.26146722
-2.5237904 -1.6375598 0.26321033
-2.5675929 -1.6431491 0.26669657
-2.5947154 -1.6376181 0.26843968
-2.6303263 -1.6370745 0.27105436
-2.6575415 -1.6309367 0.27279747
-2.693306 -1.6296784 0.27541214
-2.7377131 -1.6331388 0.27889836
-2.7650504 -1.6260803 0.2806415
-2.826782 -1.6388965 0.28587082
-2.8456199 -1.6261386 0.28674239
-2.8298795 -1.5933151 0.28412771
-2.8311746 -1.5705783 0.28325617
-2.8233695 -1.543449 0.28151304
-2.8241494 -1.5211246 0.2806415
-2.824851 -1.4986813 0.27976993
-2.8253825 -1.4762893 0.27889836
-2.8257442 -1.45395 0.27802682
-2.8259373 -1.4316646 0.27715525
-2.8170474 -1.4049883 0.27541214
-2.8168392 -1.3829478 0.27454057
-2.8253536 -1.3654686 0.27454057
-2.8158405 -1.3392251 0.27279747
-2.8243148 -1.3212595 0.27279747
-2.814539 -1.2949902 0.27105436
-2.8226202 -1.2772804 0.27105436
-2.8123865 -1.2514205 0.26931125
-2.8110671 -1.2297325 0.26843968
-2.8187382 -1.2120458 0.26843968
-2.8630033 -1.2098219 0.27192593
-2.9073169 -1.2071687 0.27541214
-2.9516363 -1.2041838 0.27889836
-2.9960616 -1.2006142 0.2823846
-3.1485732 -1.1933588 0.29458642
-3.2026956 -1.1909125 0.29894421
-3.2662687 -1.1912458 0.30417353
-3.5328436 0.16057831 0.30940288
-3.531765 0.18277349 0.30940288
-3.5802729 0.20784631 0.31376067
-3.5788963 0.23033857 0.31376067
-3.5773852 0.25272265 0.31376067
-3.5856833 0.2756471 0.31463224
-3.5838985 0.29795632 0.31463224
-3.5819557 0.32046768 0.31463224
-3.5897882 0.34391642 0.31550378
-3.5875564 0.36646578 0.31550378
-3.5851831 0.38899875 0.31550378
-3.5925648 0.41265509 0.31637534
-3.5701222 0.43282074 0.31463224
-3.577214 0.45650584 0.31550378
-3.5841489 0.48029518 0.31637534
-3.5810602 0.50280643 0.31637534
-3.5778446 0.5251987 0.31637534
-3.5745218 0.5473572 0.31637534
-3.5612087 0.56802255 0.31550378
-3.5968795 0.59691155 0.31899002
-3.563607 0.61442071 0.31637534
-3.2649183 0.69105744 0.29197174
-3.2411077 0.70702744 0.29022861
-3.2269258 0.72499841 0.28935707
-3.1931894 0.73852599 0.28674239
-3.2078691 0.76318526 0.2884855
-3.2030103 0.78332657 0.2884855
-3.2076874 0.80586255 0.28935707
-3.221853 0.8309778 0.29110017
-3.206938 0.84865546 0.29022861
-3.1919279 0.86618024 0.28935707
-3.1864228 0.88621771 0.28935707
-3.1903722 0.9089514 0.29022861
-3.1845984 0.9289782 0.29022861
-3.1882441 0.95181984 0.29110017
-3.1822009 0.97183239 0.29110017
-3.1855407 0.9947778 0.29197174
-3.1792552 1.0146862 0.29197174
-3.1823785 1.0374533 0.29284328
-3.175832 1.0573242 0.29284328
-3.1784637 1.0807405 0.29371485
-3.1809556 1.1041466 0.29458642
-3.173955 1.1241121 0.29458642
-3.1762302 1.14733 0.29545796
-3.1784086 1.1704305 0.29632953
-3.1710639 1.1901861 0.29632953
-3.1728272 1.2136469 0.29720107
-3.1744213 1.237175 0.29807264
-3.166585 1.2570968 0.29807264
-2.907335 1.2830449 0.27802682
-2.8537741 1.2808897 0.27366903
-2.8003561 1.2781144 0.26931125
-2.7561595 1.2788361 0.265825
-2.7031307 1.2746449 0.26146722
-2.6592114 1.2742217 0.257981
-2.6153259 1.2734609 0.25449476
-2.5715573 1.2721981 0.25100854
-2.5279083 1.2704376 0.24752231
-2.4932227 1.2727766 0.24490763
-2.4496899 1.2702897 0.2414214
-2.4063253 1.2672352 0.23793517
-2.3719602 1.2682385 0.23532051
-2.3289237 1.2641071 0.23183428
-2.294759 1.2642941 0.2292196
-2.2606854 1.2641011 0.22660492
-2.2267053 1.2635316 0.22399026
-2.1928575 1.2625248 0.22137558
-2.1591856 1.2610158 0.21876091
-2.134155 1.2642726 0.2170178
-2.1005526 1.2622639 0.21440312
-2.0670612 1.2598825 0.21178845
-2.0336831 1.2571317 0.20917378
-2.0088632 1.2593019 0.20743066
-1.9756893 1.2558672 0.204816
-1.9510128 1.2574618 0.20307288
-1.9180551 1.253348 0.2004582
-1.8852277 1.2488693 0.19784354
-1.869073 1.2551366 0.19697197
-1.84468 1.2556438 0.19522886
-1.8121544 1.2502384 0.19261418
-1.7797712 1.2444736 0.18999952
-1.7637886 1.2498722 0.18912795
-1.7397175 1.2493078 0.18738484
-1.7157232 1.2484916 0.18564174
-1.6917752 1.2474687 0.18389861
-1.6518738 1.2343678 0.18041238
-1.6281602 1.2327495 0.17866927
-1.612586 1.2367516 0.1777977
-1.5891243 1.23454 0.1760546
-1.5735074 1.2383398 0.17518304
-1.5423274 1.2295717 0.17256837
-1.5268207 1.2329797 0.17169681
-1.5036221 1.2299335 0.16995369
-1.4881932 1.2330015 0.16908213
-1.4575238 1.223116 0.16646747
-1.4498104 1.2322493 0.16646747
-1.4269398 1.2283357 0.16472435
-1.4116845 1.2307311 0.1638528
-3.0470417 4.3118629 0.46192542
-3.0027969 4.3064075 0.45931077
-2.9530928 4.2923613 0.45582452
-2.7792947 5.7269063 0.55692518
-2.7518444 5.7622342 0.55866832
-2.7028742 5.7523627 0.55605364
-2.6583197 5.7511458 0.5543105
-2.6138847 5.749598 0.55256742
-2.4719987 5.5294504 0.52990693
-2.4291887 5.5266342 0.52816379
-2.3904665 5.5326424 0.52729225
-2.347868 5.5292144 0.52554911
-2.3054104 5.5254693 0.52380598
-2.2630897 5.5214105 0.5220629
-2.2209144 5.5170379 0.52031976
-2.1825428 5.5216193 0.51944822
-2.1406004 5.5166483 0.51770508
-2.0988042 5.5113702 0.515962
-2.0606489 5.5151162 0.51509041
-2.0190983 5.5092483 0.51334733
-1.9810753 5.5124502 0.51247573
-1.9397788 5.5059977 0.51073265
-1.8986447 5.4992433 0.50898951
-1.8608613 5.5016279 0.50811797
-1.823126 5.5037546 0.50724643
-1.7854345 5.5056252 0.50637484
-1.7447811 5.4977436 0.50463176
-1.7102021 5.5085983 0.50463176
-1.7044972 5.6145582 0.51334733
-1.6946903 5.7111106 0.52119136
-1.6532269 5.7025094 0.51944822
-1.6146493 5.7031994 0.51857668
-1.573478 5.6940274 0.51683354
-1.5324829 5.6845651 0.51509041
-1.4942046 5.6844463 0.51421887
-1.4559854 5.6840725 0.51334733
-1.4152646 5.6738157 0.51160419
-1.3790923 5.6827164 0.51160419
-1.3385999 5.6719213 0.50986111
-1.3012024 5.6703968 0.50898951
-1.2637215 5.6686616 0.50811797
-1.2259715 5.6667533 0.50724643
-1.1901895 5.6743765 0.50724643
-1.1500525 5.6623182 0.5055033
-1.1141129 5.6694989 0.5055033
1.0091941 1.1288831 0.13247673
1.0162303 1.1225532 0.13247673
1.0300934 1.1233991 0.13334829
1.0439777 1.1241422 0.13421984
1.057845 1.1248174 0.13509139
1.0717618 1.1253625 0.13596296
1.085727 1.1257768 0.13683452
1.0927484 1.1189625 0.13683452
1.1136688 1.1263384 0.13857763
1.1206565 1.1193861 0.13857763
1.1347599 1.1193185 0.13944918
1.1489065 1.1191175 0.14032075
1.1559154 1.1118767 0.14032075
1.1773243 1.1183136 0.14206386
1.1915934 1.1177095 0.14293541
1.2059011 1.1169699 0.14380698
1.2202463 1.1160945 0.14467853
1.2346277 1.1150827 0.14555009
1.2490444 1.1139339 0.14642164
1.2634951 1.1126477 0.14729321
1.2779787 1.1112236 0.14816476
1.2925241 1.1096259 0.14903632
1.3147662 1.114251 0.15077943
1.3217775 1.1059248 0.15077943
1.3439639 1.1104044 0.15252255
1.3585671 1.1083165 0.1533941
1.3732626 1.1060072 0.15426566
1.3879824 1.1035568 0.15513723
1.4027252 1.1009647 0.15600878
1.41749 1.0982307 0.15688033
1.4322754 1.0953544 0.15775189
1.4550314 1.0983373 0.15949501
1.4698923 1.0951252 0.16036656
1.4927957 1.0976709 0.16210967
1.5077257 1.0941207 0.16298124
1.5226698 1.0904261 0.1638528
1.5457622 1.0923357 0.1655959
1.5607666 1.0882998 0.16646747
1.5839881 1.0897646 0.16821058
1.5990465 1.0853854 0.16908213
1.6223896 1.0864027 0.17082526
1.6374662 1.081723 0.17169681
1.6608287 1.0824355 0.17343992
1.6759123 1.0774662 0.17431149
1.6910623 1.0722495 0.17518304
1.7146592 1.0721664 0.17692615
1.7383212 1.0718287 0.17866927
1.7875829 1.0867606 0.18302706
1.8114651 1.0857505 0.18477017
1.8268574 1.0793651 0.18564174
1.8509141 1.0777309 0.18738484
1.8749648 1.0759356 0.18912795
1.8989371 1.0741072 0.19087107
1.9229872 1.0719701 0.19261418
1.9471478 1.0694581 0.19435731
1.9801136 1.0714252 0.19697197
2.0043888 1.0683341 0.19871509
2.0287025 1.0649799 0.2004582
2.0530527 1.0613619 0.20220132
2.0774367 1.0574796 0.20394443
2.1107585 1.0577956 0.20655911
2.1441653 1.0577343 0.20917378
2.1686919 1.0529432 0.21091689
2.2112198 1.0564747 0.21440312
2.2358451 1.0510365 0.21614625
2.2604887 1.0453303 0.21788935
2.3032842 1.0476043 0.22137558
2.32798 1.0413101 0.22311869
2.3617432 1.0388999 0.22573337
2.4047368 1.0399996 0.2292196
2.4387283 1.0365603 0.23183428
2.4819629 1.0365735 0.23532051
2.5160761 1.0323025 0.23793517
2.5595002 1.0312971 0.2414214
2.6030726 1.0296278 0.24490763
2.6374114 1.0239112 0.24752231
2.6810291 1.0215074 0.25100854
2.7246916 1.0186696 0.25449476
2.7777138 1.018922 0.25885254
2.8214958 1.0151057 0.26233879
4.8983965 0.90322196 0.43577871
5.041286 0.8968547 0.44798052
5.2039208 0.8920936 0.46192542
9.9880552 0.82072818 0.87678677
9.9930153 0.75795549 0.87678677
9.9975796 0.69515419 0.87678677
10.250303 0.64803797 0.89857566
10.93049 0.62211388 0.95784158
11.660476 0.59018421 1.0214653
12.450161 0.55209064 1.0903183
13.37913 0.51024866 1.1713731
15.931022 0.50787359 1.3944919
15.973769 0.40739059 1.3979781
15.966071 0.30586663 1.3971065
15.957717 0.20541508 1.396235
15.948728 0.10551596 1.3953635
15.939114 0.0066945446 1.3944919
15.938847 -0.092498429 1.3944919
15.937951 -0.19264284 1.3944919
15.926466 -0.29259667 1.3936203
15.924313 -0.39265934 1.3936203
15.921532 -0.49270436 1.3936203
15.918121 -0.59273207 1.3936203
15.914083 -0.69273639 1.3936203
15.909416 -0.7927134 1.3936203
15.904146 -0.89222491 1.3936203
15.908256 -0.99136639 1.3944919
15.901777 -1.090348 1.3944919
15.894613 -1.1902398 1.3944919
15.886821 -1.2900846 1.3944919
15.888326 -1.3907472 1.3953635
15.879273 -1.4905485 1.3953635
15.879507 -1.5912843 1.396235
15.879101 -1.6920819 1.3971065
15.868156 -1.7918193 1.3971065
15.87642 -1.8934126 1.3988496
15.864384 -1.9917434 1.3988496
15.08132 -1.9888415 1.3308681
12.974877 -1.876861 1.1469696
12.263629 -1.8516204 1.085089
11.612212 -1.8272504 1.0284377
10.990984 -1.8003359 0.97440118
10.390219 -1.7690337 0.92210776
9.8295422 -1.7371935 0.87330055
8.9554358 -1.699028 0.79747504
8.6317682 -1.6938766 0.76958519
8.6307182 -1.7500576 0.77045673
8.4537916 -1.769554 0.75564027
5.1444554 -1.3144135 0.46454009
5.4059086 -1.4174576 0.4889437
5.1082916 -1.373781 0.46279699
5.1284089 -1.4136528 0.46541166
5.1291389 -1.448107 0.4662832
5.1200275 -1.4799988 0.4662832
5.1106277 -1.5121394 0.4662832
5.1105604 -1.5471063 0.46715477
5.0436411 -1.5615087 0.46192542
4.9197593 -1.5570961 0.45146674
4.7961364 -1.5511899 0.44100806
4.2574124 -1.526261 0.39568707
4.1448197 -1.5153534 0.38609993
4.1165895 -1.534295 0.38435683
4.1256299 -1.5668449 0.38609993
4.1344247 -1.5995655 0.38784304
3.2819343 -1.6074479 -0.57880753
3.2275567 -1.6060365 -0.57098579
2.6624641 -1.4302942 -0.47868946
2.6360822 -1.4375372 -0.47556075
2.5838375 -1.4300714 -0.46773905
2.5490921 -1.4315439 -0.46304601
2.5057533 -1.4279162 -0.45678863
2.4709561 -1.4290156 -0.4520956
2.4277756 -1.4246521 -0.44583821
2.3933156 -1.4247215 -0.44114518
2.3589983 -1.4243374 -0.43645215
2.3332813 -1.428611 -0.43332347
2.2991643 -1.4274873 -0.42863044
2.2650752 -1.4261178 -0.42393738
2.2310948 -1.4243768 -0.41924435
2.197227 -1.422266 -0.41455132
2.1717789 -1.4251342 -0.41142264
2.1464596 -1.4276232 -0.40829393
2.1129563 -1.4244022 -0.4036009
2.0795002 -1.4209334 -0.39890787
2.0542917 -1.4227242 -0.39577919
2.0372276 -1.4299293 -0.39421484
1.9960093 -1.4198012 -0.38795745
1.9710245 -1.4207635 -0.38482878
1.9461536 -1.4214046 -0.3817001
1.9134902 -1.4158111 -0.37700707
1.8967314 -1.4217781 -0.37544271
1.8720293 -1.4217203 -0.37231401
1.84745 -1.4213481 -0.36918533
1.8230268 -1.4206252 -0.36605665
1.7985911 -1.4197723 -0.36292794
1.7740831 -1.4188634 -0.35979927
1.7497532 -1.4175858 -0.35667059
1.7333009 -1.4221349 -0.35510623
1.7092164 -1.4202785 -0.35197753
1.6851454 -1.4182699 -0.34884885
1.6611677 -1.4160153 -0.34572017
1.6372856 -1.4135158 -0.34259146
1.6209824 -1.4172213 -0.34102714
1.5973799 -1.4141436 -0.33789843
1.5811865 -1.4174726 -0.33633408
1.5576235 -1.4141015 -0.3332054
1.534166 -1.4104908 -0.33007672
1.5180446 -1.413372 -0.32851237
1.5019481 -1.4161062 -0.32694802
1.4787337 -1.4118739 -0.32381934
1.4627328 -1.4142717 -0.32225499
1.4397031 -1.4096147 -0.31912631
1.4238498 -1.4116324 -0.31756195
1.4081055 -1.41343 -0.3159976
1.3923475 -1.4151325 -0.31443328
1.3765458 -1.4167691 -0.31286892
1.3607787 -1.4182633 -0.31130457
1.3382543 -1.4124457 -0.30817589
1.3226516 -1.4135706 -0.30661154
1.3071647 -1.4144846 -0.30504721
1.2850128 -1.4080082 -0.30191851
1.2761408 -1.4160544 -0.30191851
1.2606524 -1.4166662 -0.30035415
1.2386876 -1.4097198 -0.29722548
1.2298057 -1.4174749 -0.29722548
1.2144495 -1.4176731 -0.29566112
1.1991857 -1.4176955 -0.2940968
1.1840471 -1.4175179 -0.29253244
1.1626261 -1.4096261 -0.28940377
1.1475098 -1.4092443 -0.28783941
1.1324445 -1.4087286 -0.28627506
1.1235708 -1.4158161 -0.28627506
1.1086082 -1.4150362 -0.28471074
1.0937767 -1.4140652 -0.28314638
1.0849479 -1.4208505 -0.28314638
1.0700543 -1.4197519 -0.28158203
1.0552176 -1.4185225 -0.28001767
1.046284 -1.4251245 -0.28001767
1.0604892 -1.463663 -0.28627506
1.0455271 -1.4622629 -0.28471074
1.0420129 -1.4768736 -0.28627506
1.0270697 -1.4752856 -0.28471074
1.0178285 -1.4816763 -0.28471074
1.0030869 -1.4797786 -0.28314638
-1.0010308 -1.7258282 -0.3159976
-1.0168638 -1.7280169 -0.31756195
-1.0327076 -1.7301079 -0.31912631
-1.0434071 -1.7236763 -0.31912631
-1.0592902 -1.7255613 -0.32069066
-1.0753313 -1.7272563 -0.32225499
-1.0861627 -1.7204658 -0.32225499
-1.1022762 -1.7219257 -0.32381934
-1.1184508 -1.7232509 -0.32538369
-1.1346853 -1.7244403 -0.32694802
-1.1509786 -1.7254936 -0.32851237
-1.1617974 -1.7182276 -0.32851237
-1.1781536 -1.7190415 -0.33007672
-1.1945661 -1.7197169 -0.33164105
-1.2053478 -1.7121773 -0.33164105
-1.2218181 -1.7126105 -0.3332054
-1.2382855 -1.7129443 -0.33476976
-1.2547107 -1.7132076 -0.33633408
-1.2712426 -1.7132913 -0.33789843
-1.2879175 -1.7131648 -0.33946279
-1.3046407 -1.7128961 -0.34102714
-1.3153774 -1.7046651 -0.34102714
-1.3321449 -1.7041482 -0.34259146
-1.3550893 -1.7112308 -0.34572017
-1.3657587 -1.7027274 -0.34572017
-1.3825097 -1.7018991 -0.3472845
-1.3993585 -1.7008822 -0.34884885
-1.4163407 -1.699644 -0.3504132
-1.4397329 -1.705807 -0.35354188
-1.4504223 -1.6967273 -0.35354188
-1.4675193 -1.6950477 -0.35510623
-1.4911638 -1.7006464 -0.35823491
-1.5018198 -1.6912436 -0.35823491
-1.5256255 -1.696462 -0.36136362
-1.5429049 -1.6941452 -0.36292794
-1.5602152 -1.6916778 -0.3644923
-1.5842413 -1.6963296 -0.36762097
-1.5947211 -1.6864815 -0.36762097
-1.6188557 -1.6907841 -0.37074968
-1.6431978 -1.6947614 -0.37387836
-1.6607335 -1.6914512 -0.37544271
-1.6782923 -1.6879872 -0.37700707
-1.7028805 -1.6913294 -0.38013574
-1.7205251 -1.6875125 -0.3817001
-1.7452834 -1.690412 -0.38482878
-1.7630076 -1.6862397 -0.38639313
-1.7806935 -1.6819689 -0.38795745
-1.7983027 -1.6776413 -0.38952181
-1.8305088 -1.6864852 -0.39421484
-1.848375 -1.6815971 -0.39577919
-1.8735987 -1.683152 -0.39890787
-1.891526 -1.6779009 -0.40047222
-1.9094609 -1.6724908 -0.40203658
-1.9348729 -1.6733823 -0.40516526
-1.9603164 -1.6740835 -0.40829393
-1.9857519 -1.6746405 -0.41142264
-2.0037339 -1.66856 -0.41298699
-2.0294371 -1.6684823 -0.41611567
-2.0552177 -1.668147 -0.41924435
-2.0810738 -1.6675529 -0.42237306
-2.1070027 -1.6666995 -0.42550173
-2.1330028 -1.6655855 -0.42863044
-2.1512485 -1.6581805 -0.43019477
-2.1852059 -1.6625725 -0.4348878
-2.2035069 -1.6547407 -0.43645215
-2.2376654 -1.6585068 -0.44114518
-2.2639849 -1.6560775 -0.44427386
-2.2903621 -1.6533819 -0.44740257
-2.324785 -1.656226 -0.4520956
-2.3430815 -1.6474713 -0.45365995
-2.369581 -1.6440287 -0.45678863
-2.4126089 -1.6512135 -0.46304601
-2.4393435 -1.6470231 -0.46617469
-2.4659407 -1.64283 -0.4693034
-2.5008867 -1.6437132 -0.47399643
-2.5277402 -1.638713 -0.47712511
-2.5629506 -1.6387604 -0.48181814
-2.5982602 -1.6384295 -0.48651117
-2.6252782 -1.6325032 -0.48963988
-2.660744 -1.6314645 -0.49433291
-2.6962993 -1.630044 -0.49902594
-2.7319407 -1.6282406 -0.50371897
-2.7676117 -1.6261436 -0.508412
-2.8203666 -1.6337181 -0.51623374
-2.8219631 -1.6111298 -0.51466936
-2.8235612 -1.5882775 -0.51310503
-2.8076029 -1.5560795 -0.508412
-2.8085217 -1.53392 -0.50684768
-2.8093238 -1.511717 -0.5052833
-2.8013132 -1.4847847 -0.50215465
-2.8105869 -1.4671543 -0.50215465
-2.8109655 -1.4449506 -0.50059026
-2.8111765 -1.4228001 -0.49902594
-2.8112204 -1.4007043 -0.49746159
-2.8110528 -1.3787563 -0.49589723
-2.8017523 -1.3527243 -0.49276856
-2.8012462 -1.3309165 -0.4912042
-2.8096678 -1.3130442 -0.4912042
-2.8089585 -1.2910867 -0.48963988
-2.799015 -1.2652752 -0.48651117
-2.7978842 -1.2436519 -0.48494685
-2.7965927 -1.2220929 -0.48338249
-2.8223662 -1.2122934 -0.48651117
-2.8663254 -1.2098999 -0.49276856
-2.9285717 -1.2146639 -0.50215465
-2.9726276 -1.2114053 -0.508412
-3.0259631 -1.2112184 -0.51623374
-3.0702837 -1.2066325 -0.5224911
-3.1146643 -1.201537 -0.52874851
-3.1683381 -1.1994277 -0.53657019
-3.2221062 -1.1966908 -0.54439193
-3.2574027 -1.1865637 -0.54908496
-3.2833965 -1.1727178 -0.55221367
-3.2720559 -1.1455373 -0.54908496
-3.2604675 -1.1186527 -0.54595625
-3.2579739 -1.0952826 -0.54439193
-3.2553513 -1.0718799 -0.54282761
-3.2526212 -1.0483749 -0.54126322
-3.2591441 -1.0279174 -0.54126322
-3.2466624 -1.0015962 -0.53813457
-3.2528913 -0.98117715 -0.53813457
-3.2495184 -0.95792657 -0.53657019
-3.2459817 -0.93475723 -0.53500587
-3.251791 -0.91434377 -0.53500587
-3.247947 -0.89128053 -0.53344154
-3.2534828 -0.87085557 -0.53344154
-3.2493334 -0.84790242 -0.53187716
-3.2545969 -0.82746959 -0.53187716
-3.2405307 -0.80236232 -0.52874851
-3.24544 -0.7822684 -0.52874851
-3.240658 -0.75967896 -0.52718413
-3.2454317 -0.73901975 -0.52718413
-3.2403824 -0.71641135 -0.5256198
-3.2351022 -0.69424754 -0.52405542
-3.2393637 -0.67408407 -0.52405542
-3.2435348 -0.65371823 -0.52405542
-3.2475784 -0.6333248 -0.52405542
-3.2417874 -0.61107856 -0.5224911
-3.245563 -0.59069699 -0.5224911
-3.2394822 -0.56858635 -0.52092677
-3.2332523 -0.54657376 -0.51936239
-3.2463713 -0.52783394 -0.52092677
-3.2398653 -0.5059014 -0.51936239
-3.2429798 -0.48553568 -0.51936239
-3.2361896 -0.46374804 -0.51779807
-3.2390394 -0.44340628 -0.51779807
-3.2319677 -0.4217672 -0.51623374
-3.2345538 -0.40145278 -0.51623374
-3.2271907 -0.38007244 -0.51466936
-3.2392998 -0.36116368 -0.51623374
-3.2316639 -0.33994722 -0.51466936
-3.233736 -0.31963634 -0.51466936
-3.2356806 -0.2993111 -0.51466936
-3.2374971 -0.27897578 -0.51466936
-3.2293406 -0.25784162 -0.51310503
-3.2308969 -0.23754694 -0.51310503
-3.2323258 -0.21724115 -0.51310503
-3.2336268 -0.19692853 -0.51310503
-3.2348003 -0.1766064 -0.51310503
-3.2259808 -0.15580256 -0.51154071
-3.2268915 -0.13563587 -0.51154071
-3.22767 -0.11563921 -0.51154071
-3.2283278 -0.095531508 -0.51154071
-3.2288642 -0.075246401 -0.51154071
-3.2292733 -0.054956604 -0.51154071
-3.2295549 -0.034666356 -0.51154071
-3.2297089 -0.014374739 -0.51154071
-3.2198586 0.0058993492 -0.50997633
-3.219758 0.026130959 -0.50997633
-3.2294061 0.046502031 -0.51154071
-3.2191753 0.066588573 -0.50997633
-3.2285666 0.087079272 -0.51154071
-3.2279558 0.107364 -0.51154071
-3.2173483 0.12725241 -0.50997633
-3.2164853 0.14746585 -0.50997633
-3.2154953 0.16767177 -0.50997633
-3.2143784 0.18787277 -0.50997633
-3.2131345 0.20806465 -0.50997633
-3.2117712 0.22814395 -0.50997633
-3.2102959 0.24803993 -0.50997633
-3.2086887 0.26803234 -0.50997633
-3.2167785 0.2890709 -0.51154071
-3.2050674 0.30833006 -0.50997633
-3.2128923 0.32946861 -0.51154071
-3.2107587 0.34965006 -0.51154071
-3.2084985 0.36981598 -0.51154071
-3.2061114 0.38996902 -0.51154071
-3.203598 0.41010496 -0.51154071
-3.2107468 0.4315421 -0.51310503
-3.207972 0.45170635 -0.51310503
-3.205086 0.47174862 -0.51310503
-3.2021015 0.49159852 -0.51310503
-3.1989772 0.51153517 -0.51310503
-3.1957002 0.5316239 -0.51310503
-3.2020292 0.5533753 -0.51466936
-3.1984892 0.57348239 -0.51466936
-3.1850927 0.59186786 -0.51310503
-3.2006557 0.61587822 -0.51623374
-3.1966882 0.63615084 -0.51623374
-3.1926281 0.6562227 -0.51623374
-3.1884642 0.67616504 -0.51623374
-3.1842134 0.69590801 -0.51623374
-3.1894529 0.71789646 -0.51779807
-3.1848795 0.7379213 -0.51779807
-3.1801798 0.75791866 -0.51779807
-3.1849484 0.78023452 -0.51936239
-3.1895614 0.80264181 -0.52092677
-3.1844554 0.82266563 -0.52092677
-3.1887708 0.84518915 -0.5224911
-3.1833975 0.8652072 -0.5224911
-3.1874127 0.88784301 -0.52405542
-3.1722739 0.90514165 -0.5224911
-3.1760044 0.92782611 -0.52405542
-3.1795754 0.95059144 -0.5256198
-3.1735396 0.97055131 -0.5256198
-3.176806 0.99341893 -0.52718413
-3.1799426 1.0162625 -0.52874851
-3.1735847 1.0359461 -0.52874851
-3.1764064 1.0589195 -0.53031284
-3.1789458 1.0823175 -0.53187716
-3.1813519 1.1056856 -0.53344154
-3.1650333 1.1223508 -0.53187716
-3.1672444 1.1454707 -0.53344154
-3.1693532 1.1684898 -0.53500587
-3.1712594 1.191682 -0.53657019
-3.1729333 1.2151154 -0.53813457
-3.1652355 1.2350284 -0.53813457
-3.1757705 1.2621866 -0.54126322
-2.8469253 1.2791605 -0.49433291
-2.7939141 1.2764996 -0.48651117
-2.7410917 1.2731349 -0.47868946
-2.6884913 1.2690145 -0.47086772
-2.6449134 1.2686491 -0.46461037
-2.5924983 1.2636048 -0.45678863
-2.549103 1.2623371 -0.45053124
-2.5058284 1.2605734 -0.44427386
-2.4626362 1.2583977 -0.4380165
-2.4282703 1.2604104 -0.43332347
-2.3852842 1.2573521 -0.42706609
-2.3512127 1.2583323 -0.42237306
-2.3172233 1.2589357 -0.41768003
-2.274672 1.2543916 -0.41142264
-2.2408888 1.2541881 -0.40672961
-2.2157881 1.2584869 -0.4036009
-2.1736481 1.2525861 -0.39734355
-2.1487913 1.2560614 -0.39421484
-2.1069434 1.2492714 -0.38795745
-2.0821249 1.2523031 -0.38482878
-2.0489197 1.24993 -0.38013574
-2.0242274 1.2523853 -0.37700707
-1.9912189 1.2493317 -0.37231401
-1.9666635 1.2512141 -0.36918533
-1.9338633 1.2474848 -0.3644923
-1.9177213 1.2542044 -0.36292794
-1.876875 1.2443979 -0.35667059
-1.8526247 1.2451465 -0.35354188
-1.8202764 1.2400801 -0.34884885
-1.796194 1.240268 -0.34572017
-1.7802732 1.2458668 -0.34415582
-1.7562976 1.2455999 -0.34102714
-1.7243752 1.239318 -0.33633408
-1.7085707 1.2443131 -0.33476976
-1.6847836 1.2433498 -0.33164105
-1.6610098 1.2422262 -0.32851237
-1.6374006 1.2407436 -0.32538369
-1.6218464 1.2448515 -0.32381934
-1.5984659 1.242805 -0.32069066
-1.5751077 1.2406008 -0.31756195
-1.5595608 1.2443134 -0.3159976
-1.5440303 1.247879 -0.31443328
-1.5208738 1.2450432 -0.31130457
-1.5054182 1.2482697 -0.30974025
-1.4824183 1.2450001 -0.30661154
-1.4595202 1.2414906 -0.30348286
-1.4516913 1.2506361 -0.30348286
-1.4214782 1.2402518 -0.29878983
-1.3099384 1.7829391 -0.3504132
-1.2929127 1.7831379 -0.34884885
-1.2816831 1.7912267 -0.34884885
-1.2704036 1.799244 -0.34884885
-1.2590731 1.807191 -0.34884885
-1.2476939 1.8150659 -0.34884885
-1.2473521 1.8392185 -0.35197753
-1.2467564 1.8634371 -0.35510623
-1.2404637 1.8794775 -0.35667059
-1.2124646 1.8624021 -0.35197753
-1.2763236 2.1022301 -0.38952181
-1.2933375 2.1611688 -0.39890787
-1.2144473 2.0586894 -0.37857139
-1.1768403 2.0234849 -0.37074968
-1.1739711 2.0479519 -0.37387836
-1.1609013 2.0553887 -0.37387836
-1.1527226 2.0712974 -0.37544271
-2.6078894 5.2112427 -0.92296332
-2.6056454 5.2895479 -0.93391377
-2.6197574 5.4035764 -0.95112151
-2.6240315 5.5001588 -0.96520066
-2.0648234 4.3989239 -0.76965755
-2.0619855 4.4656138 -0.77904361
-2.0216355 4.4515018 -0.77435058
-1.9815425 4.4370618 -0.76965755
-1.9456842 4.4313369 -0.76652884
-1.9099741 4.4253383 -0.7634002
-1.8782756 4.4281583 -0.76183581
-1.8390157 4.4125228 -0.75714278
-1.8075138 4.4148493 -0.75557846
-1.8337054 4.9136152 -0.83066702
-1.8333534 5.0085149 -0.84474611
-1.8185303 5.0664163 -0.85256779
-1.7768279 5.0497913 -0.84787476
-1.7515022 5.0795307 -0.85100347
-1.7993561 5.6774468 -0.94329983
-1.7665746 5.6980739 -0.94486415
-1.7336018 5.7185135 -0.94642848
-1.6920269 5.7103529 -0.94329983
-1.65062 5.7018971 -0.94017112
-1.6093894 5.6931467 -0.93704242
-1.5709581 5.6936255 -0.93547809
-1.5325876 5.6938457 -0.93391377
-1.4917662 5.6842566 -0.93078506
-1.4535761 5.683948 -0.92922074
-1.4152611 5.6834311 -0.92765635
-1.3767022 5.6827321 -0.92609203
-1.3385818 5.6816854 -0.92452765
-1.2857093 5.6128497 -0.91201293
-1.2657386 5.6882372 -0.92296332
-1.223721 5.6671143 -0.91827029
-1.1858799 5.6650629 -0.91670597
-1.1478059 5.6628222 -0.91514158
-1.096688 5.5924449 -0.90262687
1.0129811 1.1609974 -0.24403776
1.020218 1.1546432 -0.24403776
1.0339381 1.1556607 -0.2456021
1.0411537 1.1491643 -0.2456021
1.0551312 1.1497855 -0.24716645
1.069121 1.15031 -0.24873079
1.0830969 1.1507621 -0.25029513
1.0903059 1.1439341 -0.25029513
1.1043311 1.1441677 -0.25185949
1.111461 1.1372428 -0.25185949
1.1254331 1.1373552 -0.25342384
1.1394861 1.1373005 -0.25498816
1.1536438 1.1370518 -0.25655252
1.1678432 1.1366698 -0.25811687
1.182083 1.1361538 -0.2596812
1.1963621 1.1355036 -0.26124555
1.2106794 1.1347185 -0.2628099
1.2250339 1.1337982 -0.26437426
1.2394242 1.1327419 -0.26593858
1.2611817 1.1381667 -0.26906729
1.2683082 1.1302201 -0.26906729
1.2827995 1.1287533 -0.27063161
1.3047781 1.1336267 -0.27376032
1.3119119 1.1253632 -0.27376032
1.3341292 1.1297486 -0.276889
1.3488033 1.1276495 -0.27845335
1.3633808 1.125559 -0.28001767
1.3856764 1.129526 -0.28314638
1.4004407 1.1269896 -0.28471074
1.4152275 1.124312 -0.28627506
1.4300358 1.1214929 -0.28783941
1.444864 1.1185318 -0.28940377
1.4675592 1.1214253 -0.29253244
1.4824618 1.1181297 -0.2940968
1.4973806 1.1146909 -0.29566112
1.5123143 1.1111085 -0.29722548
1.5272619 1.1073824 -0.29878983
1.5502545 1.1092594 -0.30191851
1.5733302 1.1108907 -0.30504721
1.580279 1.1009834 -0.30504721
1.6115835 1.1078176 -0.30974025
1.6266865 1.1032138 -0.31130457
1.6417949 1.0984637 -0.31286892
1.665115 1.0990621 -0.3159976
1.6884462 1.0995035 -0.31912631
1.711882 1.0996417 -0.32225499
1.7354443 1.0994354 -0.32538369
1.759071 1.0989763 -0.32851237
1.7827598 1.098263 -0.33164105
1.7980667 1.0921675 -0.3332054
1.8218409 1.0909972 -0.33633408
1.8457063 1.0895106 -0.33946279
1.8696842 1.0876635 -0.34259146
1.8936418 1.0856787 -0.34572017
1.9175297 1.0836439 -0.34884885
1.9414999 1.0812908 -0.35197753
1.9655733 1.0785736 -0.35510623
1.9983771 1.0802932 -0.35979927
2.0312791 1.0816425 -0.3644923
2.0555289 1.0780332 -0.36762097
2.079813 1.0741613 -0.37074968
2.1129327 1.0745037 -0.37544271
2.137306 1.0700499 -0.37857139
2.1705654 1.0696981 -0.38326442
2.1950171 1.0646597 -0.38639313
2.228404 1.0636104 -0.39108616
2.2708035 1.0663815 -0.39734355
2.304358 1.0645188 -0.40203658
2.3289857 1.0581906 -0.40516526
2.3716245 1.0597304 -0.41142264
2.405272 1.0569363 -0.41611567
2.4390094 1.0536852 -0.4208087
2.4910388 1.0576397 -0.42863044
2.5158658 1.0495728 -0.43175912
2.5589676 1.0487263 -0.4380165
2.5930278 1.0436065 -0.44270954
2.6363673 1.0415837 -0.44896692
2.6797507 1.0391378 -0.45522428
2.723151 1.036332 -0.46148166
2.7665863 1.0331118 -0.46773905
2.8100302 1.0295421 -0.47399643
4.8803177 0.92964607 -0.78686535
5.0220561 0.92398483 -0.80876619
5.173636 0.91830426 -0.83223134
5.218246 0.89243937 -0.8384887
5.5368824 -1.3071418 -0.90106249
5.279119 -1.2808719 -0.86038953
5.2327037 -1.3041747 -0.85413218
5.2435431 -1.3419243 -0.85726088
5.2541137 -1.3798615 -0.86038953
5.2453403 -1.4128467 -0.86038953
5.2459278 -1.4482329 -0.86195391
5.2273498 -1.4780205 -0.86038953
5.2370167 -1.5160444 -0.86351824
5.2084479 -1.5433073 -0.86038953
5.0852237 -1.5416169 -0.84161741
4.9527965 -1.5355147 -0.82128096
4.8300667 -1.5307956 -0.80250877
4.7075963 -1.5245961 -0.78373665
4.2578502 -1.4981729 -0.7149055
4.1553912 -1.4915285 -0.69926202
4.1181126 -1.5074228 -0.69456899
4.1363711 -1.5434922 -0.69926202
4.1451926 -1.5761113 -0.70239073
4.1300268 -1.5934379 0.54353726
3.2605658 -1.6240596 0.44726047
3.2060771 -1.6219869 0.44116703
2.665904 -1.4551585 0.37292019
2.6394002 -1.462159 0.3704828
2.595681 -1.4590307 0.36560804
2.5433707 -1.4506944 0.35951456
2.4997175 -1.4469775 0.35463977
2.4648292 -1.4476972 0.35098371
2.4301045 -1.4479144 0.34732762
2.3955305 -1.4476613 0.34367153
2.3695893 -1.4521039 0.34123415
2.3351998 -1.4511315 0.33757809
2.3008444 -1.4499005 0.333922
2.2582338 -1.4429513 0.32904723
2.2241325 -1.4409215 0.32539114
2.1984982 -1.4438858 0.32295376
2.1647229 -1.4409801 0.31929767
2.1310143 -1.437793 0.31564158
2.0973599 -1.4343454 0.31198552
2.0719914 -1.4361866 0.30954814
2.0466831 -1.437766 0.30711073
2.0133517 -1.4333283 0.30345467
1.9882073 -1.4343361 0.30101728
1.9631853 -1.43501 0.29857987
1.9383032 -1.4353328 0.29614249
1.9134386 -1.4354756 0.29370511
1.8806754 -1.4294515 0.29004905
1.8559833 -1.4290576 0.28761163
1.8392668 -1.4344256 0.28639296
1.806869 -1.4274747 0.28273687
1.7899898 -1.432754 0.28151819
1.7655171 -1.4314898 0.27908078
1.7336016 -1.4235051 0.27542472
1.7170622 -1.4279386 0.27420601
1.6928736 -1.4259105 0.27176863
1.67633 -1.4300772 0.27054992
1.6522906 -1.4276034 0.26811254
1.6284034 -1.4248224 0.26567516
1.604686 -1.4217203 0.26323777
1.5810158 -1.4184401 0.26080039
1.5573801 -1.4149967 0.25836301
1.5484587 -1.4247541 0.25836301
1.5249531 -1.4209222 0.25592563
1.5015571 -1.4168521 0.25348824
1.471097 -1.4056876 0.24983215
1.4551029 -1.4080011 0.24861346
1.4391382 -1.4101692 0.24739476
1.4162118 -1.4051477 0.24495737
1.4074786 -1.4138952 0.24495737
1.3847201 -1.4084866 0.24251999
1.3689291 -1.4100378 0.2413013
1.3531737 -1.4114465 0.24008261
1.337455 -1.4127131 0.23886392
1.3150495 -1.4065373 0.23642652
1.2995762 -1.407366 0.23520783
1.2840892 -1.4081066 0.23398913
1.2685747 -1.4087712 0.23277044
1.2531029 -1.4092966 0.23155175
1.2376748 -1.4096836 0.23033306
1.2222916 -1.4099326 0.22911437
1.2069542 -1.4100443 0.22789566
1.1917179 -1.4099739 0.22667697
1.176599 -1.4097103 0.22545828
1.1614754 -1.4093585 0.22423959
1.1463332 -1.4089293 0.2230209
1.1312424 -1.4083658 0.2218022
1.1162046 -1.4076684 0.22058351
1.1012737 -1.4067961 0.21936481
1.0864667 -1.4057391 0.21814612
1.0716614 -1.4045941 0.21692742
1.062815 -1.4112997 0.21692742
1.0420847 -1.4020177 0.21449004
1.0273843 -1.4005345 0.21327135
1.0243846 -1.4150019 0.21449004
1.0327829 -1.4456389 0.21814612
1.0179604 -1.4439873 0.21692742
1.0315387 -1.4829469 0.2218022
1.0054075 -1.4648099 0.21814612
-1.0124729 -1.7190098 0.24495737
-1.0231885 -1.7126533 0.24495737
-1.0389233 -1.7147698 0.24617606
-1.0547892 -1.7167165 0.24739476
-1.0655549 -1.7100552 0.24739476
-1.0815802 -1.7117171 0.24861346
-1.0976683 -1.7132449 0.24983215
-1.119225 -1.7229613 0.25226954
-1.1300285 -1.7158951 0.25226954
-1.1462985 -1.7170159 0.25348824
-1.1570637 -1.7097799 0.25348824
-1.1790123 -1.7188461 0.25592563
-1.1897888 -1.7114043 0.25592563
-1.2062352 -1.7120086 0.2571443
-1.2227358 -1.7124736 0.25836301
-1.2392244 -1.7128457 0.25958169
-1.2556807 -1.7131401 0.26080039
-1.2722538 -1.7132473 0.2620191
-1.2889607 -1.713151 0.26323777
-1.2996992 -1.7050184 0.26323777
-1.3164531 -1.7046742 0.26445648
-1.3332536 -1.7041864 0.26567516
-1.3500998 -1.7035545 0.26689386
-1.3731384 -1.7105705 0.26933125
-1.3837105 -1.7020299 0.26933125
-1.4006033 -1.701033 0.27054992
-1.4176205 -1.6998217 0.27176863
-1.4410825 -1.7060459 0.27420601
-1.4517734 -1.6969576 0.27420601
-1.4689065 -1.6953038 0.27542472
-1.4926226 -1.7009616 0.2778621
-1.5098739 -1.6989688 0.27908078
-1.5271587 -1.696826 0.28029948
-1.544476 -1.6945328 0.28151819
-1.5685565 -1.6993821 0.28395557
-1.5791383 -1.6895536 0.28395557
-1.5963984 -1.6869463 0.28517425
-1.6206181 -1.6912943 0.28761163
-1.6381247 -1.6882015 0.28883034
-1.6626127 -1.692035 0.29126772
-1.680212 -1.6885909 0.29248643
-1.6978335 -1.6849922 0.29370511
-1.7225646 -1.6881857 0.29614249
-1.7402699 -1.6842319 0.2973612
-1.7579933 -1.6801219 0.29857987
-1.7828878 -1.6827357 0.30101728
-1.8005397 -1.6784248 0.30223596
-1.825573 -1.6806122 0.30467334
-1.8507848 -1.6824621 0.30711073
-1.8687056 -1.6774303 0.30832943
-1.8940637 -1.678823 0.31076682
-1.9120435 -1.673426 0.31198552
-1.9375398 -1.6743588 0.31442291
-1.9630591 -1.6751117 0.31686029
-1.9809901 -1.6693126 0.31807899
-2.0066178 -1.6696271 0.32051638
-2.0324075 -1.6695869 0.32295376
-2.0582755 -1.669288 0.32539114
-2.0842192 -1.6687295 0.32782853
-2.1102366 -1.6679105 0.33026591
-2.1363256 -1.6668298 0.33270329
-2.1546199 -1.6594304 0.333922
-2.1808069 -1.6578734 0.33635938
-2.2149975 -1.6620094 0.34001547
-2.2413487 -1.659874 0.34245285
-2.2677603 -1.6574721 0.34489024
-2.2942295 -1.6548033 0.34732762
-2.3206913 -1.6519554 0.349765
-2.3552465 -1.6546623 0.35342109
-2.3818929 -1.6511664 0.35585847
-2.4087496 -1.6471642 0.35829586
-2.4355254 -1.6430726 0.36073324
-2.4704459 -1.6444505 0.36438933
-2.4972427 -1.6399139 0.36682671
-2.5408194 -1.6457748 0.37170148
-2.5678384 -1.6404651 0.37413889
-2.5948906 -1.6348803 0.37657627
-2.6388345 -1.639496 0.38145104
-2.6660109 -1.6332533 0.38388842
-2.7017078 -1.631865 0.38754451
-2.7374914 -1.6300929 0.39120057
-2.7732968 -1.6280396 0.39485666
-2.8262832 -1.635684 0.40095013
-2.8364871 -1.6179247 0.40095013
-2.8380837 -1.5949594 0.39973143
-2.8307002 -1.5674484 0.39729404
-2.8316445 -1.5451256 0.39607537
-2.8237376 -1.518043 0.39363798
-2.8244483 -1.4956263 0.39241928
-2.8249893 -1.4732608 0.39120057
-2.825361 -1.4509476 0.3899819
-2.8255641 -1.4286882 0.38876319
-2.8255997 -1.4064835 0.38754451
-2.8254147 -1.3844435 0.38632581
-2.8249984 -1.3625991 0.38510713
-2.8245227 -1.3405975 0.38388842
-2.824012 -1.318378 0.38266972
-2.8232834 -1.2963278 0.38145104
-2.8223269 -1.2744782 0.38023233
-2.8212075 -1.252692 0.37901366
-2.819926 -1.2309704 0.37779495
-2.8184834 -1.2093143 0.37657627
-2.8626089 -1.2070066 0.38145104
-2.9159391 -1.2081012 0.38754451
-2.9509473 -1.2012378 0.39120057
-3.0044594 -1.2012419 0.39729404
-3.1565423 -1.1935449 0.41435575
-3.2105083 -1.1909484 0.42044923
-3.2645645 -1.1877202 0.4265427
-3.5098631 0.16229704 0.43141747
-3.5186858 0.18486667 0.43263617
-3.5570881 0.20930448 0.43751094
-3.5358939 0.23035862 0.43507355
-3.5442867 0.25314313 0.43629223
-3.5525458 0.27586737 0.43751094
-3.5408661 0.29717994 0.43629223
-3.5488143 0.32031319 0.43751094
-3.5368524 0.34164932 0.43629223
-3.5445094 0.36488062 0.43751094
-3.5520134 0.38822347 0.43872961
-3.549504 0.41053271 0.43872961
-3.5468545 0.43282762 0.43872961
-3.544065 0.45510358 0.43872961
-3.550972 0.47868946 0.43994832
-3.5380664 0.49960259 0.43872961
-3.5348773 0.52168834 0.43872961
-3.5413871 0.54509062 0.43994832
-3.5379198 0.56715852 0.43994832
-3.5440769 0.59100831 0.44116703
-3.5402935 0.61326551 0.44116703
-3.2621353 0.69310832 0.40948099
-3.2674739 0.71543038 0.41069967
-3.2145388 0.72486883 0.40460622
-3.2195895 0.7472952 0.4058249
-3.2051761 0.76520568 0.40460622
-3.2195842 0.79005921 0.40704361
-3.204932 0.80784768 0.4058249
-3.1901841 0.82548153 0.40460622
-3.1849341 0.84551054 0.40460622
-3.189136 0.86811137 0.4058249
-3.1931789 0.8908 0.40704361
-3.1875191 0.9108448 0.40704361
-3.1817329 0.93085533 0.40704361
-3.1853299 0.9536742 0.40826228
-3.1792748 0.97367013 0.40826228
-3.1825666 0.99659199 0.40948099
-3.1857338 1.0194731 0.41069967
-3.1887903 1.0422761 0.41191837
-3.1821902 1.0622566 0.41191837
-3.1847534 1.085709 0.41313708
-3.1778142 1.1058544 0.41313708
-3.1708035 1.1257985 0.41313708
-3.1730435 1.1489576 0.41435575
-3.175175 1.1720331 0.41557446
-3.1770968 1.195299 0.41679314
-3.1695242 1.2152368 0.41679314
-3.1710708 1.2387397 0.41801184
-3.1724477 1.2623082 0.41923052
-2.9047599 1.2846341 0.3899819
-2.8513706 1.2825034 0.38388842
-2.7981255 1.2797518 0.37779495
-2.7540779 1.2804632 0.37292019
-2.7101946 1.2805423 0.36804542
-2.666369 1.2802281 0.36317062
-2.6136708 1.2751944 0.35707718
-2.578928 1.2783675 0.35342109
-2.5265205 1.2722256 0.34732762
-2.4830809 1.2700927 0.34245285
-2.4485168 1.2721565 0.33879676
-2.405298 1.2691089 0.333922
-2.3710294 1.2701355 0.33026591
-2.3281236 1.2660416 0.32539114
-2.2940543 1.2662548 0.32173505
-2.2514155 1.2612406 0.31686029
-2.2261896 1.2655506 0.31442291
-2.1924491 1.2645515 0.31076682
-2.1588709 1.2630752 0.30711073
-2.1253486 1.2613124 0.30345467
-2.0918713 1.2592837 0.29979858
-2.0585039 1.2568858 0.29614249
-2.0336893 1.2593433 0.29370511
-2.0005195 1.2562617 0.29004905
-1.9758426 1.2581438 0.28761163
-1.9428824 1.2543831 0.28395557
-1.9183538 1.2556934 0.28151819
-1.8856152 1.2512586 0.2778621
-1.8612453 1.2520013 0.27542472
-1.8369404 1.2524886 0.27298734
-1.8127042 1.2527195 0.27054992
-1.7804079 1.2470025 0.26689386
-1.7644442 1.252419 0.26567516
-1.7323674 1.2460936 0.2620191
-1.7084622 1.2452607 0.25958169
-1.6845882 1.2442425 0.2571443
-1.6607356 1.2430533 0.25470692
-1.6370625 1.2414856 0.25226954
-1.6135963 1.2395123 0.24983215
-1.5901706 1.2373573 0.24739476
-1.5667753 1.2350348 0.24495737
-1.5512279 1.2386619 0.24373868
-1.5279808 1.2358998 0.2413013
-1.5048295 1.2328957 0.23886392
-1.4817777 1.2296493 0.23642652
-1.466424 1.2325494 0.23520783
-1.4510933 1.2353046 0.23398913
-1.4282689 1.2314348 0.23155175
-1.4130274 1.2338558 0.23033306
-3.0439515 4.3146734 0.64834487
-3.0054393 4.3174224 0.64590752
-2.9782541 4.3362203 0.64590752
-2.9209728 4.5529408 0.66418791
-2.9347656 4.6383038 0.67393744
-2.9213257 4.6819143 0.67759353
-2.9126568 4.7339907 0.6824683
-2.8981142 4.7777681 0.68612438
-2.9083676 4.8642836 0.69587392
-2.9079349 4.9337959 0.70318609
-2.9122157 5.0117917 0.71171695
-2.9036117 5.2221828 0.73365343
-2.8998153 5.2923002 0.7409656
-2.8950551 5.36268 0.74827778
-2.8892655 5.4333444 0.7555899
-2.8919079 5.5217319 0.76533943
-2.8480592 5.52215 0.76290208
-2.7998228 5.5133872 0.75924599
-2.7562506 5.5131135 0.75680864
-2.7084074 5.5036068 0.75315255
-2.6607959 5.4937162 0.74949646
-2.5749836 5.4028068 0.7348721
-2.3766451 5.0684037 0.68734306
-2.3738527 5.146327 0.69587392
-2.4562902 5.4142261 0.72999734
-2.4545722 5.5020676 0.73974693
-2.4119813 5.4992018 0.73730952
-2.3773799 5.5142488 0.73730952
-2.3310709 5.5016599 0.73365343
-2.2888262 5.4978719 0.73121607
-2.2429674 5.4845834 0.72755998
-2.2010627 5.4801478 0.72512257
-2.1629467 5.4846354 0.72390389
-2.1248586 5.4888616 0.72268522
-2.0832808 5.4835467 0.72024781
-2.0418508 5.4779277 0.71781039
-2.0039852 5.4813266 0.71659172
-1.9628052 5.4751239 0.71415436
-1.9250761 5.4779835 0.71293563
-1.884154 5.4712024 0.71049827
-1.8433963 5.4641228 0.70806086
-1.8090265 5.4755979 0.70806086
-1.7715338 5.4774117 0.70684218
-1.734087 5.4789724 0.70562351
-1.7025645 5.4992409 0.70684218
-1.6679769 5.50983 0.70684218
-1.6333263 5.5202012 0.70684218
-1.6234143 5.6161709 0.71781039
-1.5827039 5.6071553 0.71537304
-1.5263511 5.5404377 0.70562351
-1.5095431 5.6170154 0.71415436
-1.4641563 5.5879846 0.70927954
-1.4339294 5.6163073 0.71171695
-1.3936098 5.6059947 0.70927954
-1.35787 5.6147585 0.70927954
-1.3179586 5.6038699 0.70684218
-1.2787865 5.592577 0.70440477
-1.2417431 5.5907516 0.70318609
-1.2024102 5.5790377 0.70074874
-1.1650871 5.5768118 0.69953001
-1.1236343 5.5549355 0.69587392
-1.0827199 5.5327163 0.69221789
1.0129895 1.1313641 0.18646009
1.0267329 1.132341 0.18767878
1.0406394 1.1330875 0.18889748
1.0477935 1.1264753 0.18889748
1.0616561 1.1270946 0.19011617
1.0687169 1.1204017 0.19011617
1.0826311 1.1208037 0.19133486
1.0965495 1.1211165 0.19255356
1.1034747 1.114301 0.19255356
1.1244557 1.1214179 0.19499095
1.1314795 1.1143306 0.19499095
1.1455741 1.1141193 0.19620964
1.1597103 1.1137747 0.19742833
1.1738873 1.1132962 0.19864702
1.1881036 1.1126831 0.19986571
1.2023582 1.111935 0.20108442
1.2166501 1.1110517 0.20230311
1.2309783 1.1100322 0.2035218
1.2453412 1.1088763 0.20474049
1.2597378 1.1075835 0.20595919
1.2741672 1.1061534 0.20717788
1.2886702 1.1045361 0.20839657
1.3108345 1.1091266 0.21083397
1.3254068 1.1072176 0.21205266
1.339898 1.1053002 0.21327135
1.3544583 1.1031939 0.21449004
1.3690982 1.1008815 0.21570873
1.3837621 1.0984285 0.21692742
1.3984488 1.0958345 0.21814612
1.4210082 1.0991716 0.22058351
1.4278865 1.0902215 0.22058351
1.458488 1.0991493 0.22423959
1.4733293 1.0958874 0.22545828
1.4881868 1.0924822 0.22667697
1.5110972 1.0947566 0.22911437
1.5260201 1.0910131 0.23033306
1.5409552 1.0871251 0.23155175
1.5640476 1.0887628 0.23398913
1.5872207 1.0901529 0.23642652
1.6104723 1.0912942 0.23886392
1.6255487 1.08667 0.24008261
1.640589 1.0819619 0.2413013
1.6639003 1.0826021 0.24373868
1.6873231 1.0829302 0.24617606
1.7024806 1.0776157 0.24739476
1.7260574 1.0774088 0.24983215
1.7581508 1.0821505 0.25348824
1.7734005 1.0762317 0.25470692
1.7971624 1.07526 0.2571443
1.8210224 1.0739622 0.25958169
1.8449897 1.0723147 0.2620191
1.8689275 1.0705479 0.26445648
1.8928105 1.0687077 0.26689386
1.9167826 1.0665389 0.26933125
1.9408528 1.0640172 0.27176863
1.9649662 1.0612347 0.27420601
1.9891205 1.0581909 0.2766434
2.0221052 1.0594915 0.28029948
2.0463634 1.0558678 0.28273687
2.0706551 1.0519806 0.28517425
2.1127322 1.0567094 0.29004905
2.1371393 1.0521821 0.29248643
2.1705046 1.0517176 0.29614249
2.2039471 1.0508748 0.29979858
2.228478 1.0454372 0.30223596
2.2620389 1.0438915 0.30589205
2.3047056 1.0460671 0.31076682
2.3293202 1.0397453 0.3132042
2.3720713 1.0412509 0.31807899
2.3967426 1.0343087 0.32051638
2.4306068 1.0308553 0.32417244
2.4736831 1.0308347 0.32904723
2.5168536 1.0303129 0.333922
2.5601528 1.0291911 0.33879676
2.6035874 1.0274347 0.34367153
2.6378076 1.021682 0.34732762
2.6812863 1.0191946 0.35220239
2.7247972 1.0163047 0.35707718
2.7776468 1.0164572 0.36317062
2.8212976 1.0125326 0.36804542
4.8909235 0.89787287 0.61056542
5.0332961 0.89135575 0.62762713
5.1757741 0.883084 0.64468884
9.971899 0.81151664 1.2284429
10.224241 0.76741815 1.2589103
9.9615049 0.68478364 1.2260056
10.233078 0.63888049 1.2589103
10.920671 0.61295086 1.3430002
11.647967 0.58038014 1.4319648
12.454565 0.54262191 1.5306789
13.340438 0.49842507 1.6391426
15.922676 0.49491385 1.956003
15.945351 0.39396077 1.9584403
15.967373 0.29334694 1.9608777
15.958977 0.19289571 1.959659
15.949944 0.093171135 1.9584403
15.94029 -0.0056519983 1.9572216
15.939945 -0.10502398 1.9572216
15.938971 -0.20517504 1.9572216
15.927444 -0.30512789 1.956003
15.91529 -0.404944 1.9547843
15.912431 -0.50493425 1.9547843
15.908944 -0.60490239 1.9547843
15.90483 -0.70484883 1.9547843
15.900087 -0.80476743 1.9547843
15.894752 -0.90404677 1.9547843
15.888844 -1.0025123 1.9547843
15.882286 -1.1015443 1.9547843
15.884949 -1.2020622 1.956003
15.877083 -1.3018461 1.956003
15.878476 -1.4024519 1.9572216
15.869351 -1.5021911 1.9572216
15.869474 -1.6028684 1.9584403
15.868959 -1.7036066 1.959659
15.867804 -1.8044016 1.9608777
15.856226 -1.9034599 1.9608777
15.853975 -2.0029116 1.9620965
15.093398 -2.0024955 1.8694757
13.969633 -1.9427962 1.7317634
13.112526 -1.9071409 1.6269557
12.285972 -1.8647285 1.5258042
11.587856 -1.8327451 1.4404956
10.939524 -1.8007299 1.3612806
10.350777 -1.7706857 1.2893777
8.9310551 -1.7016701 1.1163231
8.5988264 -1.6944265 1.0761063
8.6074619 -1.7523811 1.0785437
8.421442 -1.7696875 1.0566072
5.8340588 -1.3796841 0.73609084
5.8253984 -1.4158051 0.73609084
6.4424024 -1.6083616 0.81530589
6.2687216 -1.6069105 0.79458809
6.0953193 -1.6033419 0.77387029
5.9126334 -1.5950744 0.75193381
5.7399259 -1.5870023 0.73121607
5.5771832 -1.5792683 0.71171695
5.4337683 -1.575314 0.69465524
5.2905478 -1.5698944 0.67759353
5.1761079 -1.5713886 0.66418791
5.0334244 -1.5626787 0.6471262
4.9099813 -1.5582448 0.6325019
4.7962379 -1.5553846 0.61909628
4.259305 -1.5307156 0.5557242
4.1470909 -1.5198772 0.54231858
4.1189232 -1.5387988 0.53988117
4.127862 -1.5713521 0.54231858
4.1273012 -1.6004853 0.54353726
3.2700756 -1.6048251 -0.44726047
3.2066319 -1.5987675 -0.43994832
2.6569495 -1.4300218 -0.3704828
2.6392016 -1.4419286 -0.3692641
2.5780711 -1.4294893 -0.36195195
2.5345631 -1.4259683 -0.35707718
2.4996946 -1.4271021 -0.35342109
2.4562006 -1.4230933 -0.34854633
2.4300346 -1.4285446 -0.34610894
2.395437 -1.4285334 -0.34245285
2.3609986 -1.4280415 -0.33879676
2.3267229 -1.4270746 -0.33514068
2.2924886 -1.4258381 -0.33148462
2.2582991 -1.4243293 -0.32782853
2.22422 -1.4224478 -0.32417244
2.1902547 -1.4201949 -0.32051638
2.1647625 -1.4229296 -0.31807899
2.131124 -1.4198056 -0.31442291
2.0975468 -1.4164115 -0.31076682
2.0722246 -1.4183505 -0.30832943
2.0469615 -1.4200276 -0.30589205
2.0217597 -1.4214438 -0.30345467
1.9885383 -1.4168402 -0.29979858
1.9635025 -1.4176861 -0.2973612
1.9385972 -1.4181892 -0.29492381
1.9138244 -1.4183538 -0.29248643
1.889063 -1.4183486 -0.29004905
1.8643147 -1.4181714 -0.28761163
1.8397058 -1.4176594 -0.28517425
