# .PCD v0.7 - Point Cloud Data file format
VERSION 0.7
FIELDS x y z
SIZE 4 4 4
TYPE F F F
COUNT 1 1 1
WIDTH 1480
HEIGHT 1
VIEWPOINT 0 0 0 1 0 0 0
POINTS 1480
DATA ascii
-5.6824245 -0.23518366 -0.69831133
-5.673871 -0.19912583 -0.69709265
-5.6750102 -0.16347359 -0.69709265
-5.5866184 -0.12580086 -0.68612438
-5.7361612 -0.093114756 -0.70440477
-5.8259578 -0.057961944 -0.71537304
-5.7666545 -0.021138662 -0.70806086
-5.7765989 0.015122055 -0.70927954
-5.7962399 0.051592167 -0.71171695
-5.7759528 0.087709956 -0.70927954
-5.7752929 0.12374565 -0.70927954
-5.7644935 0.15925637 -0.70806086
-5.8229065 0.1972352 -0.71537304
-5.75213 0.23103078 -0.70684218
-5.710906 0.26532367 -0.70196742
-5.7190375 0.30172539 -0.70318609
-5.6773963 0.33531076 -0.69831133
-5.6652727 0.37033018 -0.69709265
-5.6628342 0.40591717 -0.69709265
-5.6403813 0.43994743 -0.69465524
-5.6375055 0.47537664 -0.69465524
-5.6344075 0.51078707 -0.69465524
-5.6311111 0.5459314 -0.69465524
-5.6177473 0.57979572 -0.69343656
-5.6140203 0.61483473 -0.69343656
-5.6100464 0.65009785 -0.69343656
-5.6058512 0.6853323 -0.69343656
-5.5915899 0.71927637 -0.69221789
-5.6263051 0.75970614 -0.69709265
-5.6214204 0.79504359 -0.69709265
-5.635952 0.83324999 -0.69953001
-5.6207952 0.86713326 -0.69831133
-5.6152363 0.90243095 -0.69831133
-5.5996656 0.93605959 -0.69709265
-5.5936737 0.97122318 -0.69709265
-5.5776925 1.0045921 -0.69587392
-5.5712709 1.0396162 -0.69587392
-5.5646291 1.0745994 -0.69587392
-5.5577674 1.1095401 -0.69587392
-5.5506864 1.1444401 -0.69587392
-5.543386 1.1792917 -0.69587392
-5.5358667 1.2140999 -0.69587392
-5.5281296 1.2488571 -0.69587392
-5.5201731 1.2835681 -0.69587392
-5.5119996 1.3182254 -0.69587392
-5.5036077 1.3528336 -0.69587392
-5.5046229 1.3898152 -0.69709265
-5.4957814 1.4243757 -0.69709265
-5.4867239 1.4588768 -0.69709265
-5.4774489 1.4933234 -0.69709265
-5.4775176 1.5303791 -0.69831133
-5.4677935 1.5647664 -0.69831133
-5.4673796 1.6018797 -0.69953001
-5.4667134 1.6390525 -0.70074874
-5.4563808 1.6731286 -0.70074874
-5.4553804 1.7098731 -0.70196742
-5.4446058 1.7438772 -0.70196742
-5.4429741 1.7811403 -0.70318609
-5.4410105 1.8186865 -0.70440477
-5.4387069 1.8565195 -0.70562351
-5.4362254 1.8941565 -0.70684218
-5.4335685 1.9316018 -0.70806086
-5.440073 1.9722311 -0.71049827
-5.4370589 2.009341 -0.71171695
-5.4244161 2.0432248 -0.71171695
-5.3651395 2.0594835 -0.70562351
-5.3613377 2.0967667 -0.70684218
-5.3572779 2.1340859 -0.70806086
-5.3438587 2.1674695 -0.70806086
-5.3578496 2.2119014 -0.71171695
-5.4078994 2.2724359 -0.72024781
-5.4663186 2.3380687 -0.72999734
-5.5060225 2.3963706 -0.73730952
-5.4999323 2.434938 -0.73852819
-5.4935756 2.4735203 -0.73974693
-5.5140233 2.5245171 -0.74462169
-5.471169 2.5463071 -0.7409656
-5.3835068 2.5462086 -0.73121607
-5.1707067 2.485157 -0.70440477
-5.9933443 2.9270339 -0.81896198
-5.5391703 2.7484608 -0.75924599
-5.1849885 2.6134489 -0.71293563
-5.1948552 2.65977 -0.71659172
-5.1778049 2.6928113 -0.71659172
-5.1782184 2.7347856 -0.71902913
-5.1871743 2.7813394 -0.72268522
-5.1695971 2.813875 -0.72268522
-5.1518145 2.846302 -0.72268522
-5.1511445 2.8883228 -0.72512257
-5.132894 2.9206326 -0.72512257
-2.7289908 1.6442844 -0.39120057
-2.6847293 1.6406951 -0.38632581
-2.6321847 1.6313879 -0.38023233
-2.5798657 1.621485 -0.37413889
-2.5361457 1.6163257 -0.3692641
-2.4925947 1.6106806 -0.36438933
-2.4326105 1.5936757 -0.35707718
-2.4060133 1.5979457 -0.35463977
-2.3547583 1.5853168 -0.34854633
-2.3201561 1.5832962 -0.34489024
-2.2775092 1.5752591 -0.34001547
-2.2350571 1.5667483 -0.33514068
-2.2008939 1.5635164 -0.33148462
-2.1588061 1.5541178 -0.32660982
-2.1249423 1.5501034 -0.32295376
-2.0911486 1.5458158 -0.31929767
-2.049484 1.5353024 -0.31442291
-2.0239842 1.5361487 -0.31198552
-1.9908215 1.5305105 -0.30832943
-1.9577399 1.5246077 -0.30467334
-1.924744 1.5184363 -0.30101728
-1.8919047 1.5119103 -0.2973612
-1.8669382 1.5112782 -0.29492381
-1.8343805 1.5040982 -0.29126772
-1.8019868 1.4965705 -0.28761163
-1.7849529 1.5014734 -0.28639296
-1.7528183 1.4933479 -0.28273687
-1.7283719 1.4913628 -0.28029948
-1.7040193 1.4891309 -0.2778621
-1.6797645 1.4866514 -0.27542472
-1.6556078 1.4839274 -0.27298734
-1.6315532 1.4809581 -0.27054992
-1.6002936 1.4710295 -0.26689386
-1.5764898 1.4675294 -0.26445648
-1.552793 1.4637895 -0.2620191
-1.5292069 1.4598095 -0.25958169
-1.5057317 1.4555923 -0.2571443
-1.4894639 1.4580806 -0.25592563
-1.466175 1.4534354 -0.25348824
-1.4430045 1.4485549 -0.25105083
-1.4199531 1.443442 -0.24861346
-1.4039401 1.4452156 -0.24739476
-1.3810893 1.4396834 -0.24495737
-1.3651907 1.4411266 -0.24373868
-1.3425474 1.4351795 -0.2413013
-1.326769 1.4362953 -0.24008261
-1.3110291 1.4372706 -0.23886392
-1.282107 1.4232986 -0.23520783
-1.2732636 1.4312153 -0.23520783
-1.2512075 1.4242183 -0.23277044
-1.2357299 1.4245545 -0.23155175
-1.2202364 1.4248052 -0.23033306
-1.1983182 1.4173908 -0.22789566
-1.1830289 1.4172721 -0.22667697
-1.1615987 1.4092569 -0.22423959
-1.1527215 1.4165274 -0.22423959
-1.1312425 1.4083657 -0.2218022
-1.1161432 1.407717 -0.22058351
-1.1011584 1.4068863 -0.21936481
-1.086229 1.4059228 -0.21814612
-1.0653359 1.3969357 -0.21570873
-1.0505689 1.3956715 -0.21449004
-1.0358593 1.3942778 -0.21327135
-1.0212706 1.3927096 -0.21205266
-1.0068021 1.3909703 -0.21083397
1.5446689 0.93659055 -0.2218022
1.5590425 0.93195933 -0.2230209
1.5734185 0.92718428 -0.22423959
1.5963784 0.92725044 -0.22667697
1.6107868 0.92213309 -0.22789566
1.6338382 0.92174798 -0.23033306
1.6482725 0.91628671 -0.23155175
1.6627024 0.91068023 -0.23277044
1.6858616 0.90964156 -0.23520783
1.7003082 0.90368938 -0.23642652
1.7147071 0.89766604 -0.23764521
1.7467011 0.90067124 -0.2413013
1.7611369 0.89424884 -0.24251999
4.4292941 1.4639915 -0.57278591
4.4478483 1.4391884 -0.57400459
4.4378786 1.405221 -0.57156724
4.4276581 1.371436 -0.56912982
4.4171886 1.3378351 -0.56669241
4.396956 1.3016028 -0.56303638
4.4050469 1.2739505 -0.56303638
4.3938608 1.2408527 -0.56059897
4.3823805 1.2081374 -0.55816156
5.3810697 0.30179065 -0.6617505
5.3630333 0.26698759 -0.65931314
5.3546886 0.23285435 -0.65809447
6.7984481 0.081876591 -0.83480501
6.7690525 0.038987771 -0.83114892
6.7592382 -0.0035388041 -0.82993019
7.0270662 -0.047525268 -0.86283493
7.9297776 -0.10276812 -0.97373605
7.9190588 -0.15205327 -0.97251737
7.9080248 -0.20155405 -0.97129864
7.4304528 -2.5657654 -0.96520519
7.1520677 -2.5200429 -0.93108177
6.8745604 -2.470928 -0.89695835
6.6352396 -2.4320924 -0.8677097
6.3967915 -2.3900712 -0.83846104
6.1777892 -2.3519666 -0.8116498
5.9871726 -2.3222706 -0.78849465
5.8063049 -2.2941906 -0.76655817
5.6077161 -2.2562766 -0.74218428
5.4374847 -2.2270265 -0.72146648
5.2677412 -2.1959853 -0.70074874
5.1259203 -2.1747677 -0.68368703
4.9754658 -2.147923 -0.66540658
4.8346443 -2.1232667 -0.64834487
4.7033968 -2.100976 -0.6325019
4.5816617 -2.0812268 -0.61787754
3.6747887 -1.9258313 -0.50941384
3.6014473 -1.9159316 -0.50088298
3.5544891 -1.9195006 -0.49600822
3.5597656 -1.9513382 -0.4984456
3.5561082 -1.9784918 -0.49966431
3.5436072 -2.0007958 -0.49966431
3.5309658 -2.0230215 -0.49966431
3.5181851 -2.045167 -0.49966431
3.5223646 -2.077316 -0.50210166
3.509243 -2.0994065 -0.50210166
3.5044682 -2.1265633 -0.5033204
3.4994903 -2.1537428 -0.50453907
3.5028245 -2.1860456 -0.50697649
3.4892128 -2.2077069 -0.50697649
3.4837241 -2.2347941 -0.50819516
3.4779341 -2.2620504 -0.50941384
3.4802251 -2.2947857 -0.51185125
3.4739897 -2.3221228 -0.51306993
3.4676504 -2.3493207 -0.5142886
3.4612103 -2.3763788 -0.51550734
3.4544628 -2.4035976 -0.51672602
3.4474039 -2.430975 -0.51794469
3.4482126 -2.4641292 -0.52038211
3.4487405 -2.4973886 -0.52281946
3.4409831 -2.5248799 -0.5240382
3.8455176 -3.0896657 -0.6056906
3.8491235 -3.1325619 -0.60934669
3.8600001 -3.1819382 -0.61422145
3.8476906 -3.2123218 -0.61544019
3.8580322 -3.2617321 -0.62031496
3.8526838 -3.2986524 -0.62275231
3.8468802 -3.3357983 -0.62518972
3.8333018 -3.3664534 -0.6264084
3.8343246 -3.41026 -0.63006449
3.8277211 -3.4474037 -0.6325019
3.8136232 -3.4777403 -0.63372058
3.8137248 -3.5216694 -0.63737667
3.7915232 -3.5455611 -0.63737667
3.7907906 -3.5897889 -0.64103276
3.7896528 -3.6341445 -0.64468884
3.7809842 -3.6717143 -0.6471262
3.7719944 -3.709316 -0.64956361
3.7767451 -3.7609584 -0.65443838
1.5585253 -1.5716363 -0.27176863
1.5486883 -1.5813305 -0.27176863
1.5457617 -1.5980296 -0.27298734
1.5151925 -1.5861123 -0.26933125
1.4915748 -1.5811617 -0.26689386
1.4681492 -1.5759127 -0.26445648
1.4449154 -1.570371 -0.2620191
1.4284146 -1.5720098 -0.26080039
1.3986232 -1.5587912 -0.2571443
1.3756379 -1.5526896 -0.25470692
1.3593193 -1.5538323 -0.25348824
1.3430418 -1.5548308 -0.25226954
1.320364 -1.5481353 -0.24983215
1.2978247 -1.541216 -0.24739476
1.2817696 -1.5417081 -0.24617606
1.2595303 -1.534332 -0.24373868
1.2437494 -1.5343962 -0.24251999
1.22795 -1.534377 -0.2413013
1.2121316 -1.5342742 -0.24008261
1.1963642 -1.5340329 -0.23886392
1.1745924 -1.5257901 -0.23642652
1.1590439 -1.5251867 -0.23520783
1.1376592 -1.5164595 -0.23277044
1.1222681 -1.515552 -0.23155175
1.1068674 -1.5145597 -0.23033306
1.0915231 -1.5134345 -0.22911437
1.0762374 -1.512176 -0.22789566
1.0553058 -1.5026636 -0.22545828
1.045844 -1.5092643 -0.22545828
1.0307386 -1.5076122 -0.22423959
1.0101452 -1.4976016 -0.2218022
1.000716 -1.5039186 -0.2218022
-1.0022001 -1.1672243 -0.18889748
-1.0160275 -1.1683937 -0.19011617
-1.0233483 -1.1619871 -0.19011617
-1.037236 -1.1629413 -0.19133486
-1.0511751 -1.1637671 -0.19255356
-1.0584162 -1.1571854 -0.19255356
-1.0655653 -1.1506058 -0.19255356
-1.0795135 -1.1511745 -0.19377226
-1.0935596 -1.1515667 -0.19499095
-1.1007738 -1.1446726 -0.19499095
-1.1148686 -1.1448449 -0.19620964
-1.1220402 -1.137817 -0.19620964
-1.1361803 -1.1377683 -0.19742833
-1.1503643 -1.1375858 -0.19864702
-1.1574889 -1.1303357 -0.19864702
-1.1716638 -1.1299814 -0.19986571
-1.1786424 -1.1227002 -0.19986571
-1.1928539 -1.122125 -0.20108442
-1.2071528 -1.1213632 -0.20230311
-1.2214891 -1.1204658 -0.2035218
-1.2358609 -1.1194324 -0.20474049
-1.2428705 -1.1116449 -0.20474049
-1.2647092 -1.1169548 -0.20717788
-1.2716541 -1.1090416 -0.20717788
-1.2860217 -1.1076187 -0.20839657
-1.3004684 -1.1060033 -0.20961526
-1.3149934 -1.1041926 -0.21083397
-1.3295461 -1.1022437 -0.21205266
-1.3364457 -1.0938678 -0.21205266
-1.351012 -1.0916877 -0.21327135
-1.3733631 -1.0955563 -0.21570873
-1.3880171 -1.0930467 -0.21692742
-1.402694 -1.0903952 -0.21814612
-1.4173915 -1.087603 -0.21936481
-1.4241974 -1.0786754 -0.21936481
-1.4013495 -1.077919 0.28001767
-1.4238275 -1.081038 0.28314638
-1.4305918 -1.0720706 0.28314638
-1.4452404 -1.0689341 0.28471074
-1.4758611 -1.0773021 0.28940377
-1.4906148 -1.0737808 0.29096809
-1.49728 -1.0644672 0.29096809
-1.5119317 -1.0608428 0.29253244
-1.5266477 -1.0570023 0.2940968
-1.5414145 -1.0529605 0.29566112
-1.5561905 -1.0487747 0.29722548
-1.570974 -1.0444449 0.29878983
-1.5857646 -1.0399702 0.30035415
-1.6005607 -1.0353506 0.30191851
-1.615361 -1.0305858 0.30348286
-1.6385241 -1.0309356 0.30661154
-1.6533619 -1.0258274 0.30817589
-1.6766253 -1.0257276 0.31130457
-1.6999016 -1.0254589 0.31443328
-1.7147112 -1.0199564 0.3159976
-1.7380875 -1.0192204 0.31912631
-1.7530085 -1.0132221 0.32069066
-1.7679222 -1.0070764 0.32225499
-1.7914404 -1.0056177 0.32538369
-1.8236521 -1.0086834 0.33007672
-1.8472993 -1.0066575 0.3332054
-1.8622901 -0.99970222 0.33476976
-1.8772659 -0.99259865 0.33633408
-1.9009861 -0.9899075 0.33946279
-1.9159571 -0.98245043 0.34102714
-1.948543 -0.98374683 0.34572017
-1.9635303 -0.97588027 0.3472845
-1.9873198 -0.9723016 0.3504132
-2.0111032 -0.96854103 0.35354188
-2.043936 -0.96855229 0.35823491
-2.0590169 -0.95968425 0.35979927
-5.078167 -0.43155986 0.8072018
-5.1890898 -0.40816259 0.8244096
-5.3590212 -0.38766664 0.85100347
-5.4993095 -0.36336541 0.8729043
-5.649344 -0.33813608 0.89636946
-5.7105217 -0.30602011 0.90575552
-5.7221975 -0.27060205 0.9073199
-5.7139163 -0.23423718 0.90575552
-5.7152753 -0.19833265 0.90575552
-5.7164087 -0.16241726 0.90575552
-5.5988226 -0.12387677 0.88698339
-5.7673764 -0.091356911 0.91357726
-5.7480836 -0.05493056 0.91044855
-5.7483153 -0.018811846 0.91044855
-5.7483201 0.017304547 0.91044855
-5.7283449 0.053239733 0.9073199
-5.7278976 0.089229234 0.9073199
-5.7272296 0.12493762 0.9073199
-5.7164726 0.16014495 0.90575552
-5.7153611 0.19584161 0.90575552
-5.7041492 0.23134647 0.9041912
-5.7025828 0.26718348 0.9041912
-5.6909285 0.30248266 0.90262687
-5.6790562 0.33764899 0.90106249
-5.6866784 0.37397131 0.90262687
-5.674365 0.4089857 0.90106249
-5.6716833 0.44462901 0.90106249
-5.6687779 0.4802548 0.90106249
-5.6656485 0.51586163 0.90106249
-5.6623225 0.55117363 0.90106249
-5.6489744 0.5852294 0.89949816
-5.6353917 0.61941713 0.89793384
-5.6313887 0.65481144 0.89793384
-5.6271629 0.69018286 0.89793384
-5.6227155 0.72552407 0.89793384
-5.6278334 0.76216519 0.89949816
-5.6327128 0.79889613 0.90106249
-5.6080413 0.83137631 0.89793384
-5.6027074 0.86659455 0.89793384
-5.5971513 0.90178162 0.89793384
-5.5913754 0.93693012 0.89793384
-5.5756469 0.9703511 0.89636946
-5.5791602 1.0071177 0.89793384
-5.5727224 1.0421511 0.89793384
-5.5660648 1.0771433 0.89793384
-5.5591869 1.112096 0.89793384
-5.542417 1.1450034 0.89636946
-5.5447731 1.1818652 0.89793384
-5.5372381 1.2166791 0.89793384
-5.5294838 1.2514479 0.89793384
-5.5311313 1.2884049 0.89949816
-5.5133214 1.3208328 0.89793384
-5.5145044 1.3578078 0.89949816
-5.5058641 1.3924309 0.89949816
-5.506567 1.4294779 0.90106249
-5.4879322 1.461508 0.89949816
-5.4881692 1.4985609 0.90106249
-5.4881563 1.5356773 0.90262687
-5.468905 1.5674073 0.90106249
-5.4589481 1.6017398 0.90106249
-5.4582367 1.6388464 0.90262687
-5.4479141 1.6728406 0.90262687
-5.4374447 1.7065642 0.90262687
-5.4360857 1.7435045 0.9041912
-5.4344101 1.7807 0.90575552
-5.4230251 1.8150772 0.90575552
-5.4206986 1.8527808 0.9073199
-5.4182034 1.8902656 0.90888423
-5.40622 1.9242703 0.90888423
-5.4034033 1.9613045 0.91044855
-5.3911471 1.9947468 0.91044855
-5.3878264 2.0318613 0.91201293
-5.3749542 2.0656722 0.91201293
-5.3802624 2.1066067 0.91514158
-5.3669209 2.1403687 0.91514158
-5.3626246 2.1774998 0.91670597
-5.3581581 2.2144575 0.91827029
-5.3441138 2.2481384 0.91827029
-5.3387637 2.2860239 0.91983461
-5.3423152 2.3276188 0.92296332
-5.3366151 2.36514 0.92452765
-5.3396578 2.4067426 0.92765635
-5.3244309 2.4402437 0.92765635
-5.318068 2.4775591 0.92922074
-5.3383231 2.5273681 0.93547809
-5.2245307 2.5135546 0.91827029
-6.0240459 2.9920008 1.0653187
-5.5024967 2.7761953 0.97615105
-5.1947446 2.6623259 0.92452765
-5.1952009 2.7044852 0.92765635
-5.1954637 2.7465057 0.93078506
-5.1868081 2.7837648 0.93234938
-5.1952338 2.8304768 0.93704242
-5.168704 2.8582823 0.93547809
-5.1506424 2.890703 0.93547809
-5.1409612 2.9278948 0.93704242
-2.7234497 1.6424034 0.50371897
-2.6709476 1.6337152 0.49589723
-2.6186645 1.6244316 0.48807552
-2.5666046 1.614558 0.48025379
-2.5314286 1.614717 0.47556075
-2.4880586 1.6091361 0.4693034
-2.4366012 1.5976576 0.46148166
-2.3936124 1.5910659 0.45522428
-2.3508048 1.5839967 0.44896692
-2.308181 1.5764544 0.44270954
-2.2738678 1.5740604 0.4380165
-2.2315907 1.5656267 0.43175912
-2.197561 1.562447 0.42706609
-2.1556458 1.5531294 0.4208087
-2.1219137 1.5491706 0.41611567
-2.0961819 1.5508267 0.41298699
-2.0546503 1.5404491 0.40672961
-2.0134861 1.5294101 0.40047222
-1.9883152 1.5298107 0.39734355
-1.9475616 1.5179114 0.39108616
-1.9224825 1.5178769 0.38795745
-1.8897671 1.5114195 0.38326442
-1.8572104 1.5046107 0.37857139
-1.8324492 1.5037196 0.37544271
-1.8077739 1.5025764 0.37231401
-1.7756301 1.4948219 0.36762097
-1.743656 1.4867235 0.36292794
-1.7193292 1.4847395 0.35979927
-1.6876628 1.4760059 0.35510623
-1.6635679 1.4734834 0.35197753
-1.6395727 1.4707161 0.34884885
-1.6156777 1.4677068 0.34572017
-1.5918865 1.4644549 0.34259146
-1.5681999 1.4609634 0.33946279
-1.5518056 1.4640095 0.33789843
-1.5211513 1.4532628 0.3332054
-1.4977936 1.4490563 0.33007672
-1.4816036 1.4515269 0.32851237
-1.4584312 1.4468945 0.32538369
-1.4353753 1.4420296 0.32225499
-1.4124395 1.4369318 0.31912631
-1.389624 1.4316041 0.3159976
-1.3669326 1.4260463 0.31286892
-1.3511555 1.4274341 0.31130457
-1.3286715 1.421464 0.30817589
-1.3130145 1.4225267 0.30661154
-1.2907443 1.4161488 0.30348286
-1.2752835 1.4168265 0.30191851
-1.2533561 1.4099373 0.29878983
-1.2380106 1.4103144 0.29722548
-1.2226562 1.4106014 0.29566112
-1.2008559 1.4033068 0.29253244
-1.1855183 1.403383 0.29096809
-1.1703664 1.4032063 0.28940377
-1.1553704 1.4028071 0.28783941
-1.1278249 1.3870614 0.28314638
-1.1189661 1.3942177 0.28314638
-1.0978632 1.3857801 0.28001767
-1.0830503 1.3848704 0.27845335
-1.0682915 1.3838301 0.276889
-1.0535897 1.3826587 0.27532464
-1.0330075 1.3734646 0.27219597
-1.0184706 1.3719971 0.27063161
-1.0098979 1.3783195 0.27063161
2.4418542 3.9363899 0.73367763
2.4402432 3.8791683 0.72585589
2.4858146 3.8970678 0.7321133
2.5317063 3.914546 0.73837066
2.5562522 3.8985617 0.73837066
2.5859735 3.8907759 0.73993498
2.6155488 3.8828704 0.74149936
2.6453152 3.8746181 0.74306369
2.6752279 3.8660424 0.74462801
2.7051373 3.8572438 0.7461924
2.7407632 3.8562722 0.7493211
2.7707109 3.8469899 0.75088543
2.8064723 3.8454616 0.75401413
2.8425124 3.8434956 0.75714278
2.849169 3.801599 0.75244975
2.8731432 3.7835126 0.75244975
2.9028816 3.7732136 0.75401413
2.9265318 3.7549 0.75401413
2.9439464 3.7286861 0.75244975
3.0104995 3.7641087 0.7634002
3.0713947 3.7911656 0.77278626
3.0826235 3.7565222 0.76965755
3.1251056 3.7598665 0.77435058
3.1868334 3.7854922 0.78373665
3.2233717 3.7804255 0.78686535
3.2470613 3.760098 0.78686535
3.2836268 3.7544911 0.78999406
3.3200657 3.7487357 0.79312271
3.3498228 3.7354462 0.79468709
3.3863649 3.7290778 0.79781574
3.4230998 3.7222676 0.80094445
3.4600649 3.714972 0.80407315
3.4972157 3.7072237 0.8072018
3.5408671 3.706641 0.81189483
3.5774982 3.6988301 0.81502354
3.6143489 3.6905296 0.81815225
3.6513755 3.6817732 0.82128096
3.6954334 3.6796656 0.82597399
3.7325654 3.670224 0.82910264
3.7697244 3.6604602 0.83223134
3.8069072 3.6503742 0.83536005
3.8512836 3.6467557 0.84005308
3.8957636 3.6427228 0.84474611
3.9330878 3.6315739 0.84787476
3.9704249 3.6200993 0.85100347
4.0151129 3.614907 0.8556965
4.0598917 3.6092951 0.86038953
4.1047573 3.6032624 0.86508256
4.1497064 3.5968077 0.86977559
4.187232 3.5835075 0.8729043
4.2322974 3.5762525 0.87759733
4.2774363 3.5685713 0.88229036
4.3226447 3.5604637 0.88698339
4.3679194 3.5519278 0.89167643
4.4055548 3.5367799 0.89480513
4.458653 3.5335679 0.90106249
4.5041037 3.5237417 0.90575552
4.5494342 3.5137062 0.91044855
4.6025343 3.5094056 0.91670597
4.6243606 3.4805946 0.91670597
1.5432965 0.92172432 0.28471074
1.5575687 0.91702044 0.28627506
1.5718423 0.91217345 0.28783941
1.5946897 0.91208667 0.29096809
1.6089933 0.90689874 0.29253244
1.6232942 0.90156686 0.2940968
1.6375915 0.89609087 0.29566112
1.6605777 0.89515728 0.29878983
1.6748925 0.88933808 0.30035415
1.6979085 0.88803434 0.30348286
1.7209387 0.88654351 0.30661154
1.7352499 0.88024735 0.30817589
4.5251479 2.0505562 0.78686535
4.5108771 2.0100234 0.78217232
4.5234175 1.9816411 0.78217232
4.535779 1.9531807 0.78217232
4.5206738 1.9130952 0.77747929
4.3978724 1.3906535 0.73054892
4.3970876 1.3600749 0.72898459
4.415 1.3352797 0.73054892
4.4327745 1.3103131 0.7321133
4.4409199 1.2824354 0.7321133
4.4108653 1.2437848 0.72585589
4.4090109 1.213642 0.72429156
4.3878293 1.1786141 0.71959853
5.3844352 0.29985845 0.85413218
5.3664832 0.26504686 0.85100347
5.3680429 0.23132318 0.85100347
5.35952 0.19722715 0.84943914
6.795198 0.036469921 1.0762691
6.7755394 -0.0062079793 1.0731404
6.765492 -0.048376083 1.0715761
7.1008468 -0.094775453 1.1247637
7.7705054 -0.20110241 1.2311392
8.1146002 -0.26103643 1.2858913
8.5569315 -0.32909775 1.3562868
8.9789762 -0.40184402 1.4235536
9.4004278 -0.47990605 1.4908204
9.8804007 -0.56667244 1.5674733
10.428633 -0.66388059 1.6550766
11.064725 -0.77365994 1.756759
11.847589 -0.90219802 1.8819066
12.010635 -3.4065216 1.9773316
11.306203 -3.2831497 1.8646988
10.660491 -3.1684086 1.7614521
10.11119 -3.0744233 1.6738487
9.6012363 -2.9853971 1.5925028
9.1398849 -2.9050491 1.5189786
8.7269087 -2.8342814 1.4532762
8.3433218 -2.7677736 1.3922668
7.9983492 -2.7092369 1.3375146
7.6544542 -2.6464787 1.2827626
7.3582482 -2.5959396 1.2358322
7.0722833 -2.5451322 1.1904663
6.7872581 -2.4908373 1.1451002
6.5588298 -2.4535089 1.1091204
6.3312302 -2.4131913 1.0731404
6.1134815 -2.3740249 1.0387248
5.9147563 -2.3397276 1.0074379
5.735147 -2.3101294 0.97927976
5.5562301 -2.2781737 0.95112151
5.3778253 -2.2443557 0.92296332
5.2181635 -2.2163222 0.89793384
5.0681386 -2.1902914 0.87446862
4.9276934 -2.1664405 0.85256779
4.7877536 -2.1409132 0.83066702
4.6573248 -2.1178036 0.81033051
4.5185175 -2.0887749 0.78842968
3.7347798 -1.9591143 0.66797513
3.6615438 -1.9497218 0.65702474
3.5710974 -1.930281 0.64294565
3.5502396 -1.9479296 0.64138132
3.5551884 -1.9798086 0.64450997
3.5512779 -2.0069664 0.64607435
3.5471656 -2.0341535 0.64763868
3.5428517 -2.0613678 0.649203
3.5213244 -2.0785666 0.64763868
3.5166688 -2.1057246 0.649203
3.5033686 -2.127779 0.649203
3.5067494 -2.1601093 0.65233171
3.5015922 -2.187161 0.65389603
3.4879732 -2.2088146 0.65389603
3.4907339 -2.2412262 0.65702474
3.4848607 -2.2685032 0.65858907
3.4787822 -2.2957945 0.66015345
3.4724977 -2.3230989 0.66171777
3.4742978 -2.3557875 0.66484648
3.4677751 -2.3828623 0.6664108
3.4609318 -2.4101162 0.66797513
3.4537899 -2.4375093 0.66953951
3.4464402 -2.4649076 0.67110384
3.4468799 -2.4981053 0.67423254
3.4390767 -2.5255594 0.67579687
3.4310644 -2.5530138 0.67736125
3.8370042 -3.0458093 0.77591491
3.8485799 -3.0946145 0.78217232
3.8596926 -3.1436846 0.78842968
3.8551025 -3.1804435 0.79155838
3.850359 -3.2170806 0.79468709
3.852973 -3.2600141 0.79938012
3.8325388 -3.2840126 0.79938012
3.8416674 -3.3339226 0.80563748
3.8429 -3.3775558 0.81033051
3.8289802 -3.4082015 0.81189483
3.8223317 -3.4452312 0.81502354
3.8155031 -3.4821637 0.81815225
3.8081906 -3.5193298 0.82128096
3.8004258 -3.5566854 0.8244096
3.7995102 -3.6008763 0.82910264
3.7981887 -3.6451952 0.83379567
3.7822933 -3.6758716 0.83536005
3.7802413 -3.7203476 0.84005308
3.6448569 -3.6324723 0.81502354
1.5543153 -1.588306 0.35197753
1.5444447 -1.5979056 0.35197753
1.4935172 -1.5646524 0.34259146
1.4836568 -1.5740056 0.34259146
1.480545 -1.5904537 0.34415582
1.4572929 -1.5850545 0.34102714
1.4274483 -1.5721867 0.33633408
1.4043553 -1.5664164 0.3332054
1.3813918 -1.5604186 0.33007672
1.3585596 -1.5541946 0.32694802
1.3423141 -1.5552229 0.32538369
1.3132969 -1.5410739 0.32069066
1.2908703 -1.53418 0.31756195
1.274894 -1.5346631 0.3159976
1.259038 -1.5349447 0.31443328
1.2432872 -1.5350407 0.31286892
1.2213401 -1.5273471 0.30974025
1.2055997 -1.5272384 0.30817589
1.183838 -1.5192016 0.30504721
1.1682475 -1.5187812 0.30348286
1.1468104 -1.5103023 0.30035415
1.1374309 -1.5173788 0.30035415
1.1220579 -1.5165126 0.29878983
1.1066827 -1.5155562 0.29722548
1.0798151 -1.4984405 0.29253244
1.0703789 -1.5051956 0.29253244
1.0495539 -1.4957213 0.28940377
1.0345129 -1.4941658 0.28783941
1.0195332 -1.4924808 0.28627506
1.0046161 -1.4906664 0.28471074
-1.0122632 -1.1484903 0.24247342
-1.0194594 -1.1421074 0.24247342
-1.0266153 -1.1356795 0.24247342
-1.047013 -1.1438284 0.2456021
-1.0607938 -1.1445634 0.24716645
-1.0746796 -1.1451186 0.24873079
-1.0886575 -1.145503 0.25029513
-1.0958334 -1.1386402 0.25029513
-1.1098596 -1.1388057 0.25185949
-1.116993 -1.1318098 0.25185949
-1.1310641 -1.1317555 0.25342384
-1.1381527 -1.1246265 0.25342384
-1.1522655 -1.1243509 0.25498816
-1.1663646 -1.1239994 0.25655252
-1.1804606 -1.1235607 0.25811687
-1.1874542 -1.1161667 0.25811687
-1.2016827 -1.1154033 0.2596812
-1.2159483 -1.1145046 0.26124555
-1.2302498 -1.1134704 0.2628099
-1.2372216 -1.1057186 0.2628099
-1.2515502 -1.1044583 0.26437426
-1.2733037 -1.1096125 0.26750293
-1.2801542 -1.101702 0.26750293
-1.2945359 -1.1000817 0.26906729
-1.3089887 -1.0982746 0.27063161
-1.3234696 -1.0963291 0.27219597
-1.3303319 -1.087992 0.27219597
-1.352511 -1.0920211 0.27532464
-1.3593458 -1.0835015 0.27532464
-1.3816509 -1.0871544 0.27845335
-1.3884543 -1.0784518 0.27845335
-1.4108795 -1.0817258 0.28158203
-1.4255241 -1.0787998 0.28314638
-1.4138455 -1.0866472 -0.15600878
-1.4285817 -1.0837632 -0.15688033
-1.4433372 -1.0807368 -0.15775189
-1.4581108 -1.0775675 -0.15862344
-1.4729011 -1.0742549 -0.15949501
-1.4877071 -1.0707988 -0.16036656
-1.5024693 -1.0672808 -0.16123812
-1.5172101 -1.0636699 -0.16210967
-1.5320218 -1.0598332 -0.16298124
-1.5551068 -1.0614183 -0.16472435
-1.570008 -1.0571909 -0.1655959
-1.5849175 -1.0528176 -0.16646747
-1.5998337 -1.0482984 -0.16733903
-1.623122 -1.0490406 -0.16908213
-1.6380817 -1.0441762 -0.16995369
-1.653044 -1.0391653 -0.17082526
-1.6764747 -1.0392559 -0.17256837
-1.6914712 -1.0338973 -0.17343992
-1.7064102 -1.0284842 -0.17431149
-1.7298772 -1.0280708 -0.1760546
-1.7448649 -1.0222737 -0.17692615
-1.7598804 -1.0162719 -0.1777977
-1.7835472 -1.0150492 -0.17954083
-1.8072672 -1.0135686 -0.18128394
-1.8223191 -1.0070115 -0.1821555
-1.846109 -1.0050685 -0.18389861
-1.8699455 -1.0028664 -0.18564174
-1.8850182 -0.99575043 -0.18651329
-1.9177502 -0.99767971 -0.18912795
-1.9417135 -0.99469447 -0.19087107
-1.9568195 -0.98696095 -0.19174263
-1.9808275 -0.98350686 -0.19348575
-2.0048151 -0.97989923 -0.19522886
-2.0288017 -0.97609699 -0.19697197
-2.0529239 -0.97181064 -0.19871509
-2.068104 -0.96291763 -0.19958664
-2.0922594 -0.95813203 -0.20132977
-5.3077488 -0.48257709 -0.4662832
-5.0823669 -0.42990732 -0.44623739
-5.22401 -0.40884602 -0.4584392
-5.3755193 -0.38673899 -0.47151256
-5.5269322 -0.36304113 -0.48458591
-5.6782413 -0.33765909 -0.4976593
-5.7100844 -0.30374879 -0.50027394
-5.7019291 -0.26740029 -0.4994024
-5.7034965 -0.2315674 -0.4994024
-5.6948829 -0.19538681 -0.49853083
-5.6959982 -0.1595996 -0.49853083
-5.6371307 -0.12251044 -0.49330148
-5.7872009 -0.089398608 -0.50637484
-5.8075714 -0.05321908 -0.50811797
-5.8077912 -0.016726617 -0.50811797
-5.7878575 0.019695615 -0.50637484
-5.8274655 0.056448746 -0.50986111
-5.8070745 0.092742793 -0.50811797
-5.7665462 0.12802932 -0.50463176
-5.7656422 0.16375679 -0.50463176
-5.75455 0.19944608 -0.50376016
-5.7531834 0.23559734 -0.50376016
-5.7615404 0.27221251 -0.50463176
-5.7298732 0.30680829 -0.50201708
-5.7079439 0.34161514 -0.50027394
-5.6758642 0.37549794 -0.4976593
-5.6634569 0.41043431 -0.49678773
-5.6607666 0.44600907 -0.49678773
-5.6578526 0.48156622 -0.49678773
-5.6447949 0.5161972 -0.49591616
-5.64147 0.5513491 -0.49591616
-5.6379452 0.58629346 -0.49591616
-5.6341705 0.62152141 -0.49591616
-5.6301546 0.65690804 -0.49591616
-5.6160283 0.69105506 -0.49504462
-5.6115756 0.72632629 -0.49504462
-5.6069012 0.76157182 -0.49504462
-5.6217308 0.79958993 -0.49678773
-5.5968885 0.83196837 -0.49504462
-5.5817065 0.86558998 -0.49417305
-5.5859919 0.90223354 -0.49504462
-5.5802131 0.93731189 -0.49504462
-5.5742135 0.9723562 -0.49504462
-5.5679941 1.0073591 -0.49504462
-5.5517635 1.0404873 -0.49417305
-5.5548964 1.0772444 -0.49504462
-5.548018 1.1121269 -0.49504462
-5.5409212 1.1469625 -0.49504462
-5.5336051 1.1817558 -0.49504462
-5.5260711 1.2164996 -0.49504462
-5.5183182 1.2511982 -0.49504462
-5.5103478 1.2858444 -0.49504462
-5.5021596 1.3204429 -0.49504462
-5.4937549 1.3549863 -0.49504462
-5.4947896 1.3919253 -0.49591616
-5.4859357 1.426421 -0.49591616
-5.4768643 1.4608634 -0.49591616
-5.4771872 1.4978728 -0.49678773
-5.458075 1.5295706 -0.49591616
-5.4675078 1.5693296 -0.4976593
-5.4575391 1.6036533 -0.4976593
-5.4664359 1.6436478 -0.4994024
-5.4560919 1.6776639 -0.4994024
-5.4360886 1.7084513 -0.49853083
-5.4253039 1.7423955 -0.49853083
-5.4237151 1.7795534 -0.4994024
-5.4123278 1.8138919 -0.4994024
-5.4195127 1.8547871 -0.50114554
-5.3982854 1.8856941 -0.50027394
-5.3957148 1.922918 -0.50114554
-5.3929963 1.9598908 -0.50201708
-5.3900905 1.9967291 -0.50288862
-5.3868246 2.0338991 -0.50376016
-5.3832369 2.0712812 -0.50463176
-5.3608413 2.1014297 -0.50376016
-5.3475323 2.1350698 -0.50376016
-5.343359 2.1720872 -0.50463176
-5.3390031 2.208962 -0.5055033
-5.3341508 2.2464454 -0.50637484
-5.3197312 2.2803826 -0.50637484
-5.3234849 2.3219013 -0.50811797
-5.3270035 2.3633823 -0.50986111
-5.3756113 2.4254873 -0.515962
-5.4689198 2.5090628 -0.52642065
-5.4261007 2.5304463 -0.52380598
-5.2932892 2.5085571 -0.51247573
-5.1877527 2.4983687 -0.50376016
-5.7536106 2.8604982 -0.56215453
-5.2019873 2.6271408 -0.50986111
-5.2118239 2.6736982 -0.51247573
-5.2123537 2.7160542 -0.51421887
-5.1950951 2.7489207 -0.51421887
-5.1777215 2.7815068 -0.51421887
-5.1688881 2.8187551 -0.51509041
-5.1510758 2.8511748 -0.51509041
-5.1504297 2.8932431 -0.51683354
-5.1408048 2.930479 -0.51770508
-2.7291973 1.6473306 -0.27889836
-2.6763113 1.6384399 -0.27454057
-2.6236475 1.6289492 -0.27018279
-2.5796394 1.6241715 -0.26669657
-2.5357974 1.6189046 -0.26321033
-2.4837608 1.6077397 -0.25885254
-2.4486246 1.6069161 -0.25623786
-2.3970087 1.5946805 -0.25188008
-2.353905 1.5874294 -0.24839386
-2.3109872 1.5797018 -0.24490763
-2.2764506 1.5771705 -0.24229296
-2.2338841 1.5685447 -0.23880672
-2.1996348 1.5652219 -0.23619206
-2.1574354 1.5557058 -0.23270583
-2.1234879 1.5515982 -0.23009115
-2.0895934 1.5472407 -0.22747648
-2.0637584 1.5485626 -0.22573337
-2.0222991 1.5373394 -0.22224714
-1.9890555 1.5316069 -0.21963246
-1.9558787 1.5256283 -0.2170178
-1.9228059 1.519358 -0.21440312
-1.8898892 1.5127341 -0.21178845
-1.8648715 1.5120302 -0.21004534
-1.8322386 1.5047507 -0.20743066
-1.807431 1.5034913 -0.20568755
-1.7827121 1.5019801 -0.20394443
-1.7505063 1.4937516 -0.20132977
-1.7260116 1.4916934 -0.19958664
-1.7016132 1.489386 -0.19784354
-1.6773117 1.4868323 -0.19610041
-1.6531109 1.4840316 -0.19435731
-1.6216402 1.4742855 -0.19174263
-1.6050166 1.4776975 -0.19087107
-1.5811273 1.4741666 -0.18912795
-1.5573471 1.4703934 -0.18738484
-1.5336765 1.4663811 -0.18564174
-1.5101192 1.462129 -0.18389861
-1.4866757 1.4576402 -0.1821555
-1.4562802 1.4458952 -0.17954083
-1.4471663 1.4550171 -0.17954083
-1.4240348 1.4498664 -0.1777977
-1.4010251 1.4444838 -0.1760546
-1.3850312 1.4460634 -0.17518304
-1.362227 1.4402626 -0.17343992
-1.3395516 1.4342321 -0.17169681
-1.3170055 1.4279749 -0.16995369
-1.3012999 1.4288561 -0.16908213
-1.2857132 1.4295267 -0.16821058
-1.2702154 1.4300176 -0.16733903
-1.2481143 1.4229506 -0.1655959
-1.2326276 1.423234 -0.16472435
-1.2106348 1.4158745 -0.16298124
-1.1951644 1.4159458 -0.16210967
-1.1798979 1.4157484 -0.16123812
-1.1584426 1.4076477 -0.15949501
-1.1432631 1.4071916 -0.15862344
-1.1218104 1.3989031 -0.15688033
-1.1129527 1.4059604 -0.15688033
-1.0979633 1.4050757 -0.15600878
-1.0830286 1.4040589 -0.15513723
-1.0681509 1.4029098 -0.15426566
-1.047345 1.3936661 -0.15252255
-1.0326334 1.3922176 -0.151651
-1.0180572 1.3905845 -0.15077943
-1.0035866 1.3887913 -0.14990787
2.362891 3.9146917 -0.40004486
2.4030452 3.9252567 -0.40265954
2.43817 3.9270072 -0.40440264
2.4734113 3.9284708 -0.40614575
2.5087669 3.9296458 -0.40788886
2.5334079 3.9138052 -0.40788886
2.5634146 3.9061389 -0.40876043
2.5932119 3.898391 -0.409632
2.622885 3.8905091 -0.41050354
2.6527715 3.8822641 -0.41137511
2.6884556 3.8818989 -0.41311821
2.7185163 3.8730843 -0.41398978
2.7543464 3.8721623 -0.41573289
2.7844465 3.8628614 -0.41660443
2.8145382 3.8533347 -0.417476
2.8507564 3.851434 -0.41921911
2.8812113 3.8411646 -0.42009068
2.91747 3.8387532 -0.42183378
2.9476094 3.8282397 -0.42270535
2.9838586 3.8253536 -0.42444846
3.0140114 3.8143466 -0.42532003
3.0565934 3.8186657 -0.42793468
3.0868003 3.8071234 -0.42880625
1.5425624 0.93365705 -0.15775189
1.5655077 0.93415582 -0.15949501
1.5713462 0.92430121 -0.15949501
1.5943589 0.92440349 -0.16123812
1.608785 0.91931027 -0.16210967
1.6232096 0.91407198 -0.16298124
1.6376317 0.90868849 -0.1638528
1.6607908 0.9079383 -0.1655959
1.6840044 0.90693259 -0.16733903
1.7072703 0.90567064 -0.16908213
1.7217075 0.89963275 -0.16995369
4.427989 1.4906135 -0.40876043
4.4372673 1.4627624 -0.40876043
4.4368901 1.431794 -0.40788886
4.4457984 1.4038881 -0.40788886
4.4354954 1.3700467 -0.40614575
4.4154062 1.3335104 -0.40353107
4.4141436 1.3029212 -0.40265954
4.4030986 1.2696406 -0.4009164
4.4014001 1.2392502 -0.40004486
4.3994279 1.2091711 -0.39917329
3.2237239 0.69316679 -0.2884855
3.2182267 0.6710403 -0.28761396
5.3692846 0.33057487 -0.47064102
5.361299 0.29645821 -0.46976945
5.3730059 0.26325402 -0.47064102
5.3546481 0.22863942 -0.46889788
6.4535098 0.15377665 -0.56476921
6.294982 0.11042953 -0.55082428
6.43501 0.07244502 -0.56302607
6.7740402 0.033696242 -0.59265906
6.7641563 -0.0088537233 -0.59178746
7.0428963 -0.053087901 -0.61619109
7.9190011 -0.1087624 -0.69288814
7.9082065 -0.15805812 -0.6920166
7.917016 -0.20800513 -0.69288814
8.373559 -0.27265838 -0.73297977
8.7798128 -0.34112254 -0.76871365
9.2153759 -0.41604984 -0.80706215
9.6602755 -0.49697506 -0.84628224
10.184068 -0.58810109 -0.89247477
10.776666 -0.69028521 -0.94476825
10.857032 -3.1573408 -0.98921764
10.273648 -3.057826 -0.93779576
9.7491446 -2.9685221 -0.89160323
9.2737465 -2.887562 -0.84976846
8.8472328 -2.8158572 -0.8122915
8.4504232 -2.7481546 -0.77742922
8.08319 -2.6850026 -0.74518156
7.7454009 -2.6269479 -0.71554863
7.436914 -2.5745356 -0.68853039
7.1669765 -2.5316253 -0.66499829
6.8885088 -2.4820523 -0.64059472
6.6296592 -2.435955 -0.61793423
6.3997874 -2.3968413 -0.59788841
6.1893611 -2.3618619 -0.57958567
5.9887791 -2.3283062 -0.56215453
5.8073144 -2.2998641 -0.54646647
5.6173348 -2.2652037 -0.52990693
5.4373083 -2.231873 -0.51421887
5.2761807 -2.2043691 -0.50027394
5.1338792 -2.182904 -0.48807216
4.9920607 -2.15974 -0.47587034
4.8507414 -2.134882 -0.46366856
4.7099361 -2.1083357 -0.45146674
4.5877948 -2.088361 -0.44100806
3.6867986 -1.9357668 -0.36431101
3.6044044 -1.9210877 -0.35733855
3.5660412 -1.9293579 -0.35472387
3.5538483 -1.9517257 -0.35472387
3.5589182 -1.983717 -0.35646698
3.5550551 -2.0109432 -0.35733855
3.5509896 -2.0381997 -0.35821009
3.5381134 -2.0604708 -0.35821009
3.5250971 -2.0826607 -0.35821009
3.5204868 -2.1098895 -0.35908166
3.5156732 -2.1371422 -0.35995322
3.5021756 -2.1591895 -0.35995322
3.505553 -2.1915231 -0.36169633
3.5003216 -2.2185338 -0.36256787
3.5031481 -2.2511399 -0.36431101
3.4972813 -2.2785444 -0.36518255
3.4912083 -2.3059638 -0.36605412
3.4849284 -2.3333964 -0.36692566
3.47857 -2.3606517 -0.36779723
3.4720852 -2.387804 -0.36866879
3.4652655 -2.4151554 -0.36954033
3.4581592 -2.4426279 -0.3704119
3.4589446 -2.4759045 -0.37215501
3.4513841 -2.5034373 -0.37302658
3.4436135 -2.5309732 -0.37389812
3.8488839 -3.0184538 -0.42793468
3.861043 -3.0673642 -0.43142092
3.8572159 -3.1040545 -0.43316403
3.8530807 -3.140816 -0.43490714
3.8486342 -3.1776488 -0.43665028
3.8440518 -3.2143393 -0.43839338
3.8468702 -3.2574072 -0.44100806
3.8415582 -3.294359 -0.44275117
3.8433471 -3.3380282 -0.44536585
3.8372581 -3.3752694 -0.44710895
3.8382907 -3.4191921 -0.44972363
3.8243167 -3.4497051 -0.45059517
3.8249364 -3.4934886 -0.45320985
3.8176532 -3.5308559 -0.45495296
3.8026638 -3.5615828 -0.45582452
3.8091223 -3.6128271 -0.45931077
3.7935319 -3.64359 -0.46018231
3.777705 -3.674299 -0.46105388
3.7545443 -3.6979625 -0.46105388
3.7665021 -3.7566545 -0.46541166
1.5630146 -1.578642 -0.19435731
1.5461868 -1.5812241 -0.19348575
1.5155985 -1.5692767 -0.19087107
1.50576 -1.5787195 -0.19087107
1.4958109 -1.5881493 -0.19087107
1.4791051 -1.5901409 -0.18999952
1.4490058 -1.5772663 -0.18738484
1.4324254 -1.5789143 -0.18651329
1.3958882 -1.5582032 -0.18302706
1.3794699 -1.5594814 -0.1821555
1.3565376 -1.5531121 -0.18041238
1.3402463 -1.5540608 -0.17954083
1.3175384 -1.5472817 -0.1777977
1.2949691 -1.5402792 -0.1760546
1.278903 -1.54072 -0.17518304
1.2629669 -1.540951 -0.17431149
1.2408613 -1.5332592 -0.17256837
1.2250351 -1.5332023 -0.17169681
1.2092081 -1.5330474 -0.17082526
1.1873115 -1.5248942 -0.16908213
1.1716363 -1.5244256 -0.16821058
1.1560973 -1.5237575 -0.16733903
1.1406622 -1.5229177 -0.16646747
1.1251985 -1.5220073 -0.1655959
1.10387 -1.5129519 -0.1638528
1.0827001 -1.5036891 -0.16210967
1.0732309 -1.5104622 -0.16210967
1.0580003 -1.5090188 -0.16123812
1.0428305 -1.5074439 -0.16036656
1.0277228 -1.5057381 -0.15949501
1.0071135 -1.4956393 -0.15775189
-1.0068042 -1.1707244 -0.13509139
-1.0141401 -1.1643754 -0.13509139
-1.028026 -1.1654512 -0.13596296
-1.0353285 -1.1589689 -0.13596296
-1.0492733 -1.1598284 -0.13683452
-1.0632061 -1.1606162 -0.13770607
-1.0703766 -1.1540065 -0.13770607
-1.0843889 -1.154555 -0.13857763
-1.0984873 -1.1549371 -0.13944918
-1.1126329 -1.1551875 -0.14032075
-1.1198692 -1.1481738 -0.14032075
-1.1340616 -1.1482025 -0.1411923
-1.1412536 -1.1410544 -0.1411923
-1.1625782 -1.1478595 -0.14293541
-1.1626347 -1.1335777 -0.14206386
-1.1840246 -1.140134 -0.14380698
-1.1910659 -1.132776 -0.14380698
-1.2053843 -1.1321293 -0.14467853
-1.2197778 -1.1313077 -0.14555009
-1.226862 -1.1236213 -0.14555009
-1.2412863 -1.1225725 -0.14642164
-1.2557455 -1.1213866 -0.14729321
-1.2702385 -1.1200631 -0.14816476
-1.2847031 -1.1186715 -0.14903632
-1.2916095 -1.1106902 -0.14903632
-1.3061206 -1.1090431 -0.14990787
-1.3206972 -1.1072147 -0.15077943
-1.3353021 -1.1052467 -0.151651
-1.3499341 -1.1031386 -0.15252255
-1.364592 -1.10089 -0.1533941
-1.3792746 -1.0985006 -0.15426566
-1.3939809 -1.0959699 -0.15513723
-1.4087093 -1.0932975 -0.15600878
-1.4234589 -1.090483 -0.15688033
-1.4461746 -1.0935345 -0.15862344
-1.4013762 -1.0761888 0.34345618
-1.4237561 -1.0792221 0.34727237
-1.4462289 -1.0820162 0.35108855
-1.4529988 -1.0729079 0.35108855
-1.4755777 -1.0753199 0.35490471
-1.482305 -1.0660274 0.35490471
-1.5049202 -1.0681453 0.3587209
-1.5115097 -1.0588002 0.3587209
-1.5423287 -1.0660684 0.36444518
-1.5489966 -1.0563567 0.36444518
-1.5718923 -1.0575625 0.36826137
-1.5866846 -1.0530939 0.37016943
-1.6014827 -1.0484805 0.37207752
-1.6080389 -1.0383974 0.37207752
-1.6310909 -1.0388198 0.37589371
-1.6542109 -1.038993 0.3797099
-1.6690516 -1.0337476 0.38161799
-1.6838915 -1.0283566 0.38352609
-1.7070771 -1.0279852 0.38734224
-1.7218543 -1.0224001 0.38925034
-1.7366881 -1.0165676 0.39115843
-1.768549 -1.0203522 0.39688271
-1.7749251 -1.00922 0.39688271
-1.7983583 -1.0076445 0.40069887
-1.8132477 -1.0010698 0.40260696
-1.8453714 -1.003728 0.40833125
-1.8602941 -0.99674946 0.41023934
-1.8838829 -0.994205 0.41405553
-1.9075125 -0.99140251 0.41787168
-1.9224424 -0.98386991 0.41977978
-1.9548852 -0.9850229 0.42550406
-1.9610357 -0.97272062 0.42550406
-1.9935137 -0.97341931 0.43122831
-2.0172017 -0.96955347 0.4350445
-2.0321589 -0.96099073 0.43695259
-2.0649414 -0.96044487 0.44267687
-2.088814 -0.95556253 0.44649303
-5.3378587 -0.48320198 1.0418171
-5.0864658 -0.42824042 0.99220675
-5.1967092 -0.40465701 1.0131958
-5.3558092 -0.38320482 1.0437251
-5.5050216 -0.3594611 1.0723466
-5.6737289 -0.33518609 1.104784
-5.6953201 -0.30072144 1.1086003
-5.6970973 -0.26492938 1.1086003
-5.7084579 -0.22952431 1.1105083
-5.7097874 -0.19365114 1.1105083
-5.7207036 -0.15804444 1.1124164
-5.6234436 -0.12000147 1.0933355
-5.7320533 -0.086293019 1.1143246
-9.0797024 -0.079634681 1.7649832
-9.3843269 -0.023343306 1.824134
-9.7278557 0.036927011 1.8909171
-10.090615 0.10170593 1.9615164
-5.3366733 2.2500114 1.1257731
-5.3492942 2.2955751 1.1314974
-5.3347011 2.3292866 1.1314974
-5.3020177 2.3547919 1.1276811
-5.2960639 2.3920982 1.1295892
-5.3076906 2.4376187 1.1353135
-5.292419 2.4705999 1.1353135
-5.5874219 2.6506002 1.2020967
-5.9151812 2.8974972 1.2803284
-5.4574513 2.7159305 1.1849239
-5.194984 2.6261671 1.1314974
-5.1782217 2.6590664 1.1314974
-5.1959915 2.7101576 1.1391296
-5.196135 2.7520823 1.1429459
-5.1873856 2.7893264 1.1448539
-5.1783743 2.8265662 1.146762
-5.1605115 2.8590481 1.146762
-5.1510034 2.8962257 1.1486701
-5.1412292 2.9333992 1.1505783
-2.6700211 1.6360303 0.60868067
-2.6180005 1.6268693 0.59914023
-2.5662031 1.6171188 0.58959979
-2.5229042 1.6120696 0.58196741
-2.4797721 1.6065395 0.57433504
-2.4368098 1.6005332 0.56670272
-2.3858521 1.5886096 0.55716228
-2.3432775 1.5816028 0.54952991
-2.3008873 1.5741235 0.54189754
-2.2667508 1.5717694 0.53617328
-2.2247052 1.5634038 0.52854091
-2.1908503 1.5602685 0.52281666
-2.1491647 1.5510244 0.51518428
-2.1235292 1.552909 0.5113681
-2.0899761 1.5488138 0.50564384
-2.0486701 1.5385172 0.49801147
-2.0155768 1.5334612 0.49228719
-1.9827107 1.5279446 0.48656294
-1.9499004 1.5221967 0.48083866
-1.9171985 1.5161517 0.47511441
-1.8846513 1.5097557 0.46939012
-1.8598828 1.5091975 0.46557394
-1.8276136 1.5021541 0.45984969
-1.8030505 1.501047 0.4560335
-1.7710705 1.4933623 0.45030922
-1.739259 1.4853358 0.44458497
-1.722468 1.4898125 0.44267687
-1.6909211 1.4812016 0.43695259
-1.659552 1.4722531 0.43122831
-1.6356643 1.4695309 0.42741215
-1.6118777 1.4665663 0.42359596
-1.5954118 1.4700137 0.42168787
-1.564613 1.4599179 0.41596359
-1.541139 1.4562366 0.41214743
-1.5248668 1.4591042 0.41023934
-1.4945197 1.4481639 0.40451506
-1.4713784 1.4437749 0.40069887
-1.4553143 1.4460727 0.39879081
-1.4323609 1.4412625 0.39497462
-1.409525 1.4362222 0.39115843
-1.3936421 1.4380007 0.38925034
-1.3710046 1.4325455 0.38543415
-1.3552346 1.4339968 0.38352609
-1.3261049 1.4209545 0.37780181
-1.3104988 1.4220396 0.37589371
-1.2949308 1.4229859 0.37398562
-1.272928 1.4164141 0.37016943
-1.2576113 1.4169325 0.36826137
-1.2357825 1.4100075 0.36444518
-1.220475 1.4103218 0.36253709
-1.1987519 1.4031084 0.3587209
-1.1834608 1.4032124 0.3568128
-1.1683854 1.4030389 0.35490471
-1.1409653 1.3875054 0.34918046
-1.1321791 1.394684 0.34918046
-1.1171336 1.3942075 0.34727237
-1.0961338 1.3858314 0.34345618
-1.0813633 1.3849542 0.34154809
-1.0726404 1.391721 0.34154809
-1.0579311 1.3906209 0.33963999
-1.0432788 1.3893906 0.33773193
-1.0169938 1.3722589 0.33200765
-1.0084349 1.3785608 0.33200765
2.4247601 3.9019885 0.89298606
2.4492288 3.8866765 0.89298606
2.4841721 3.8877544 0.89680225
2.5298996 3.9050231 0.90443462
2.5543857 3.8890502 0.90443462
2.5839782 3.8812499 0.90634269
2.6134667 3.8733025 0.90825081
2.643188 3.8649797 0.91015887
2.6786041 3.8644314 0.91397506
2.7084746 3.8555574 0.91588318
2.7440324 3.8544571 0.91969937
2.7681961 3.8371401 0.91969937
2.8038368 3.8355205 0.9235155
2.8397961 3.8334336 0.92733169
2.8641589 3.8152654 0.92733169
2.8762925 3.7814891 0.9235155
2.8760285 3.7322404 0.91588318
2.9537861 3.7837355 0.933056
2.9896796 3.7805009 0.93687212
3.0440598 3.7999477 0.94641262
3.0802457 3.7959914 0.95022881
3.0728707 3.7386456 0.94068831
3.1088617 3.7343528 0.9445045
3.125936 3.7072411 0.94259644
3.1937914 3.7397795 0.95595306
3.2300692 3.7344875 0.95976925
3.2858105 3.7510383 0.96930969
3.3221178 3.7452049 0.97312587
3.3583775 3.7391558 0.97694206
3.3883083 3.7253349 0.97885013
3.4249489 3.7184124 0.98266631
3.4618585 3.7109685 0.9864825
3.4989121 3.7031097 0.99029869
3.5423479 3.7024462 0.99602294
3.5788798 3.6945286 0.99983913
3.61567 3.6860828 1.0036553
3.6525943 3.6772211 1.0074714
3.696511 3.6749613 1.0131958
3.7335379 3.665417 1.0170119
3.7705903 3.6555517 1.0208281
3.8076656 3.6453652 1.0246443
3.8518941 3.6416001 1.0303686
3.8890498 3.6307237 1.0341847
3.9334371 3.6261773 1.039909
3.9706612 3.6146076 1.0437251
4.0151949 3.6092749 1.0494494
4.0598178 3.6035244 1.0551738
4.0971437 3.5908852 1.0589899
4.1418929 3.5843418 1.0647142
4.1792579 3.5710008 1.0685303
4.1941094 3.5383415 1.0666223
4.2238011 3.5182021 1.0685303
4.2609868 3.5040638 1.0723466
4.298161 3.4895966 1.0761627
4.4119167 3.5361924 1.0990598
4.5110278 3.5693119 1.1181407
4.5397663 3.5006289 1.1143246
4.5301261 3.4486501 1.1066922
1.5429764 0.91988969 0.34918046
1.5571886 0.91515052 0.35108855
1.571402 0.91026878 0.35299665
1.5856152 0.90524435 0.35490471
1.5998268 0.90007704 0.3568128
1.6226212 0.89952612 0.36062899
1.6368561 0.89401859 0.36253709
1.6683742 0.89766985 0.36826137
1.682655 0.89176619 0.37016943
1.7055758 0.8903628 0.37398562
1.7197895 0.88426685 0.37589371
1.7340455 0.87792474 0.37780181
4.5079217 2.0384843 0.96167731
4.4937325 1.9981551 0.95595306
4.5151925 1.9738128 0.95786113
4.5184865 1.9415288 0.95595306
4.521553 1.9092816 0.95404494
4.4018192 1.2079953 0.88726181
4.3807726 1.1730819 0.88153756
5.3614264 0.29435354 1.0437251
5.3533654 0.26018453 1.0418171
5.3450871 0.22612844 1.039909
5.3365922 0.1921867 1.0380009
6.0735898 0.18052529 1.1811076
6.0549774 0.14190045 1.1772915
6.0459342 0.10368577 1.1753834
6.1053605 0.06633608 1.186832
6.3117967 0.028918304 1.2269018
6.4885464 -0.01104092 1.2612474
6.7533832 -0.053520832 1.3127658
7.0768266 -0.099936515 1.3757328
7.4097466 -0.15100648 1.4406079
7.7913504 -0.20776516 1.5150234
8.1627073 -0.26900145 1.5875309
8.5728216 -0.33645186 1.6676706
8.9823952 -0.40906587 1.7478104
9.4305906 -0.48887199 1.8355825
9.9467182 -0.57831389 1.9367113
9.5399828 -2.9745698 1.9424355
9.1002312 -2.9003165 1.8565714
8.6898069 -2.8297782 1.7764317
8.308588 -2.7634962 1.7020162
7.9471483 -2.6988533 1.6314169
7.6239629 -2.6426418 1.56845
7.3203182 -2.5890257 1.5092992
7.0545955 -2.5450265 1.4577807
6.7805109 -2.4944055 1.4043542
6.5350718 -2.4503937 1.3566519
6.3088579 -2.4102612 1.3127658
6.1015534 -2.3749089 1.272696
5.904007 -2.3408394 1.2345341
5.7163773 -2.3077166 1.1982805
5.538537 -2.2759314 1.1639348
5.3702378 -2.2461431 1.1314974
5.2024736 -2.2144828 1.0990598
5.0533409 -2.1886079 1.0704385
4.9227104 -2.1688645 1.0456333
4.7835736 -2.143554 1.0189201
4.6538873 -2.1206529 0.99411488
4.5337148 -2.1000638 0.97121775
3.6548939 -1.9498155 0.80521393
3.5649383 -1.9305713 0.78804111
3.5355334 -1.9434749 0.78422499
3.5318248 -1.9704335 0.78613305
3.545001 -2.0070946 0.7918573
3.540832 -2.0342183 0.79376543
3.527981 -2.0564258 0.79376543
3.5234399 -2.0835485 0.79567349
3.5102792 -2.1056457 0.79567349
3.5053658 -2.1327622 0.79758161
3.5002499 -2.1598997 0.79948968
3.4950621 -2.1868474 0.80139774
3.4980242 -2.2189767 0.80521393
3.4923301 -2.2461264 0.80712205
3.486371 -2.2733867 0.80903012
3.480207 -2.3006606 0.81093824
3.4738374 -2.3279464 0.8128463
3.4674032 -2.3550353 0.81475437
3.4689174 -2.3876045 0.81857055
3.453913 -2.4092588 0.81857055
3.4547384 -2.4422455 0.82238674
3.447305 -2.4696207 0.82429487
3.4476075 -2.5027654 0.82811105
3.4397218 -2.530194 0.83001912
3.431627 -2.5576224 0.83192718
3.83413 -3.0484393 0.95213687
3.8378358 -3.0909414 0.95786113
3.8411579 -3.1336095 0.96358544
3.8440955 -3.1764398 0.96930969
3.8393092 -3.2129006 0.97312587
3.841795 -3.2556665 0.97885013
3.8288021 -3.2860291 0.98075819
3.8303061 -3.3293405 0.9864825
3.8314161 -3.3727994 0.99220675
3.8174758 -3.4033387 0.99411488
3.8107951 -3.4401853 0.997931
3.8038981 -3.4769759 1.0017473
3.8036845 -3.5207081 1.0074714
3.7958121 -3.5579638 1.0112877
3.7876213 -3.5952594 1.0151038
3.7791109 -3.632592 1.0189201
3.7632461 -3.6631119 1.0208281
3.7681198 -3.7142487 1.0284605
3.6613381 -3.6546335 1.0055634
1.5504142 -1.586776 0.43122831
1.5269195 -1.582225 0.42741215
1.4899025 -1.5633219 0.41977978
1.4665954 -1.5583556 0.41596359
1.4635519 -1.5746425 0.41787168
1.4471295 -1.5764487 0.41596359
1.4240537 -1.5709251 0.41214743
1.4010612 -1.5652136 0.40833125
1.3781971 -1.5592755 0.40451506
1.3554636 -1.5531126 0.40069887
1.3392704 -1.5541624 0.39879081
1.3167566 -1.547594 0.39497462
1.2943788 -1.5408045 0.39115843
1.2784054 -1.5413513 0.38925034
1.2563493 -1.5340883 0.38543415
1.2406479 -1.53421 0.38352609
1.2187771 -1.5265985 0.3797099
1.2091612 -1.5342261 0.3797099
1.1874423 -1.5262977 0.37589371
1.1658713 -1.5181576 0.37207752
1.1564008 -1.5253837 0.37207752
1.1351638 -1.5168015 0.36826137
1.1198206 -1.5159774 0.36635327
1.1044906 -1.5150512 0.36444518
1.0892168 -1.5139925 0.36253709
1.0740001 -1.5128022 0.36062899
1.0532095 -1.5034409 0.3568128
1.0437423 -1.5100286 0.3568128
1.0231726 -1.500337 0.35299665
1.0082464 -1.4985913 0.35108855
-1.0126607 -1.1617556 0.29957011
-1.0134438 -1.1480108 0.29766202
-1.033722 -1.1562568 0.30147821
-1.0409665 -1.1497389 0.30147821
-1.0481014 -1.1432384 0.30147821
-1.0685211 -1.1511116 0.30529439
-1.0824244 -1.1515572 0.30720249
-1.0896385 -1.1447334 0.30720249
