# .PCD v0.7 - Point Cloud Data file format
VERSION 0.7
FIELDS x y z
SIZE 4 4 4
TYPE F F F
COUNT 1 1 1
WIDTH 1474
HEIGHT 1
VIEWPOINT 0 0 0 1 0 0 0
POINTS 1474
DATA ascii
-2.8581419 1.151284 -0.82563275
-2.8061681 1.1508924 -0.81269181
-2.7632265 1.1536167 -0.80233902
-2.7203629 1.1558472 -0.79198629
-2.6775825 1.157584 -0.7816335
-2.6260471 1.1549406 -0.76869255
-2.5834692 1.1556417 -0.75833976
-2.5409875 1.1558539 -0.74798703
-2.507374 1.1596318 -0.74022245
-2.4650731 1.1589239 -0.72986972
-2.4315963 1.1618966 -0.72210515
-2.3894913 1.1602757 -0.71175236
-2.3561671 1.1624446 -0.70398778
-2.322911 1.1642411 -0.6962232
-2.2897258 1.1656673 -0.68845862
-2.2566154 1.166723 -0.6806941
-2.2235837 1.1674079 -0.67292953
-2.1906335 1.1677244 -0.66516495
-2.1577675 1.1676745 -0.65740037
-2.1334558 1.1719089 -0.652224
-2.1007407 1.1711793 -0.64445943
-2.0681198 1.1700857 -0.63669485
-2.0439734 1.173438 -0.63151848
-2.0115209 1.1716717 -0.62375391
-1.9874874 1.1744597 -0.61857748
-1.9552141 1.1720262 -0.61081296
-1.9313049 1.1742511 -0.60563654
-1.9074457 1.1762222 -0.60046017
-1.8836379 1.1779413 -0.59528381
-1.851727 1.1742352 -0.58751923
-1.8280634 1.1753982 -0.58234286
-1.804561 1.176154 -0.57716644
-1.7811202 1.1766641 -0.57199007
-1.7576406 1.1770818 -0.56681371
-1.742218 1.1826774 -0.56422549
-1.7029221 1.1717002 -0.55387276
-1.6876037 1.1768513 -0.55128455
-1.656512 1.1707066 -0.54351997
-1.6412709 1.175467 -0.54093182
-1.6181157 1.1745502 -0.5357554
-1.5950387 1.1733873 -0.53057903
-1.5798897 1.1776137 -0.52799082
-1.5570434 1.1758745 -0.52281445
-1.534282 1.173895 -0.51763809
-1.5192412 1.1775949 -0.51504987
-1.5042149 1.1811522 -0.51246172
-1.4740859 1.1725407 -0.50469714
-1.4667931 1.1816509 -0.50469714
-1.4444747 1.1785041 -0.49952075
-1.4295954 1.1814039 -0.49693257
-1.4073305 1.177963 -0.49175617
-1.3925338 1.1805356 -0.48916799
-1.3704314 1.1766773 -0.48399159
-1.3556191 1.1790453 -0.48140341
-1.3408329 1.1812717 -0.47881523
-1.3261772 1.1832421 -0.47622705
-1.3115493 1.1850758 -0.47363883
-1.2969511 1.1867727 -0.47105065
-1.282384 1.1883324 -0.46846247
-1.2609087 1.1830364 -0.46328607
-1.2535543 1.1908264 -0.46328607
-1.2321248 1.1852864 -0.45810971
-1.2177345 1.1862643 -0.45552152
-1.2033808 1.1871083 -0.45293331
-1.1890643 1.1878196 -0.45034513
-1.1747866 1.1883981 -0.44775695
-1.1605494 1.1888438 -0.44516876
-1.1463534 1.1891578 -0.44258055
-1.1255387 1.1823452 -0.43740419
-1.1114714 1.1823562 -0.434816
-1.0974493 1.1822369 -0.43222779
-1.0834728 1.1819882 -0.42963961
-1.0695425 1.1816115 -0.42705142
-1.0556599 1.1811068 -0.42446321
-1.0482183 1.187716 -0.42446321
-1.0407352 1.1942785 -0.42446321
-1.0206105 1.1861504 -0.41928685
-1.0131372 1.1925399 -0.41928685
3.219331 -1.31444 -0.93174857
3.1574919 -1.3123976 -0.91621941
3.1047034 -1.3133941 -0.90327847
3.0520291 -1.3137798 -0.89033753
3.0171702 -1.321306 -0.88257295
3.017632 -1.3441675 -0.8851611
3.0268438 -1.3708086 -0.89033753
3.0182924 -1.389536 -0.89033753
3.0182507 -1.4125674 -0.89292568
3.0093157 -1.4315037 -0.89292568
3.0089583 -1.4545873 -0.89551389
3.0084293 -1.477723 -0.89810205
3.0077281 -1.5009092 -0.90069026
3.0154698 -1.5285115 -0.90586662
3.0058064 -1.547428 -0.90586662
3.0131445 -1.5752336 -0.91104305
3.0118587 -1.5984007 -0.9136312
3.0104015 -1.6216117 -0.91621941
3.0086284 -1.6451287 -0.91880757
3.0066781 -1.6686872 -0.92139578
3.0045502 -1.692286 -0.92398399
3.0022442 -1.7159238 -0.92657214
3.0081153 -1.7444448 -0.93174857
3.0054204 -1.7682089 -0.93433672
3.0025456 -1.7920078 -0.93692493
3.0077529 -1.8208425 -0.9421013
3.0044844 -1.8447589 -0.94468951
3.0010338 -1.8687059 -0.94727767
3.0057335 -1.8975767 -0.95245409
3.0101898 -1.9265776 -0.95763046
3.0061285 -1.9507107 -0.96021867
-1.0019083 -1.3357508 0.029145518
-1.0102812 -1.3294294 0.029145518
-1.0247134 -1.3309782 0.029320043
-1.0391977 -1.3324032 0.029494567
-1.0536312 -1.3337845 0.029669091
-1.0681286 -1.3350321 0.029843615
-1.0764958 -1.3282945 0.029843615
-1.0911644 -1.3292326 0.030018138
-1.1058869 -1.3300384 0.030192662
-1.1206626 -1.3307115 0.030367186
-1.1354901 -1.3312511 0.030541711
-1.1503683 -1.3316566 0.030716235
-1.1652962 -1.3319274 0.030890759
-1.1736344 -1.3245859 0.030890759
-1.1884958 -1.3247312 0.031065283
-1.2034111 -1.3247361 0.031239808
-1.2117108 -1.3171488 0.031239808
-1.2335936 -1.3241408 0.031588856
-1.2487503 -1.3236365 0.031763379
-1.2639492 -1.3229938 0.031937905
-1.2861409 -1.329398 0.032286953
-1.3014581 -1.3284401 0.032461476
-1.3167055 -1.3274493 0.032635998
-1.3319973 -1.3263133 0.032810524
-1.3545629 -1.3319384 0.033159573
-1.3629049 -1.3234011 0.033159573
-1.3856264 -1.3286521 0.033508621
-1.4012073 -1.3267944 0.033683144
-1.4168193 -1.324793 0.03385767
-1.4324613 -1.3226476 0.034032192
-1.4481318 -1.3203577 0.034206714
-1.478691 -1.3313026 0.034730289
-1.4870266 -1.3219855 0.034730289
-1.5028102 -1.3192207 0.034904812
-1.5260649 -1.3229827 0.03525386
-1.5418352 -1.3199959 0.035428386
-1.5577344 -1.3167368 0.035602909
-1.5813296 -1.3197364 0.035951957
-1.597307 -1.3161327 0.03612648
-1.6288136 -1.3249992 0.036650054
-1.6526982 -1.3272603 0.036999103
-1.6688399 -1.3230615 0.037173625
-1.6849934 -1.3187124 0.037348147
-1.7090706 -1.3203245 0.037697196
-1.7332338 -1.3216857 0.038046245
-1.7574737 -1.3228046 0.038395293
-1.7816874 -1.3238161 0.038744342
-1.7979251 -1.3186549 0.038918864
-1.8223737 -1.3190572 0.039267913
-1.8468978 -1.3192039 0.039616961
-1.8714951 -1.3190939 0.03996601
-1.8879547 -1.3130177 0.040140536
-1.9209 -1.3181008 0.040664107
-1.945703 -1.3172158 0.041013155
-1.9705702 -1.3160708 0.041362204
-1.9954991 -1.3146647 0.041711252
-2.0204875 -1.312997 0.042060297
-2.0539508 -1.316462 0.042583872
-2.0959878 -1.3249007 0.043281969
-2.1212335 -1.3222953 0.043631017
-2.146421 -1.3195996 0.043980062
-2.1716628 -1.3166306 0.044329111
-2.2056391 -1.318349 0.044852685
-2.2311077 -1.3146161 0.045201734
-2.2566156 -1.3106147 0.045550779
-2.2821608 -1.3063444 0.045899827
-2.3251574 -1.3116293 0.046597924
-2.350831 -1.3067094 0.046946973
-2.3940728 -1.3111236 0.04764507
-2.4286621 -1.3102977 0.048168641
-2.4633343 -1.3090885 0.048692212
-2.4980791 -1.3075086 0.049215786
-2.5327933 -1.3057506 0.049739357
-2.5765028 -1.3081242 0.050437454
-2.6204453 -1.3097908 0.051135551
-7.4479876 2.0645051 0.1349071
-6.8287535 1.9397868 0.12391208
-2.9986892 1.1440388 0.056022223
-2.9448464 1.1447437 0.055149604
-2.8911145 1.1448194 0.054276984
-2.8467731 1.1480036 0.053578887
-2.7932575 1.1468803 0.052706268
-2.7398708 1.1451291 0.051833645
-2.6958184 1.1466681 0.051135551
-2.6518569 1.1476979 0.050437454
-2.6079898 1.1482226 0.049739357
-2.5642228 1.1482406 0.04904126
-2.5296588 1.1518995 0.048517689
-2.4860785 1.1509678 0.047819592
-2.4516573 1.1537936 0.047296021
-2.4082806 1.1519171 0.046597924
-2.3740177 1.1539139 0.046074353
-2.3308616 1.1510977 0.045376256
-2.296772 1.1522701 0.044852685
-2.2627616 1.1530589 0.044329111
-2.2288325 1.1534675 0.04380554
-2.194989 1.1534947 0.043281969
-2.1612337 1.1531439 0.042758394
-2.1275711 1.1524137 0.042234823
-2.1027648 1.1561251 0.041885775
-2.0779974 1.1595694 0.041536726
-2.0445702 1.1578217 0.041013155
-2.019917 1.1606816 0.040664107
-1.9780332 1.1532073 0.03996601
-1.953537 1.1554323 0.039616961
-1.9290909 1.1573964 0.039267913
-1.9046985 1.1590984 0.038918864
-1.880361 1.1605409 0.038569819
-1.8560817 1.1617228 0.038220771
-1.8234203 1.1572889 0.037697196
-1.7993034 1.1578913 0.037348147
-1.7837203 1.163555 0.037173625
-1.7597898 1.1635652 0.036824577
-1.735833 1.163466 0.036475528
-1.7119483 1.1631113 0.03612648
-1.6881366 1.1625037 0.035777431
-1.6562023 1.15592 0.03525386
-1.6407442 1.1605291 0.035079338
-1.6171606 1.1591744 0.034730289
-1.6016544 1.163576 0.034555763
-1.5781127 1.1618907 0.034206714
-1.5627667 1.1658053 0.034032192
-1.5394583 1.1635435 0.033683144
-1.5241785 1.1671149 0.033508621
-1.5010154 1.1644112 0.033159573
-1.4858078 1.1676416 0.032985047
-1.4628036 1.1644914 0.032635998
-1.4477766 1.1672572 0.032461476
-1.4250214 1.1635648 0.032112427
-1.4099773 1.1661235 0.031937905
-1.3949583 1.1685387 0.031763379
-1.3799641 1.1708121 0.031588856
-1.3649906 1.1729509 0.03141433
-1.3424077 1.1684933 0.031065283
-1.3349432 1.1770139 0.031065283
-1.3126051 1.1720598 0.030716235
-1.2977993 1.1735774 0.030541711
-1.283026 1.1749563 0.030367186
-1.2682936 1.1761886 0.030192662
-1.2536926 1.1771804 0.030018138
-1.2391226 1.1780427 0.029843615
-1.2172903 1.1719363 0.029494567
-1.2027439 1.1725816 0.029320043
-1.1953523 1.1801157 0.029320043
-1.1737723 1.1734645 0.028970994
-1.1663758 1.1808168 0.028970994
-1.1519523 1.1809642 0.02879647
-1.1375726 1.1809781 0.028621946
-1.1163481 1.173613 0.028272899
-1.1089518 1.1806042 0.028272899
-1.1015123 1.1875484 0.028272899
-1.0805222 1.1797 0.02792385
-1.0663822 1.1790501 0.027749326
-1.0522926 1.1782699 0.027574802
-1.0382558 1.177359 0.027400278
-1.0308374 1.1838596 0.027400278
-1.0103424 1.1751496 0.027051229
-1.0029384 1.1814748 0.027051229
1.1585853 1.2023854 0.029145518
1.1590372 1.1880207 0.028970994
3.3169947 2.8132336 0.075917967
3.2964869 2.7599895 0.075045347
3.3212302 2.745883 0.07521987
3.3227038 2.7125878 0.074870825
3.3396819 2.6916573 0.074870825
3.3408799 2.65817 0.074521773
3.3260636 2.6124225 0.073823676
3.318707 2.5730939 0.073300108
3.3268685 2.5461144 0.073125578
3.3188663 2.507081 0.072602011
3.3265374 2.4802022 0.072427489
3.3340023 2.4533262 0.072252959
3.3250804 2.4147041 0.071729392
3.3239324 2.3821161 0.07138034
3.3225074 2.3496382 0.071031295
3.3208058 2.3172727 0.070682243
3.3270648 2.2906919 0.07050772
3.3248503 2.2585058 0.070158675
3.3306694 2.2320046 0.069984145
3.3196054 2.1944921 0.069460578
3.3249528 2.1681299 0.069286056
3.3301005 2.1417875 0.069111526
3.3266058 2.1101105 0.068762481
3.322845 2.0785623 0.068413429
3.3273294 2.0523942 0.068238907
3.2173727 1.158167 0.059687231
3.224586 1.1379288 0.059687231
5.8604298 1.2347193 0.10453992
5.8288865 1.1898738 0.10384182
5.8264389 1.1512883 0.10366729
5.8728409 1.1221633 0.10436539
5.8601103 1.0816123 0.10401634
6.159018 1.0569299 0.10907754
7.0336447 1.1615752 0.12443566
7.0210543 1.1142246 0.12408661
7.0476856 1.0730983 0.12443566
7.4599357 1.0879548 0.13159114
7.8231206 1.0907671 0.13787401
8.2064438 1.0916936 0.14450592
8.5702343 1.0853319 0.15078878
8.9838896 1.080409 0.15794428
9.4574108 1.0771177 0.1661469
9.9809322 1.0732626 0.17522216
10.564445 1.0689069 0.18534455
11.277667 1.0695919 0.19773576
12.090795 1.0711656 0.21187221
13.013962 1.0716587 0.22792843
15.941563 1.2119452 0.27906397
15.928914 1.1103673 0.27871493
15.825813 1.0033031 0.27679515
15.821822 0.90327728 0.27662063
15.837172 0.80435568 0.27679515
15.925958 0.60833442 0.27819136
15.929466 0.50825715 0.27819136
15.882369 0.40687951 0.27731875
15.83624 0.20661637 0.2764461
15.92721 0.10772146 0.27801684
15.937571 0.0076510157 0.27819136
15.937304 -0.092400342 0.27819136
15.926428 -0.1910252 0.27801684
15.914941 -0.28960359 0.27784231
15.902811 -0.38934919 0.27766779
15.910045 -0.48956886 0.27784231
15.906654 -0.58952445 0.27784231
15.902637 -0.68945676 0.27784231
15.917963 -0.79035354 0.27819136
15.9027 -0.88979441 0.27801684
15.906775 -0.99031723 0.27819136
15.910219 -1.0908395 0.27836588
15.903155 -1.1893973 0.27836588
15.905439 -1.2888017 0.2785404
15.906988 -1.3895826 0.27871493
15.897943 -1.4895012 0.27871493
13.530399 -1.3534948 0.23735273
12.756065 -1.3570381 0.22391437
12.041864 -1.3576287 0.21152316
11.397686 -1.3575774 0.20035362
10.78377 -1.3532242 0.18970765
10.259604 -1.3529218 0.1806324
9.7855186 -1.3521411 0.17242977
9.3514309 -1.3513097 0.16492523
8.9275227 -1.347371 0.15759523
8.5435562 -1.344378 0.15096331
8.2191973 -1.3463129 0.14537854
7.9050202 -1.3459051 0.13996829
7.610877 -1.3450845 0.1349071
7.3170671 -1.3406228 0.1298459
7.0629182 -1.3399788 0.1254828
6.8188868 -1.3381213 0.12129422
6.5947657 -1.3372258 0.11745469
6.3807192 -1.3356171 0.11378969
6.1865087 -1.3355929 0.11047373
5.9925575 -1.3331816 0.10715777
5.828126 -1.3350861 0.10436539
5.6541891 -1.3326536 0.10139848
5.5097795 -1.3347055 0.09895514
5.3849649 -1.339877 0.096860856
5.2311306 -1.3365586 0.09424299
5.0872283 -1.3338972 0.091799654
4.9532266 -1.3320783 0.089530841
4.8387384 -1.3339176 0.087611079
3.193995 -1.329041 0.060385324
3.1395469 -1.3295877 0.059512705
3.0852199 -1.3295035 0.058640085
3.0310197 -1.3287898 0.057767466
3.0226183 -1.3477914 0.057767466
3.0233157 -1.3706219 0.057941988
3.0329192 -1.3977134 0.058291037
3.0331314 -1.4209839 0.058465559
3.0241432 -1.4400135 0.058465559
3.0150359 -1.4589863 0.058465559
3.0058093 -1.4779013 0.058465559
3.0143533 -1.505694 0.058814608
3.0048335 -1.5246036 0.058814608
3.0040827 -1.5480332 0.058989134
3.0120232 -1.5761329 0.059338182
3.0110297 -1.5994554 0.059512705
3.0098541 -1.622842 0.059687231
3.0083687 -1.6465217 0.059861753
3.0067046 -1.6702466 0.060036276
3.0048604 -1.6940154 0.060210802
3.0028362 -1.7178268 0.060385324
3.0092781 -1.7466986 0.060734373
3.0068595 -1.7706454 0.060908899
3.0128422 -1.7997581 0.061257947
3.0100257 -1.8238341 0.06143247
3.0070255 -1.8479455 0.061606992
3.0123363 -1.877363 0.061956041
3.009099 -1.901332 0.062130567
3.0056696 -1.9253488 0.062305089
3.0018983 -1.9496418 0.062479615
3.4984615 -2.4644651 0.074696295
3.5154583 -2.5096352 0.075394392
3.5158224 -2.5433946 0.075743444
3.5320425 -2.5890601 0.076441541
3.5319877 -2.6228166 0.076790586
3.5396252 -2.6627009 0.077314161
3.5387297 -2.6970096 0.077663206
3.529628 -2.7253013 0.077837728
3.536061 -2.7659051 0.078361303
3.5342858 -2.8004873 0.078710355
3.5400124 -2.8414142 0.079233922
3.5453632 -2.8825231 0.079757497
3.542618 -2.9174545 0.080106542
3.5319118 -2.9460404 0.080281071
3.5288665 -2.9807715 0.080630116
3.5255098 -3.0155964 0.080979161
3.5367212 -3.0638752 0.081677258
3.5324323 -3.0992248 0.08202631
3.5427866 -3.147923 0.082724407
3.5378025 -3.183497 0.083073452
3.5325115 -3.2191308 0.083422504
3.5416064 -3.2683861 0.084120594
3.5283058 -3.297401 0.084295124
3.5365658 -3.3469956 0.084993221
3.537122 -3.3899047 0.085516788
3.5444722 -3.4398959 0.086214885
3.5302222 -3.4687994 0.086389408
3.5299072 -3.5117803 0.086912982
3.4936852 -3.5196974 0.086563937
3.5344923 -3.6058419 0.088134654
3.5326285 -3.6495309 0.088658221
3.5303543 -3.6933379 0.089181796
3.5276682 -3.7372596 0.08970537
3.5314076 -3.7885866 0.090403467
3.5178001 -3.8690634 0.091276087
3.5201392 -3.9208496 0.091974184
3.5418632 -3.9952621 0.093195848
3.3520515 -3.829355 0.088832751
3.5178535 -4.1221547 0.094592042
3.5176542 -4.1747608 0.095290139
3.5233264 -4.2352123 0.096162759
3.5220542 -4.2881527 0.096860856
3.5080142 -4.3254232 0.097209901
3.5186217 -4.3939214 0.09825705
3.5095463 -4.4394736 0.098780617
3.5000367 -4.4850841 0.099304192
3.5083966 -4.5545125 0.10035133
3.5039432 -4.608283 0.10104943
-1.0061373 -1.3402926 -0.3869158
-1.0204371 -1.3416998 -0.38916531
-1.0347942 -1.34298 -0.39141482
-1.0491923 -1.3441442 -0.39366433
-1.0635434 -1.3452611 -0.39591384
-1.0718726 -1.3386341 -0.39591384
-1.0864002 -1.3394403 -0.39816335
-1.1009799 -1.3401167 -0.40041286
-1.1156108 -1.3406624 -0.40266237
-1.1302918 -1.3410767 -0.40491191
-1.1450218 -1.3413593 -0.40716141
-1.1597997 -1.3415095 -0.40941092
-1.1682056 -1.3341957 -0.40941092
-1.1894802 -1.3414229 -0.41390994
-1.2042782 -1.3412775 -0.41615945
-1.21258 -1.3337771 -0.41615945
-1.227536 -1.3333002 -0.41840896
-1.2425337 -1.3326877 -0.42065847
-1.2575718 -1.3319392 -0.42290798
-1.2726494 -1.331054 -0.42515749
-1.2877651 -1.3300316 -0.427407
-1.309725 -1.3358433 -0.43190601
-1.3248414 -1.3346176 -0.43415552
-1.3400067 -1.3332415 -0.43640503
-1.3553075 -1.3316245 -0.43865454
-1.3776337 -1.3366526 -0.44315356
-1.3930404 -1.3347113 -0.44540307
-1.4084766 -1.3326293 -0.44765258
-1.4239416 -1.3304054 -0.44990209
-1.4465953 -1.3346466 -0.45440114
-1.4621553 -1.3320931 -0.45665064
-1.47774 -1.3293965 -0.45890015
-1.5006329 -1.3330274 -0.46339917
-1.5162896 -1.330014 -0.46564868
-1.5392308 -1.3333528 -0.4701477
-1.5548811 -1.3301075 -0.47239721
-1.5780953 -1.332886 -0.47689623
-1.5939221 -1.3291845 -0.47914574
-1.6097643 -1.3253367 -0.48139524
-1.6331819 -1.3274876 -0.48589426
-1.6566895 -1.3293962 -0.49039328
-1.6726472 -1.325011 -0.49264279
-1.6962906 -1.3264797 -0.49714181
-1.7200173 -1.3277036 -0.50164086
-1.7438263 -1.3286808 -0.50613987
-1.759913 -1.3235734 -0.50838935
-1.7837269 -1.3242598 -0.51288837
-1.8154896 -1.3304416 -0.51963693
-1.8317084 -1.3247184 -0.52188641
-1.8558577 -1.3245038 -0.52638549
-1.8800761 -1.3240377 -0.5308845
-1.9043611 -1.3233191 -0.53538352
-1.936747 -1.3278569 -0.54213202
-1.9611934 -1.3265802 -0.54663104
-1.9856995 -1.3250482 -0.55113006
-2.0102632 -1.3232603 -0.55562907
-2.0430546 -1.3265216 -0.56237763
-2.0595543 -1.3189132 -0.56462711
-2.0842772 -1.3163526 -0.56912613
-2.1173043 -1.3187078 -0.57587469
-2.150342 -1.3208631 -0.58262324
-2.1751668 -1.3175876 -0.58712226
-2.208499 -1.318882 -0.59387076
-2.2335358 -1.3148658 -0.59836978
-2.2754636 -1.3203672 -0.60736781
-2.3006313 -1.3157184 -0.61186683
-2.3343179 -1.3155891 -0.61861539
-2.3680928 -1.3150879 -0.62536395
-2.4105005 -1.3188905 -0.63436198
-2.435894 -1.3129652 -0.638861
-2.4785192 -1.3159107 -0.64785904
-2.5126276 -1.3138841 -0.65460753
-2.5553691 -1.3161371 -0.66360557
-2.5982478 -1.3178818 -0.67260367
-2.6326289 -1.3145894 -0.67935216
-2.6758149 -1.3152146 -0.6883502
-3.0037608 1.1473247 -0.74233848
-2.9510911 1.1485066 -0.7310909
-2.8985274 1.1490711 -0.71984339
-2.8551095 1.1526704 -0.71084529
-2.8027506 1.152064 -0.69959778
-2.7505136 1.1508474 -0.6883502
-2.7073693 1.1528366 -0.67935216
-2.655369 1.1504574 -0.66810465
-2.62134 1.155329 -0.66135609
-2.5784638 1.1558346 -0.65235806
-2.5445528 1.1598877 -0.6456095
-2.5018525 1.1594651 -0.63661146
-2.4592602 1.158551 -0.62761343
-2.4255672 1.1613573 -0.62086493
-2.3831758 1.1595221 -0.61186683
-2.3496389 1.16152 -0.60511833
-2.3161726 1.1631414 -0.59836978
-2.282779 1.16439 -0.59162128
-2.2494628 1.165264 -0.58487272
-2.2162263 1.1657672 -0.57812423
-2.183074 1.1658981 -0.57137567
-2.1500077 1.16566 -0.56462711
-2.1170323 1.1650518 -0.55787861
-2.0841503 1.164076 -0.55113006
-2.0598421 1.167538 -0.54663104
-2.0271261 1.1658844 -0.53988254
-2.0029297 1.1687759 -0.53538352
-1.9703923 1.1664473 -0.52863497
-1.9463181 1.1687716 -0.52413595
-1.9222926 1.170841 -0.51963693
-1.8900297 1.167533 -0.51288837
-1.8661417 1.1690404 -0.50838935
-1.8423107 1.1702931 -0.50389034
-1.8185507 1.1712735 -0.49939135
-1.8030998 1.1771921 -0.49714181
-1.7632555 1.166853 -0.48814377
-1.7477978 1.1724801 -0.48589426
-1.7242813 1.1724813 -0.48139524
-1.7008351 1.1722329 -0.47689623
-1.6854486 1.1773162 -0.47464672
-1.6621131 1.1766229 -0.4701477
-1.6467572 1.1813813 -0.46789819
-1.6155553 1.1746583 -0.46114966
-1.600208 1.1791288 -0.45890015
-1.5771527 1.1775011 -0.45440114
-1.5541811 1.1756314 -0.44990209
-1.5390302 1.1794461 -0.44765258
-1.5238925 1.1831179 -0.44540307
-1.5011115 1.1806217 -0.44090405
-1.4784353 1.1778709 -0.43640503
-1.4635257 1.1808901 -0.43415552
-1.4486232 1.1837856 -0.43190601
-1.4261448 1.180438 -0.427407
-1.4037659 1.176856 -0.42290798
-1.3889167 1.1793458 -0.42065847
-1.3740789 1.1817112 -0.41840896
-1.3665226 1.1904411 -0.41840896
-1.3443121 1.186214 -0.41390994
-1.3295673 1.1881441 -0.41166043
-1.3076266 1.1833987 -0.40716141
-1.3001655 1.191591 -0.40716141
-1.2783824 1.1864659 -0.40266237
-1.2639059 1.1876917 -0.40041286
-1.2494508 1.1887971 -0.39816335
-1.2349404 1.1898632 -0.39591384
-1.2204655 1.1907948 -0.39366433
-1.2060286 1.1915911 -0.39141482
-1.1916295 1.1922539 -0.38916531
-1.1841152 1.1997173 -0.38916531
-1.1629517 1.1931787 -0.38466629
-1.1486752 1.1934415 -0.38241678
-1.134441 1.193573 -0.38016728
-1.1269195 1.200677 -0.38016728
-1.1061062 1.1934415 -0.37566826
-1.0920076 1.1931796 -0.37341875
-1.0779558 1.1927886 -0.37116924
-1.0639528 1.1922679 -0.36891973
-1.0499986 1.191619 -0.36667022
-1.0360954 1.1908417 -0.36442071
-1.0285923 1.1973283 -0.36442071
-1.0084438 1.188906 -0.35992169
3.3277793 2.7491283 -0.99653316
3.3296776 2.7161028 -0.99203414
3.3314998 2.6829057 -0.98753512
3.3330371 2.6497931 -0.9830361
3.3189602 2.6047366 -0.97403806
3.327558 2.5778644 -0.97178853
3.3282094 2.5450685 -0.96728951
3.3208036 2.5064964 -0.96054101
3.3286729 2.4797609 -0.95829147
3.3284874 2.4472539 -0.95379245
3.3280256 2.4148474 -0.94929343
3.3272884 2.382544 -0.94479442
3.3262773 2.3503454 -0.9402954
3.3329864 2.3238268 -0.93804586
3.3314664 2.2917945 -0.93354684
3.3216138 2.2544017 -0.92679834
3.3195202 2.2226448 -0.92229933
3.3334198 2.2017438 -0.92229933
3.3226964 2.1647992 -0.91555077
3.3280354 2.138612 -0.91330129
3.3249469 2.1072273 -0.90880227
3.3298583 2.0811307 -0.90655273
3.3345737 2.0550556 -0.90430325
3.210361 -1.3137201 -0.80082572
3.1570709 -1.3151313 -0.7895782
3.1038914 -1.3159255 -0.77833062
3.0508285 -1.3161039 -0.76708311
3.015732 -1.3234998 -0.76033455
3.0251665 -1.3503323 -0.76483357
3.0344875 -1.3771033 -0.76933259
3.0258818 -1.395911 -0.76933259
3.0170512 -1.4148955 -0.76933259
3.0168972 -1.4380167 -0.77158213
3.0078025 -1.456944 -0.77158213
3.0160732 -1.484419 -0.77608114
3.0154021 -1.5076977 -0.77833062
3.0145571 -1.5310259 -0.78058016
3.0135374 -1.5544033 -0.78282964
3.0123601 -1.5777953 -0.78507918
3.0111296 -1.6010036 -0.78732866
3.0097091 -1.6242896 -0.7895782
3.0079896 -1.6478494 -0.79182768
3.0060923 -1.6714516 -0.79407722
3.0125029 -1.6998831 -0.79857624
3.0102184 -1.7236192 -0.80082572
3.0077543 -1.7473935 -0.80307525
3.00511 -1.7712047 -0.80532473
3.0106478 -1.8000516 -0.80982381
3.0076096 -1.8239851 -0.81207329
3.0043893 -1.8479512 -0.81432283
3.0092738 -1.8770726 -0.81882185
3.0140562 -1.9060977 -0.82332087
3.0021675 -1.9247684 -0.82332087
3.0145228 -1.9595246 -0.83006936
-1.0017351 -1.3333372 0.087401047
-1.0100929 -1.3270167 0.087401047
-1.0245087 -1.3285524 0.087924406
-1.0389619 -1.3299757 0.088447765
-1.0533788 -1.3313441 0.088971123
-1.0616293 -1.3247745 0.088971123
-1.0825195 -1.3335848 0.09001784
-1.0908773 -1.3267568 0.09001784
-1.1055826 -1.3275502 0.090541206
-1.1203407 -1.3282108 0.091064565
-1.1351506 -1.3287381 0.091587923
-1.1434768 -1.3215796 0.091587923
-1.1583394 -1.3218795 0.092111282
-1.1732287 -1.3220639 0.092634641
-1.1947466 -1.3296256 0.093681358
-1.2029836 -1.3221778 0.093681358
-1.2180341 -1.3219373 0.094204716
-1.233129 -1.3215595 0.094728082
-1.2482668 -1.321044 0.095251441
-1.2634466 -1.3203901 0.0957748
-1.2786671 -1.3195974 0.096298158
-1.3008996 -1.3258145 0.097344875
-1.3090895 -1.3177286 0.097344875
-1.3243324 -1.3166114 0.097868234
-1.3468308 -1.3222566 0.098914959
-1.3622822 -1.3207192 0.099438317
-1.3777666 -1.3190401 0.099961676
-1.3932838 -1.3172178 0.10048503
-1.416132 -1.3220673 0.10153175
-1.4244107 -1.3131434 0.10153175
-1.4474027 -1.3176126 0.10257848
-1.4630797 -1.3151684 0.10310183
-1.4787828 -1.3125788 0.10362519
-1.5019993 -1.3164506 0.10467191
-1.5252285 -1.32019 0.10571863
-1.5409915 -1.3171779 0.10624199
-1.5645007 -1.320351 0.10728871
-1.5804378 -1.3168876 0.10781207
-1.6118169 -1.3259645 0.10938215
-1.6356198 -1.3284025 0.11042886
-1.6517253 -1.3243464 0.11095223
-1.6678439 -1.32014 0.11147559
-1.6918434 -1.3219321 0.1125223
-1.7159309 -1.3234738 0.11356902
-1.7321583 -1.3187155 0.11409238
-1.7563552 -1.3198332 0.1151391
-1.7805401 -1.3208246 0.11618582
-1.7967684 -1.3156376 0.11670918
-1.8292818 -1.3218693 0.11827926
-1.8538127 -1.3219454 0.11932598
-1.8784162 -1.3217652 0.1203727
-1.8948869 -1.3156321 0.12089606
-1.919593 -1.3149878 0.12194277
-1.9443651 -1.3140844 0.1229895
-1.97751 -1.3184609 0.12455957
-2.0024421 -1.3169848 0.1256063
-2.0274329 -1.3152469 0.12665302
-2.0524805 -1.3132466 0.12769973
-2.0944726 -1.321642 0.12979317
-2.1111925 -1.313767 0.13031653
-2.1363146 -1.3111076 0.13136324
-2.170049 -1.3133225 0.13293333
-2.1954095 -1.3098955 0.13398005
-2.2294199 -1.3112639 0.13555013
-2.2635331 -1.3122561 0.1371202
-2.2977457 -1.3128707 0.13869028
-2.3320544 -1.3131067 0.14026035
-2.3664558 -1.3129628 0.14183044
-2.3921838 -1.3076478 0.14287716
-2.4355228 -1.3115306 0.1449706
-2.4701815 -1.3102403 0.14654067
-2.4960461 -1.3039829 0.14758739
-2.548476 -1.3113384 0.1502042
-2.592205 -1.3135368 0.15229763
-2.6272154 -1.3105971 0.15386771
-2.6622899 -1.3072687 0.15543778
-5.4192319 -1.3805895 0.29308134
-5.418107 -1.3441079 0.29255798
-5.4361525 -1.3123835 0.29308134
-5.4442911 -1.2782 0.29308134
-5.9487557 -1.3572589 0.31977269
-5.8304181 -1.2917717 0.312969
-6.0434475 -1.2991902 0.32395956
-6.2372184 -1.3000058 0.3339034
-6.3821945 -1.2890128 0.34123042
-6.3999004 -1.2511519 0.34175378
-6.4077406 -1.2103577 0.34175378
-6.4152827 -1.1697227 0.34175378
-6.3929014 -1.1247594 0.34018371
-6.3308449 -1.0733399 0.3365202
-6.4458804 -1.0512239 0.34227714
-6.3730555 1.6006169 0.34437057
-7.2233419 1.863166 0.39094958
-6.9314284 1.8348007 0.37577215
-6.3994865 1.7364924 0.34751076
-6.3885469 1.7763183 0.34751076
-6.3674974 1.8142424 0.3469874
-2.9403594 1.1456593 0.16538163
-2.8866935 1.1456913 0.16276482
-2.8331444 1.1450962 0.16014802
-2.7889543 1.147673 0.15805459
-2.7356334 1.1458836 0.15543778
-2.6916342 1.1473846 0.15334435
-2.6385632 1.1444064 0.15072756
-2.6130478 1.1528995 0.14968084
-2.5601969 1.1488533 0.14706403
-2.5256727 1.1524793 0.14549395
-2.4821458 1.151516 0.14340052
-2.4387326 1.1500504 0.14130709
-2.4044418 1.152403 0.139737
-2.3612416 1.1499966 0.13764356
-2.3271177 1.1515238 0.13607349
-2.2930696 1.1526668 0.13450341
-2.2590992 1.1534293 0.13293333
-2.2340772 1.1584064 0.1318866
-2.1914089 1.1538113 0.12979317
-2.1576955 1.1534333 0.12822309
-2.1328511 1.157442 0.12717637
-2.0992959 1.156365 0.1256063
-2.0658386 1.1549138 0.12403622
-2.0411699 1.158015 0.1229895
-2.00789 1.15587 0.12141941
-1.9833417 1.1583896 0.1203727
-1.9502497 1.1555572 0.11880262
-1.9258324 1.1574987 0.1177559
-1.9014678 1.1591804 0.11670918
-1.8686655 1.1553495 0.1151391
-1.8529083 1.1617634 0.11461575
-1.8287179 1.1626663 0.11356902
-1.8046086 1.1632826 0.1125223
-1.7806466 1.1635168 0.11147559
-1.7484064 1.1580137 0.1099055
-1.7162235 1.1522762 0.10833543
-1.7089493 1.1630372 0.10833543
-1.6851678 1.1624107 0.10728871
-1.6532769 1.155811 0.10571863
-1.6378341 1.1604023 0.10519527
-1.6142679 1.159048 0.10414855
-1.5907025 1.1575558 0.10310183
-1.5752778 1.1617131 0.10257848
-1.5519483 1.1596326 0.10153175
-1.5366693 1.1633335 0.10100839
-1.5134819 1.1608102 0.099961676
-1.4982724 1.1641699 0.099438317
-1.4752345 1.1612072 0.098391593
-1.4601203 1.1642039 0.097868234
-1.4451094 1.1669545 0.097344875
-1.4223717 1.163265 0.096298158
-1.4073446 1.1658081 0.0957748
-1.3999915 1.174628 0.0957748
-1.3773644 1.1704674 0.094728082
-1.3548255 1.1660925 0.093681358
-1.3473697 1.1746994 0.093681358
-1.3249074 1.1700168 0.092634641
-1.3100865 1.1716608 0.092111282
-1.2952969 1.1731656 0.091587923
-1.2731816 1.1677803 0.090541206
-1.2585212 1.1689402 0.09001784
-1.2512542 1.1767156 0.09001784
-1.2366883 1.1775793 0.089494482
-1.2292652 1.185326 0.089494482
-1.200358 1.1720964 0.087924406
-1.1858692 1.1725934 0.087401047
-1.1714212 1.1729555 0.086877689
-1.1570163 1.1731821 0.086354323
-1.1426544 1.1732749 0.085830964
-1.128338 1.1732332 0.085307606
-1.1140668 1.1730587 0.084784247
-1.0998434 1.1727509 0.084260888
-1.0856673 1.1723117 0.08373753
-1.0715411 1.1717402 0.083214171
-1.0641575 1.17845 0.083214171
-1.0434401 1.1702056 0.082167447
-1.0360667 1.1767389 0.082167447
-1.0221009 1.1756887 0.081644088
-1.0146934 1.1820878 0.081644088
-1.0007898 1.1808214 0.081120729
1.0244817 4.1906705 0.22609133
3.1894228 4.211298 0.2768572
3.2222657 4.1988168 0.27738056
3.2794609 4.2177291 0.27999735
3.3240662 4.2208652 0.28156745
3.33161 4.1766586 0.27999735
3.320488 4.108748 0.2768572
3.3212237 4.0566587 0.27476376
3.3211482 4.0049624 0.27267033
3.3205554 3.9534287 0.27057689
3.3194473 3.9020617 0.26848346
3.3242807 3.8584859 0.26691338
3.3218639 3.8077147 0.26481992
3.3190081 3.7570682 0.26272649
3.3143828 2.6669757 0.22295117
3.3154356 2.6336753 0.22190446
3.3319178 2.6127923 0.22190446
3.3403716 2.5856929 0.2213811
3.3486168 2.5585907 0.22085772
3.3407078 2.5194612 0.21928765
3.3324399 2.4805329 0.21771757
3.3238158 2.4418087 0.2161475
3.3310072 2.415015 0.21562414
3.3298721 2.3824165 0.21457742
3.3203015 2.3441684 0.21300733
3.3267708 2.3175519 0.21248397
3.3248072 2.2852902 0.21143726
3.3308353 2.25875 0.2109139
3.3283613 2.2266719 0.20986718
3.3256161 2.1947143 0.20882046
3.330971 2.1683276 0.2082971
3.3361259 2.1419604 0.20777375
3.3326442 2.1102717 0.20672703
3.3288965 2.078712 0.20568031
3.3248844 2.0472832 0.20463358
3.3553457 1.4989867 0.19259632
3.3555548 1.473859 0.19207296
3.3464124 1.4448296 0.19102624
5.8716469 1.1937999 0.31401575
5.8790317 1.1568838 0.31401575
5.8861847 1.119922 0.31401575
5.8832831 1.0811121 0.31349236
6.1161184 1.0842168 0.32552963
6.2114038 1.0608985 0.33023989
7.0555468 1.1595006 0.37472543
7.0528288 1.1135892 0.37420207
7.0596862 1.0692532 0.37420207
7.4912295 1.0865108 0.39670655
7.8639011 1.0901577 0.41607085
8.2369003 1.0891625 0.43543515
8.5903664 1.0810273 0.45375273
9.0233679 1.0779684 0.47625721
9.4764996 1.0717533 0.49980837
10.00933 1.068365 0.52754641
10.621963 1.0662997 0.55947137
11.34429 1.0670466 0.59715325
12.166421 1.06837 0.64006871
13.078568 1.0666385 0.68769443
15.923086 1.1979635 0.83685195
15.920336 1.097206 0.83632857
15.827248 0.9909144 0.83109498
15.863072 0.89313394 0.83266503
15.828476 0.79145133 0.83057159
15.926986 0.59584725 0.83528185
15.920434 0.49545315 0.83475846
15.913249 0.39516494 0.83423513
15.93693 0.19541176 0.83528185
15.927856 0.095216125 0.83475846
15.938127 -0.004865984 0.83528185
15.927797 -0.10468093 0.83475846
15.926843 -0.20336656 0.83475846
15.935257 -0.30249262 0.83528185
15.923059 -0.40235808 0.83475846
15.910234 -0.50208217 0.83423513
15.916745 -0.6024164 0.83475846
15.93784 -0.80388886 0.83632857
15.932473 -0.90401286 0.83632857
15.916512 -1.0034729 0.83580518
15.919874 -1.1038892 0.83632857
15.912728 -1.2025065 0.83632857
15.914905 -1.3021505 0.83685195
15.906408 -1.4021206 0.83685195
15.907227 -1.5029746 0.83737528
13.552593 -1.3664659 0.71386242
12.759315 -1.3675188 0.672517
12.036047 -1.3665465 0.63483512
11.392647 -1.3660524 0.60134012
10.809197 -1.3650386 0.57098526
10.255955 -1.3605222 0.54220051
9.7626572 -1.356688 0.51655591
9.3488569 -1.3584342 0.49509814
8.9254589 -1.3542299 0.47311702
8.5518179 -1.3525615 0.45375273
8.2179785 -1.3527414 0.43648186
7.9140177 -1.3538333 0.42078108
7.6202121 -1.3529067 0.40560365
7.3267412 -1.3483435 0.39042622
7.0728793 -1.3476243 0.37734222
6.8487191 -1.3495622 0.36582834
6.6150365 -1.3467458 0.35379106
6.4012141 -1.3451555 0.3428005
6.207201 -1.3451631 0.33285668
6.0037012 -1.3406101 0.32238948
5.8394413 -1.3425058 0.31401575
5.6657043 -1.3400002 0.30511862
5.5117364 -1.3396994 0.29726821
5.3773518 -1.3424683 0.29046455
5.2140341 -1.3365533 0.28209081
5.0896401 -1.3388026 0.27581048
4.9654284 -1.3395425 0.26953018
4.841435 -1.3386962 0.26324984
3.198277 -1.3337705 0.18160577
3.1438706 -1.3343316 0.17898896
3.0895851 -1.3342626 0.17637217
3.0262837 -1.329548 0.17323202
3.0270097 -1.352561 0.17375538
3.0367553 -1.3795509 0.17480209
3.0371931 -1.402576 0.17532545
3.0283206 -1.4216315 0.17532545
3.0193284 -1.4406308 0.17532545
3.0102172 -1.4595733 0.17532545
3.0189033 -1.4872848 0.17637217
3.018429 -1.5106931 0.17689553
3.0088778 -1.5296282 0.17689553
3.0169544 -1.5576659 0.17794225
3.0071335 -1.5765419 0.17794225
3.0061233 -1.5998353 0.1784656
3.0136993 -1.6279715 0.17951232
3.0121675 -1.6516763 0.18003568
3.0104561 -1.675426 0.18055904
3.0172603 -1.7041302 0.18160577
3.0151577 -1.72802 0.18212913
3.0128736 -1.7519505 0.18265249
3.0104074 -1.7759203 0.18317585
3.0077589 -1.7999281 0.18369921
3.0134637 -1.8291543 0.18474592
3.0104153 -1.8532875 0.18526928
3.0072131 -1.8774052 0.18579264
3.0123994 -1.9066833 0.18683936
3.0089014 -1.9307532 0.18736272
3.0050814 -1.9550664 0.18788607
3.0094109 -1.9849055 0.18893281
3.5085838 -2.4757209 0.22504461
3.5173287 -2.5151432 0.22661468
3.5257158 -2.5547719 0.22818476
3.5337851 -2.594547 0.22975485
3.5416803 -2.6342721 0.23132493
3.5411987 -2.668242 0.23237164
3.5402393 -2.7025583 0.23341836
3.5389879 -2.7369673 0.23446508
3.5453043 -2.7776258 0.23603515
3.5356042 -2.8060548 0.23655851
3.5334694 -2.8407283 0.23760524
3.5387814 -2.8817914 0.23917532
3.5360124 -2.916678 0.24022204
3.5329926 -2.9515848 0.24126875
3.5298846 -2.9863186 0.24231547
3.5415993 -3.0341785 0.24440891
3.5375507 -3.0694604 0.24545564
3.5331979 -3.1048107 0.24650235
3.536 -3.1468658 0.24807243
3.5384121 -3.1890781 0.24964251
3.5330575 -3.2247109 0.25068924
3.5347266 -3.2671812 0.25225931
3.5360007 -3.309799 0.25382939
3.5296304 -3.3456907 0.25487611
3.5301526 -3.3885481 0.25644618
3.5303311 -3.4314852 0.25801626
3.5303545 -3.4743073 0.25958633
3.536999 -3.5243669 0.26167977
3.5288441 -3.5607069 0.26272649
3.5273566 -3.6042202 0.26429656
3.5324006 -3.6550353 0.26639003
3.5369442 -3.7060547 0.26848346
3.5341361 -3.7500072 0.27005354
3.530977 -3.7940114 0.27162361
3.5239027 -3.8818958 0.27476376
3.5194395 -3.9262688 0.27633384
3.5410318 -4.0006495 0.27999735
3.3843925 -3.8724334 0.26953018
3.5165768 -4.0750718 0.28209081
3.5232863 -4.1350932 0.28470761
3.5165215 -4.1800742 0.28627768
3.5157104 -4.2328148 0.28837112
3.5081129 -4.2779293 0.28994119
3.5192466 -4.3461485 0.29308134
3.5420673 -4.4303265 0.29726821
3.5141609 -4.4524941 0.29726821
3.5229409 -4.5217519 0.30040839
3.5127244 -4.5675459 0.30197847
3.5142231 -4.6292396 0.30459526
-1.0028924 -1.333787 -0.32437527
-1.0172015 -1.3352679 -0.32628337
-1.0315686 -1.3366213 -0.32819146
-1.045963 -1.3378698 -0.33009955
-1.0542325 -1.3313632 -0.33009955
-1.0686316 -1.3324404 -0.33200765
-1.0831721 -1.3333186 -0.33391574
-1.0977654 -1.3340665 -0.33582383
-1.1061258 -1.3271427 -0.33582383
-1.1271068 -1.3351685 -0.33963999
-1.1418527 -1.3355213 -0.34154809
-1.1566473 -1.3357414 -0.34345618
-1.1650171 -1.3284476 -0.34345618
-1.1863489 -1.3358063 -0.34727237
-1.2011663 -1.3357292 -0.34918046
-1.2160572 -1.3354931 -0.35108855
-1.2310787 -1.3350425 -0.35299665
-1.2461424 -1.3344556 -0.35490471
-1.2545024 -1.3265996 -0.35490471
-1.2696022 -1.3257809 -0.3568128
-1.2915747 -1.3318715 -0.36062899
-1.3067664 -1.3307624 -0.36253709
-1.3219078 -1.3296013 -0.36444518
-1.3371133 -1.3282746 -0.36635327
-1.3594476 -1.3335955 -0.37016943
-1.3677999 -1.3250275 -0.37016943
-1.3902849 -1.3299785 -0.37398562
-1.4057493 -1.3279581 -0.37589371
-1.4212433 -1.3257953 -0.37780181
-1.4367654 -1.3234899 -0.3797099
-1.4595759 -1.3276469 -0.38352609
-1.4751918 -1.3250093 -0.38543415
-1.4981759 -1.3287412 -0.38925034
-1.5138508 -1.325802 -0.39115843
-1.5294611 -1.322818 -0.39306653
-1.552585 -1.3260331 -0.39688271
-1.5683904 -1.3225799 -0.39879081
-1.5917571 -1.3252611 -0.40260696
-1.6076357 -1.321467 -0.40451506
-1.6311513 -1.323711 -0.40833125
-1.6394362 -1.3134362 -0.40833125
-1.6707543 -1.3213773 -0.41405553
-1.6867613 -1.3168944 -0.41596359
-1.7105523 -1.3182548 -0.41977978
-1.7266141 -1.3134242 -0.42168787
-1.7505037 -1.3143756 -0.42550406
-1.7743863 -1.3151948 -0.42932025
-1.7983741 -1.3157293 -0.4331364
-1.8225228 -1.3158964 -0.43695259
-1.8387493 -1.3101153 -0.43886068
-1.863005 -1.3098279 -0.44267687
-1.8953947 -1.3148823 -0.44840112
-1.91982 -1.3140361 -0.45221731
-1.9524438 -1.318428 -0.45794159
-1.9688587 -1.3115767 -0.45984969
-2.0016713 -1.3153526 -0.46557394
-2.026371 -1.313428 -0.46939012
-2.0511248 -1.3112447 -0.47320631
-2.0842342 -1.314037 -0.47893056
-2.1090934 -1.3113279 -0.48274675
-2.1339145 -1.3084973 -0.48656294
-2.1672091 -1.3104419 -0.49228719
-2.2006955 -1.3118781 -0.49801147
-2.225821 -1.3079715 -0.50182766
-2.2594781 -1.3087205 -0.50755191
-2.3017566 -1.3139641 -0.51518428
-2.3270779 -1.3091017 -0.51900047
-2.3610137 -1.3087316 -0.52472472
-2.3950357 -1.307986 -0.53044897
-2.4291406 -1.3068641 -0.53617328
-2.4546514 -1.3007684 -0.53998947
-2.4975569 -1.3035413 -0.54762179
-2.5405066 -1.3059937 -0.55525416
-2.5836096 -1.3079069 -0.56288654
-2.626919 -1.3091617 -0.57051891
-2.8299639 1.1451033 -0.59341598
-2.7773316 1.1441671 -0.58387554
-2.7338779 1.1464099 -0.57624316
-2.6814778 1.1443011 -0.56670272
-2.6382186 1.1454878 -0.55907035
-2.5950513 1.1461781 -0.55143797
-2.560936 1.1503929 -0.54571372
-2.5179415 1.1501474 -0.53808135
-2.4661503 1.1452719 -0.52854091
-2.4322746 1.1481739 -0.52281666
-2.3984613 1.1506947 -0.51709235
-2.3558896 1.148536 -0.50946003
-2.322238 1.1502441 -0.50373572
-2.2886581 1.1515765 -0.49801147
-2.2551551 1.1525316 -0.49228719
-2.2217307 1.1531129 -0.48656294
-2.1797056 1.1487424 -0.47893056
-2.1464791 1.1485224 -0.47320631
-2.1219687 1.1526148 -0.46939012
-2.097492 1.1564463 -0.46557394
-2.0559194 1.1504279 -0.45794159
-2.0315788 1.153628 -0.4541254
-2.0072799 1.1565681 -0.45030922
-1.9745495 1.1542956 -0.44458497
-1.950372 1.1566643 -0.44076878
-1.9262426 1.1587762 -0.43695259
-1.8937854 1.1555169 -0.43122831
-1.8697927 1.1570626 -0.42741215
-1.8458568 1.1583519 -0.42359596
-1.8219786 1.1593875 -0.41977978
-1.7981867 1.1601288 -0.41596359
-1.774533 1.1605028 -0.41214743
-1.759101 1.1660906 -0.41023934
-1.7354439 1.1661708 -0.40642315
-1.7199697 1.1715254 -0.40451506
-1.6964183 1.1711557 -0.40069887
-1.6729406 1.1705358 -0.39688271
-1.6495383 1.1696676 -0.39306653
-1.626188 1.1685874 -0.38925034
-1.6107754 1.1731448 -0.38734224
-1.5953974 1.1775177 -0.38543415
-1.5643833 1.1698825 -0.3797099
-1.549178 1.1737603 -0.37780181
-1.5261987 1.171517 -0.37398562
-1.5188081 1.1810828 -0.37398562
-1.495935 1.1784538 -0.37016943
-1.4731816 1.1755514 -0.36635327
-1.4506 1.1723167 -0.36253709
-1.4432833 1.1813129 -0.36253709
-1.4282751 1.1840934 -0.36062899
-1.4057723 1.1804188 -0.3568128
-1.3833722 1.1765096 -0.35299665
-1.3759271 1.185208 -0.35299665
-1.3535556 1.1810421 -0.34918046
-1.3386751 1.1831106 -0.34727237
-1.316586 1.1784053 -0.34345618
-1.3018832 1.1800615 -0.34154809
-1.2872112 1.1815804 -0.33963999
-1.2725981 1.1829332 -0.33773193
-1.2652441 1.1907957 -0.33773193
-1.2436035 1.1850952 -0.33391574
-1.2290689 1.1860694 -0.33200765
-1.2075514 1.1800467 -0.32819146
-1.2001128 1.1876109 -0.32819146
-1.1787597 1.1812308 -0.32437527
-1.1644242 1.1816223 -0.32246721
-1.1501312 1.1818799 -0.32055911
-1.1358806 1.1820054 -0.31865102
-1.1284318 1.1891187 -0.31865102
-1.1142255 1.1890229 -0.31674293
-1.1000659 1.1887951 -0.31483483
-1.0859529 1.1884372 -0.31292674
-1.0718887 1.1879487 -0.31101865
-1.0644031 1.1946604 -0.31101865
-1.0439084 1.1865841 -0.30720249
-1.0364319 1.19312 -0.30720249
-1.0225245 1.1921573 -0.30529439
-1.0086696 1.1910677 -0.3033863
3.2971282 3.9224079 -0.99602294
3.2962544 3.8717167 -0.98839056
3.3012016 3.8286989 -0.98266631
3.2990363 3.7785935 -0.97503394
3.296459 3.7285912 -0.96740156
3.3167422 2.8426661 -0.84909999
3.2898202 2.7834373 -0.83765149
3.3073647 2.7625675 -0.83765149
3.3092723 2.7295303 -0.8338353
3.3185682 2.7027028 -0.83192718
3.3125336 2.6633456 -0.82620293
3.3138251 2.6302743 -0.82238674
3.3071053 2.5912385 -0.81666249
3.3077917 2.5583971 -0.8128463
3.3081965 2.5256498 -0.80903012
3.308321 2.4929988 -0.80521393
3.3160429 2.4663045 -0.80330586
3.3156471 2.4338036 -0.79948968
3.3149743 2.4014056 -0.79567349
3.3140261 2.3691123 -0.7918573
3.3128037 2.336926 -0.78804111
3.3113081 2.3048491 -0.78422499
3.3176327 2.2784412 -0.78231686
3.3237565 2.2520447 -0.7804088
3.3133576 2.2147517 -0.77468449
3.3190129 2.1884859 -0.77277642
3.3162401 2.1568847 -0.76896024
3.3132019 2.1254051 -0.76514405
3.3181953 2.0992975 -0.76323599
3.3146634 2.0680153 -0.7594198
3.3192308 2.0420046 -0.75751168
4.8614182 -1.3135314 -0.97885013
4.7395754 -1.3125079 -0.95595306
3.1433089 -1.312297 -0.66210723
3.0898285 -1.3128276 -0.65256673
3.027457 -1.3088434 -0.64111823
2.9922168 -1.3159838 -0.63539392
3.0197611 -1.3507255 -0.64302629
3.0023987 -1.365346 -0.64111823
3.0027616 -1.3881065 -0.64302629
2.9939806 -1.4069458 -0.64302629
3.0027971 -1.434191 -0.64684248
3.0025578 -1.4573159 -0.64875054
3.0021458 -1.4804944 -0.65065867
3.0015609 -1.5037249 -0.65256673
3.0008023 -1.5270065 -0.65447485
2.9998691 -1.5503376 -0.65638292
2.9987953 -1.5736517 -0.65829104
2.9976516 -1.5968164 -0.66019911
2.9963 -1.6200927 -0.66210723
3.0032723 -1.6483331 -0.66592336
2.9928563 -1.6671705 -0.66592336
2.9994128 -1.6956037 -0.66973954
2.9972146 -1.7193005 -0.67164767
2.9948368 -1.7430363 -0.67355573
2.9922786 -1.7668098 -0.67546386
2.9979608 -1.795664 -0.67927998
2.9950087 -1.819562 -0.68118811
3.0002313 -1.8486429 -0.68500429
2.9969223 -1.8725942 -0.68691236
2.9935548 -1.8963797 -0.68882048
2.998225 -1.9255651 -0.69263667
2.9942935 -1.9497218 -0.69454473
3.5203276 -2.5529764 -0.84528381
3.5280042 -2.5924065 -0.85100812
3.5276227 -2.6259384 -0.8548243
3.5190647 -2.6537321 -0.85673237
3.5179219 -2.6877093 -0.86054856
3.5164909 -2.7217762 -0.86436474
3.5224948 -2.7619877 -0.87008899
3.5204444 -2.7962763 -0.87390518
3.5333977 -2.8429549 -0.88153756
3.5230744 -2.8713012 -0.88344562
3.5201042 -2.905879 -0.88726181
3.5244331 -2.9467518 -0.89298606
3.5185647 -3.1338253 -0.91588318
3.5352507 -3.1887448 -0.92542362
3.5296409 -3.2241352 -0.92923981
3.5165205 -3.2529137 -0.93114787
3.5226462 -3.5572448 -0.97312587
3.5482681 -3.6284356 -0.9864825
3.5322189 -3.6577196 -0.98839056
-1.0086694 -1.3229895 0.14555009
-1.0230513 -1.32451 0.14642164
-1.0374558 -1.3259299 0.14729321
-1.0580261 -1.3350914 0.14903632
-1.0663141 -1.3284812 0.14903632
-1.0809246 -1.3294847 0.14990787
-1.0955895 -1.3303568 0.15077943
-1.1039268 -1.3234468 0.15077943
-1.1250784 -1.331704 0.15252255
-1.1334234 -1.3246087 0.15252255
-1.148248 -1.3249894 0.1533941
-1.1631217 -1.3252358 0.15426566
-1.1780072 -1.3253796 0.15513723
-1.1928605 -1.3254603 0.15600878
-1.201086 -1.3180112 0.15600878
-1.2160997 -1.3177595 0.15688033
-1.2311574 -1.3173708 0.15775189
-1.2462579 -1.3168447 0.15862344
-1.268293 -1.3233727 0.16036656
-1.2835209 -1.3225266 0.16123812
-1.2987517 -1.3215766 0.16210967
-1.3139417 -1.3205658 0.16298124
-1.3292047 -1.3193814 0.1638528
-1.3445826 -1.3179771 0.16472435
-1.359995 -1.3164314 0.1655959
-1.3826417 -1.3216277 0.16733903
-1.3981627 -1.3197523 0.16821058
-1.4210017 -1.3245263 0.16995369
-1.4292958 -1.3155718 0.16995369
-1.4522775 -1.3199661 0.17169681
-1.4679563 -1.317469 0.17256837
-1.4762052 -1.3082196 0.17256837
-1.4993536 -1.31208 0.17431149
-1.5225292 -1.3157924 0.1760546
-1.5458435 -1.3192254 0.1777977
-1.5693382 -1.3223248 0.17954083
-1.5852739 -1.3188093 0.18041238
-1.6166235 -1.3277912 0.18302706
-1.6404099 -1.3301561 0.18477017
-1.6565121 -1.3260485 0.18564174
-1.6804433 -1.3279674 0.18738484
-1.7044629 -1.3296379 0.18912795
-1.7206765 -1.3249801 0.18999952
-1.7448298 -1.3261991 0.19174263
-1.7610606 -1.3212364 0.19261418
-1.7852242 -1.3221573 0.19435731
-1.8095022 -1.3227798 0.19610041
-1.8339357 -1.3230411 0.19784354
-1.8584434 -1.323047 0.19958664
-1.8748711 -1.3170705 0.2004582
-1.8994844 -1.3166145 0.20220132
-1.9323882 -1.3215243 0.204816
-1.9571695 -1.3205001 0.20655911
-1.9820137 -1.3192164 0.20830221
-2.0069184 -1.317672 0.21004534
-2.0318811 -1.3158665 0.21178845
-2.0568998 -1.3137987 0.21353157
-2.09883 -1.3220879 0.2170178
-2.1239836 -1.3194458 0.21876091
-2.1406128 -1.3114643 0.21963246
-2.1657863 -1.3084199 0.22137558
-2.1996412 -1.3100789 0.22399026
-2.2336016 -1.3113635 0.22660492
-2.267664 -1.3122724 0.2292196
-2.3018248 -1.3128045 0.23183428
-2.3273966 -1.3080776 0.23357739
-2.3704286 -1.3127333 0.23706362
-2.4048648 -1.3121277 0.23967829
-2.4306111 -1.3064244 0.2414214
-2.4739888 -1.3097711 0.24490763
-2.5086334 -1.3080868 0.24752231
-2.5521362 -1.3107231 0.25100854
-2.5869131 -1.3083029 0.25362322
-2.6307535 -1.3097827 0.25710943
-5.0343862 -1.37985 0.45669609
-5.1969399 -1.3893571 0.47064102
-5.3116059 -1.3843125 0.48022813
-5.4264102 -1.3778807 0.48981526
-5.4446306 -1.346151 0.49068683
-5.4336104 -1.3072531 0.4889437
-5.4514165 -1.2753578 0.48981526
-6.0421686 -1.3735787 0.54210871
-5.8755794 -1.2969388 0.52642065
-6.0589519 -1.297544 0.54210871
-6.2522755 -1.2980925 0.55866832
-6.3969264 -1.2868328 0.5708701
-6.4146233 -1.2487279 0.57174164
-6.4126573 -1.2059987 0.5708701
-6.3907413 -1.1601348 0.56825542
-6.3781815 -1.1170779 0.56651235
-6.7040014 1.6894114 0.60486084
-7.001719 1.8119488 0.63275069
-6.6627736 1.7692084 0.6031177
-6.3729281 1.7345856 0.57784259
-6.390749 1.7824141 0.58045721
-2.9859393 1.1445506 0.27976993
-2.9322922 1.1451685 0.27541214
-2.8787565 1.1451598 0.27105436
-2.8345721 1.1482631 0.26756811
-2.7812538 1.1470602 0.26321033
-2.7372506 1.1490878 0.25972411
-2.6841714 1.1466962 0.25536633
-2.6403689 1.1476535 0.25188008
-2.6057723 1.152136 0.24926542
-2.5530541 1.148057 0.24490763
-2.5186107 1.1516484 0.24229296
-2.4751911 1.1506519 0.23880672
-2.4408913 1.1534135 0.23619206
-2.3976762 1.151476 0.23270583
-2.3635352 1.1534119 0.23009115
-2.3294663 1.1549635 0.22747648
-2.2865746 1.1516532 0.22399026
-2.2615561 1.1569228 0.22224714
-2.2277215 1.1573325 0.21963246
-2.1851616 1.152714 0.21614625
-2.1603119 1.157015 0.21440312
-2.1267438 1.1562899 0.21178845
-2.0932705 1.1551905 0.20917378
-2.0598967 1.1537155 0.20655911
-2.0352857 1.1567898 0.204816
-2.0107181 1.1596007 0.20307288
-1.9775975 1.1571192 0.2004582
-1.9445889 1.1542667 0.19784354
-1.9287635 1.161324 0.19697197
-1.9044251 1.163035 0.19522886
-1.8801415 1.1644876 0.19348575
-1.8474801 1.1603817 0.19087107
-1.8317499 1.1666157 0.18999952
-1.8076783 1.1672441 0.1882564
-1.7837408 1.1675109 0.18651329
-1.7515372 1.1620666 0.18389861
-1.7111354 1.1508114 0.18041238
-1.69564 1.1559283 0.17954083
-1.6719517 1.155234 0.1777977
-1.6565003 1.1600016 0.17692615
-1.6329314 1.1588554 0.17518304
-1.6094109 1.157504 0.17343992
-1.5859041 1.1559968 0.17169681
-1.5705267 1.160114 0.17082526
-1.5472552 1.1580211 0.16908213
-1.532011 1.1617002 0.16821058
-1.5167814 1.1652347 0.16733903
-1.5015688 1.168623 0.16646747
-1.4785502 1.1656995 0.16472435
-1.4556603 1.162493 0.16298124
-1.440684 1.1652254 0.16210967
-1.4179922 1.1615423 0.16036656
-1.4029992 1.1640682 0.15949501
-1.3880312 1.1664511 0.15862344
-1.3730884 1.1686927 0.15775189
-1.3505955 1.1643252 0.15600878
-1.3356473 1.1663526 0.15513723
-1.3207603 1.1682013 0.15426566
-1.3059736 1.1698304 0.1533941
-1.2912196 1.1713194 0.15252255
-1.276498 1.17267 0.151651
-1.2618432 1.1738472 0.15077943
-1.2400423 1.1679826 0.14903632
-1.2327503 1.1756763 0.14903632
-1.218173 1.1764786 0.14816476
-1.2107573 1.184109 0.14816476
-1.1891367 1.1776733 0.14642164
-1.17468 1.1780671 0.14555009
-1.1532755 1.1712282 0.14380698
-1.1389492 1.1713088 0.14293541
-1.124667 1.1712565 0.14206386
-1.117286 1.1782995 0.14206386
-1.0962423 1.1707531 0.14032075
-1.0821018 1.1703032 0.13944918
-1.0680099 1.1697227 0.13857763
-1.0606395 1.1764097 0.13857763
-1.0466027 1.1756104 0.13770607
-1.0326186 1.1746808 0.13683452
-1.0252172 1.181146 0.13683452
-1.0048107 1.1724359 0.13509139
-2.7595212 14.107737 1.2576573
-2.6689711 14.115009 1.2567858
3.1970325 4.2143683 0.46279699
3.2298861 4.2018147 0.46366856
3.2869647 4.2206297 0.46802634
3.3377304 4.2314692 0.47151256
3.3268034 4.1638274 0.4662832
3.3219225 4.1038342 0.46192542
3.3289366 4.0595708 0.45931077
3.3225527 4.000258 0.45495296
3.3219688 3.9488101 0.45146674
3.3208709 3.8975289 0.44798052
3.325664 3.8540509 0.44536585
3.3232603 3.8033648 0.4418796
3.3204594 3.7527671 0.43839338
3.3006239 2.6516366 0.3704119
3.3094141 2.6246557 0.36954033
3.3415279 2.6160924 0.37128347
3.3342519 2.5767708 0.36866879
3.3345354 2.5436862 0.36692566
3.3265769 2.5047083 0.36431101
3.3262572 2.4718733 0.36256787
3.3256567 2.4391418 0.36082476
3.3247769 2.4065161 0.35908166
3.3236189 2.3739982 0.35733855
3.3303268 2.3473294 0.35646698
3.3286526 2.3149822 0.35472387
3.3267043 2.2827492 0.35298076
3.3244827 2.2506325 0.35123762
3.3302739 2.2241671 0.35036609
3.3358638 2.1977181 0.34949452
3.3329005 2.1658587 0.34775141
3.329669 2.1341236 0.3460083
3.3261709 2.102515 0.34426519
3.3393157 2.0815747 0.34426519
3.3353548 2.0501189 0.34252205
3.3665359 1.5008147 0.32247624
