# .PCD v0.7 - Point Cloud Data file format
VERSION 0.7
FIELDS x y z
SIZE 4 4 4
TYPE F F F
COUNT 1 1 1
WIDTH 1482
HEIGHT 1
VIEWPOINT 0 0 0 1 0 0 0
POINTS 1482
DATA ascii
-6.5325122 -3.581264 0.39042622
-6.5548849 -3.5401485 0.39042622
-6.5769987 -3.4988933 0.39042622
-6.5987959 -3.4576087 0.39042622
-6.6200929 -3.4166558 0.39042622
-6.6411905 -3.3754637 0.39042622
-6.6622682 -3.3336694 0.39042622
-6.6830826 -3.2917438 0.39042622
-6.7126184 -3.2540457 0.39094958
-6.723918 -3.2075055 0.39042622
-6.7439389 -3.1651947 0.39042622
-6.7727594 -3.126945 0.39094958
-6.792273 -3.0843291 0.39094958
-6.8206367 -3.0456631 0.39147294
-6.8396382 -3.0027478 0.39147294
-6.8583703 -2.9597142 0.39147294
-6.8768311 -2.9165635 0.39147294
-6.8949733 -2.8734114 0.39147294
-6.921886 -2.834419 0.39199629
-6.9393611 -2.7913632 0.39199629
-6.9660506 -2.7513757 0.39251965
-6.9832006 -2.7075524 0.39251965
-7.009408 -2.6671741 0.39304301
-7.0353832 -2.6265728 0.39356637
-7.0423698 -2.5788846 0.39304301
-7.0678329 -2.5379603 0.39356637
-7.0930595 -2.4968178 0.39408976
-7.1180072 -2.4555759 0.39461312
-7.1425457 -2.4146233 0.39513648
-7.1574082 -2.3702049 0.39513648
-7.1816592 -2.3282666 0.39565983
-7.2056651 -2.2861173 0.39618319
-7.229424 -2.243758 0.39670655
-7.2529354 -2.2011902 0.39722991
-7.2666225 -2.1555755 0.39722991
-7.2896147 -2.1126554 0.39775327
-7.3123536 -2.0695314 0.39827663
-7.334805 -2.0263259 0.39879999
-7.3568606 -1.9834417 0.39932334
-7.3786983 -1.9402398 0.3998467
-7.4004173 -1.8963189 0.40037006
-7.4121861 -1.8497835 0.40037006
-7.452775 -1.8102463 0.40194014
-7.3570957 -1.7381248 0.39618319
-8.1173115 -1.863959 0.43648186
-7.4758239 -1.6672796 0.40141678
-7.4666309 -1.6160519 0.40037006
-7.4864116 -1.5711552 0.40089342
-3.6263659 -0.25055858 0.19050288
-3.5780351 -0.22464088 0.18788607
-3.5295208 -0.19939691 0.18526928
-3.4907937 -0.17551801 0.18317585
-3.4419334 -0.15163207 0.18055904
-3.4029014 -0.1284965 0.1784656
-3.3637164 -0.10585565 0.17637217
-3.3143992 -0.083462745 0.17375538
-3.2749202 -0.061880685 0.17166193
-3.2353024 -0.040799804 0.16956849
-3.2055366 -0.020280695 0.16799842
-3.1656556 -0.00013851715 0.16590498
-3.1256497 0.019503387 0.16381153
-3.0955088 0.038765956 0.16224146
-3.0452824 0.05722633 0.15962467
-3.0249031 0.075595044 0.15857795
-2.9944308 0.093449928 0.15700787
-2.9538674 0.11076494 0.15491442
-2.923183 0.12801243 0.15334435
-2.8923995 0.14487721 0.15177427
-2.8615208 0.1613618 0.1502042
-2.8305502 0.17746262 0.14863411
-2.7994916 0.19318222 0.14706403
-2.7783062 0.20926718 0.14601731
-2.7470808 0.2242371 0.14444724
-2.7157948 0.23863158 0.14287716
-2.6943753 0.25362584 0.14183044
-2.6728561 0.26855263 0.14078373
-2.6512563 0.2832205 0.139737
-2.6097326 0.29538 0.13764356
-2.5979095 0.31058675 0.1371202
-2.5661829 0.32315984 0.13555013
-2.5443015 0.33665797 0.13450341
-2.5223529 0.34989262 0.13345669
-2.500345 0.36282492 0.13240996
-2.4783015 0.37531969 0.13136324
-2.4561939 0.38759458 0.13031653
-2.4340017 0.39978179 0.12926981
-2.4117539 0.41170689 0.12822309
-2.3894532 0.42336705 0.12717637
-2.3572726 0.43299955 0.1256063
-2.334846 0.44427377 0.12455957
-2.3123794 0.45524302 0.12351286
-2.2996876 0.46777192 0.1229895
-2.2869377 0.48012286 0.12246613
-2.2643983 0.49005905 0.12141941
-2.2418163 0.49977031 0.1203727
-2.2288988 0.5116114 0.11984934
-2.2062023 0.52101594 0.11880262
-2.1834764 0.53015453 0.1177559
-2.1704128 0.54144657 0.11723254
-2.1476202 0.55011636 0.11618582
-2.124805 0.5585224 0.1151391
-2.1212537 0.57186133 0.1151391
-2.0983677 0.57985896 0.11409238
-2.0850744 0.59031099 0.11356902
-2.0621512 0.59780538 0.1125223
-2.0488336 0.60773128 0.11199895
-4.6195431 2.1680403 0.26743674
-4.5969725 2.1923964 0.26691338
-1.1650212 1.0640901 0.082690813
-1.165661 1.0781511 0.083214171
-1.1443802 1.0717007 0.082167447
-1.1521937 1.0925316 0.083214171
-1.1381035 1.0928323 0.082690813
-1.1312143 1.099962 0.082690813
-1.1171653 1.1000409 0.082167447
-1.1102313 1.1070389 0.082167447
-1.103254 1.1139925 0.082167447
-1.0892501 1.1137632 0.081644088
-1.5303844 4.3100891 0.23969868
-1.5068634 4.3289442 0.24022204
1.0013734 3.1081929 0.17113857
1.0146389 3.0828683 0.17009185
1.0308075 3.0669663 0.16956849
1.0468165 3.0509832 0.16904514
1.056065 3.0160701 0.16747506
1.0682758 2.9905665 0.16642834
1.0836265 2.9744124 0.16590498
1.1022937 2.967545 0.16590498
1.1138455 2.9418821 0.16485827
1.1215239 2.9068749 0.16328818
1.1324599 2.8811824 0.16224146
1.1468289 2.8647392 0.1617181
1.1572667 2.8389819 0.16067138
1.1712539 2.8224311 0.16014802
1.1811936 2.7966173 0.15910131
1.1947986 2.7799656 0.15857795
1.2082411 2.7632539 0.15805459
1.2134045 2.7282343 0.1564845
1.234638 2.7296553 0.15700787
1.2475919 2.7127712 0.1564845
1.3865883 2.3589001 0.14340052
1.3911532 2.3329871 0.1423538
1.4419625 2.3840141 0.14601731
1.4725789 2.4004436 0.14758739
5.2947974 7.8358393 0.4956215
5.3213549 7.7694602 0.49352807
5.2731328 7.5964994 0.48463094
5.3947864 7.6698675 0.49143463
5.430738 7.6199412 0.49038789
5.4902015 7.60186 0.49143463
5.520287 7.5429478 0.48986453
5.5682268 7.507628 0.48986453
5.6038189 7.4561296 0.48881781
3.6484904 3.6246891 0.26953018
3.6426787 3.5737193 0.26743674
3.6722336 3.5577097 0.2679601
3.6872411 3.5277233 0.26743674
3.8469367 3.6351256 0.27738056
3.9498141 3.6860416 0.28313753
4.5901289 4.2292109 0.32709971
4.6506357 4.1775413 0.32762307
4.6618505 4.134985 0.32657635
4.702764 4.1187711 0.32762307
4.72855 4.0891414 0.32762307
4.9516058 4.2279501 0.34123042
5.1001639 4.2998261 0.34960419
5.2878761 4.4023223 0.36059472
5.4848356 4.5089035 0.37210864
5.6603827 4.5939202 0.38205248
5.868382 4.7018809 0.39408976
6.0779543 4.8074036 0.40612701
6.3126101 4.9290137 0.41973436
6.5723901 5.0666203 0.43491179
6.8262467 5.1950307 0.44956586
7.1142597 5.3439646 0.46631336
7.4284701 5.5073195 0.48463094
7.7772398 5.690516 0.50504196
8.1528816 5.8870769 0.52702308
8.5800829 6.113903 0.55214435
9.0594559 6.3700457 0.58040577
9.5505743 6.6260862 0.60919052
10.102934 6.9156804 0.64163882
12.455147 8.4113865 0.78765613
12.49944 8.327426 0.78713274
12.551516 8.2487259 0.78713274
12.50254 8.104516 0.78085244
12.553215 8.0258007 0.78085244
12.620158 7.9576273 0.78189915
12.626821 7.8529119 0.77928239
12.769 7.8317523 0.78503931
12.809411 7.7462006 0.78451598
12.849251 7.6604505 0.78399259
12.897129 7.5795665 0.78399259
12.961781 7.5083933 0.78503931
13.000029 7.4218531 0.78451598
13.046404 7.3400254 0.78451598
13.100999 7.2627497 0.78503931
13.137609 7.1755037 0.78451598
13.17364 7.0880857 0.78399259
13.217801 7.0053902 0.78399259
13.2521 6.9187374 0.78346926
13.294825 6.8362784 0.78346926
13.337516 6.7526112 0.78346926
13.37968 6.6686759 0.78346926
13.421316 6.5844779 0.78346926
13.471416 6.5043616 0.78399259
13.512017 6.4195905 0.78399259
13.552085 6.3345675 0.78399259
13.600692 6.2534642 0.78451598
13.639614 6.1681089 0.78451598
13.677569 6.0834804 0.78451598
13.715097 5.9983954 0.78451598
13.770864 5.919991 0.78556269
11.149261 4.7102065 0.6343118
10.413101 4.3223009 0.59087294
9.7557631 3.9777784 0.55214435
9.1965113 3.6825325 0.51917267
8.6711884 3.4089541 0.48829445
8.2268801 3.1739223 0.46212649
7.8172107 2.9590924 0.43805194
7.4328599 2.7610717 0.41554749
7.1120911 2.5917528 0.39670655
6.789691 2.426049 0.37786561
6.5220146 2.2844174 0.36216483
6.2715793 2.1531672 0.34751076
6.0387411 2.0313818 0.3339034
5.8142624 1.9152882 0.32081941
5.6170855 1.811293 0.30930549
5.4283628 1.7128589 0.29831496
5.2577171 1.6227607 0.28837112
5.0861607 1.5348765 0.27842727
4.9328718 1.4548644 0.26953018
4.797976 1.3823706 0.26167977
2.9555051 0.42497358 0.1564845
2.9086435 0.39964703 0.15386771
2.8615561 0.37512749 0.15125091
2.8241932 0.35239783 0.14915748
2.7866836 0.32994923 0.14706403
2.7390807 0.30687425 0.14444724
2.7012308 0.28546017 0.1423538
2.6532841 0.26354694 0.139737
2.6250575 0.24409692 0.13816692
2.5867434 0.22415 0.13607349
2.5482836 0.20469432 0.13398005
2.5096803 0.18577202 0.1318866
2.4808929 0.16819221 0.13031653
2.4519875 0.15093651 0.12874645
2.413003 0.13332362 0.12665302
2.3838682 0.1167343 0.12508294
2.354614 0.1006819 0.12351286
2.3252566 0.084920697 0.12194277
2.2958052 0.069203265 0.1203727
2.2961986 0.054614335 0.1203727
2.3064811 0.040360607 0.12089606
2.3066888 0.025905613 0.12089606
2.3068049 0.011613016 0.12089606
2.3068326 -0.0027175019 0.12089606
2.3067701 -0.017211635 0.12089606
2.3166018 -0.03184234 0.12141941
2.3163559 -0.046397276 0.12141941
2.3359854 -0.061437558 0.12246613
2.3455408 -0.0762344 0.1229895
2.345022 -0.090803854 0.1229895
2.3543813 -0.10598529 0.12351286
2.3636422 -0.1212879 0.12403622
2.3728032 -0.13671106 0.12455957
2.3718998 -0.1515782 0.12455957
2.3908389 -0.16766867 0.1256063
2.3897512 -0.18251777 0.1256063
2.3985095 -0.19835237 0.12612966
2.4071629 -0.2143039 0.12665302
2.4256511 -0.23132031 0.12769973
2.4340889 -0.24752709 0.12822309
2.4325087 -0.26260382 0.12822309
2.440752 -0.27884343 0.12874645
2.4488664 -0.29536939 0.12926981
2.4568689 -0.31200826 0.12979317
2.4746573 -0.33007962 0.13083988
2.4824302 -0.34696358 0.13136324
2.4901142 -0.36378148 0.1318866
2.4976785 -0.38074845 0.13240996
2.5050995 -0.39800116 0.13293333
2.5124021 -0.41536212 0.13345669
2.5195847 -0.43283045 0.13398005
2.5266542 -0.45036402 0.13450341
2.5336354 -0.46782365 0.13502677
2.5502901 -0.48734426 0.13607349
2.5569303 -0.5055179 0.13659684
2.5732436 -0.52571034 0.13764356
2.5797086 -0.54370338 0.13816692
3.2696815 -0.79685408 0.17637217
3.3034313 -0.826796 0.1784656
3.3272619 -0.85470182 0.18003568
3.3412158 -0.88038987 0.18108241
3.3646042 -0.9089424 0.18265249
3.3876994 -0.93805957 0.18422256
3.3913457 -0.96205139 0.18474592
3.4140038 -0.99169779 0.186316
3.4268498 -1.0188206 0.18736272
3.4394891 -1.0461439 0.18840943
3.4709909 -1.0795978 0.19050288
3.4736559 -1.104411 0.19102624
3.485662 -1.1323287 0.19207296
3.4975362 -1.1601923 0.19311967
3.5091786 -1.1883031 0.19416639
3.52052 -1.216853 0.19521311
3.6012092 -1.3465488 0.20149343
3.6301022 -1.3831165 0.20358686
3.6306496 -1.4095118 0.20411022
3.649581 -1.4433136 0.20568031
3.6682301 -1.4774084 0.20725039
3.6773787 -1.5079451 0.2082971
3.6956129 -1.5422388 0.20986718
3.7043447 -1.5729733 0.2109139
3.7310574 -1.6120604 0.21300733
3.7482812 -1.6475265 0.21457742
3.7652059 -1.6832722 0.2161475
3.7818565 -1.7192327 0.21771757
3.8932869 -1.9493201 0.22818476
3.9167411 -1.9915099 0.23027821
3.9664075 -2.0478725 0.23394172
5.3514571 -5.0672598 0.38623935
5.2978892 -5.080049 0.38466927
5.2658658 -5.1132364 0.38466927
6.1359911 -6.2631354 0.4595097
6.1313405 -6.3373499 0.46212649
5.9711723 -6.4884853 0.46212649
6.0780396 -6.6884675 0.47364038
7.3431163 -8.1833191 0.57621884
7.2915545 -8.2292957 0.57621884
7.2201142 -8.2522802 0.5746488
7.155786 -8.2817459 0.57360208
6.9289069 -8.3300838 0.56784511
7.1877413 -8.7509851 0.59348971
6.850174 -8.4464426 0.56993854
6.796968 -8.489316 0.56993854
6.7374425 -8.5239096 0.56941521
6.8503823 -8.7780542 0.58354592
7.0334158 -9.1289597 0.60395694
12.779113 -16.803862 1.1063821
12.655295 -16.859863 1.104812
12.543167 -16.931023 1.1042887
12.430926 -17.001232 1.1037652
12.313659 -17.061733 1.1027186
12.195562 -17.12183 1.1016718
11.741739 -16.708937 1.0702703
11.6413 -16.791222 1.0707936
11.531399 -16.854788 1.0702703
11.420881 -16.917822 1.069747
11.314359 -16.989248 1.069747
11.196705 -17.043125 1.0687002
12.742036 -19.659721 1.2278016
12.625036 -19.746912 1.2283249
12.500714 -19.825848 1.2283249
12.375898 -19.904001 1.2283249
12.245375 -19.972855 1.2278016
-1.0203775 -1.6657581 -0.3797099
-1.0411836 -1.6759906 -0.38352609
-1.0621582 -1.6860267 -0.38734224
-1.0885839 -1.7041372 -0.39306653
-1.1099423 -1.7137421 -0.39688271
-1.131464 -1.7231452 -0.40069887
-1.1585865 -1.7405164 -0.40642315
-1.1804808 -1.7494767 -0.41023934
-1.202533 -1.7582299 -0.41405553
-1.2247413 -1.7667744 -0.41787168
-1.2527472 -1.7831408 -0.42359596
-1.2753129 -1.7912275 -0.42741215
-1.3037332 -1.8070894 -0.4331364
-1.3264897 -1.8148272 -0.43695259
-1.3611147 -1.8380998 -0.44458497
-1.3844192 -1.8452153 -0.44840112
-1.4138068 -1.8599249 -0.4541254
-1.4494225 -1.8821143 -0.46175775
-1.4732957 -1.8884493 -0.46557394
-1.5094784 -1.9099609 -0.47320631
-1.5459466 -1.9311249 -0.48083866
-1.5764285 -1.9443842 -0.48656294
-1.6071756 -1.9573042 -0.49228719
-1.6508265 -1.9849033 -0.50182766
-1.6822379 -1.9970144 -0.50755191
-1.7202373 -2.0162761 -0.51518428
-1.7649621 -2.0425653 -0.52472472
-4.9606371 -0.97413927 -0.98266631
-4.8605762 -0.9228096 -0.96167731
-3.5759864 -0.22310109 -0.6964528
-3.5283089 -0.19795787 -0.68691236
-3.4804473 -0.1736467 -0.67737192
-3.4422321 -0.15029137 -0.66973954
-3.3940613 -0.12682666 -0.66019911
-3.3457334 -0.10397509 -0.65065867
-3.3070676 -0.081977352 -0.64302629
-3.268259 -0.060471416 -0.63539392
-3.2293124 -0.039454684 -0.6277616
-3.2000482 -0.018989744 -0.62203729
-3.1510231 0.0011007354 -0.61249685
-3.1215057 0.020702928 -0.6067726
-3.0918677 0.039935913 -0.60104835
-3.0522993 0.058540538 -0.59341598
-3.0126255 0.076455511 -0.5857836
-2.9826577 0.094254516 -0.58005935
-2.9427698 0.11150718 -0.57242697
-2.912591 0.12869413 -0.56670272
-2.8921173 0.14600278 -0.56288654
-2.8617413 0.16250122 -0.55716228
-2.8214767 0.17800722 -0.54952991
-2.8007171 0.19437148 -0.54571372
-2.7700758 0.20974231 -0.53998947
-2.7393579 0.22467455 -0.53426516
-2.7085786 0.23905446 -0.52854091
-2.6874945 0.25404251 -0.52472472
-2.6565449 0.26796862 -0.51900047
-2.6255279 0.28151453 -0.51327616
-2.6042001 0.29579061 -0.50946003
-2.5730512 0.30863941 -0.50373572
-2.5515833 0.32234028 -0.49991956
-2.5300457 0.33578229 -0.49610338
-2.5084407 0.34896782 -0.49228719
-2.4867787 0.36183956 -0.48847103
-2.4650788 0.37429368 -0.48465484
-2.4433126 0.38654497 -0.48083866
-2.421464 0.39870009 -0.47702247
-2.39956 0.41059476 -0.47320631
-2.3776026 0.42223132 -0.46939012
-2.3459311 0.43188119 -0.46366584
-2.3334894 0.44497907 -0.46175775
-2.3113563 0.45598418 -0.45794159
-2.2892084 0.46657756 -0.4541254
-2.2670302 0.47686008 -0.45030922
-2.2544386 0.48881754 -0.44840112
-2.2321954 0.49854541 -0.44458497
-2.2194521 0.51036155 -0.44267687
-2.1970966 0.51977628 -0.43886068
-2.1842492 0.53125143 -0.43695259
-2.1618214 0.54020482 -0.4331364
-2.148876 0.55133826 -0.43122831
-2.126384 0.55983001 -0.42741215
-2.1133475 0.57062107 -0.42550406
-2.0907993 0.57865107 -0.42168787
-2.0776782 0.58909929 -0.41977978
-2.0456681 0.59388584 -0.41405553
-2.041949 0.6065495 -0.41405553
-1.1651618 1.0384867 -0.3033863
-1.1731879 1.0589414 -0.30720249
-1.1954926 1.0927838 -0.31483483
-1.1670158 1.080243 -0.30911058
-1.1674625 1.0941658 -0.31101865
-1.160637 1.1014032 -0.31101865
-1.1536936 1.1086743 -0.31101865
-1.1396701 1.1090549 -0.30911058
-1.132679 1.116194 -0.30911058
-1.1186953 1.1163546 -0.30720249
-1.1116587 1.1233618 -0.30720249
-1.1045787 1.130324 -0.30720249
-1.0974547 1.1372423 -0.30720249
-1.0902878 1.144115 -0.30720249
-1.0763501 1.1437944 -0.30529439
-1.0691426 1.1505344 -0.30529439
-1.0618922 1.1572297 -0.30529439
-1.0546259 1.1638554 -0.30529439
-1.0408481 1.1630529 -0.3033863
-1.0335969 1.1695018 -0.3033863
-1.0197737 1.1685771 -0.30147821
-1.0124115 1.1749612 -0.30147821
-1.0050088 1.1812994 -0.30147821
-2.5552258 3.8532116 -0.89871037
-2.5040963 3.8281169 -0.88916993
-2.490639 3.8602712 -0.89298606
-2.4716039 3.8841264 -0.89489418
-2.4471517 3.8995786 -0.89489418
-2.4174352 3.9065309 -0.89298606
-2.3928432 3.9216423 -0.89298606
-2.3681545 3.9366 -0.89298606
-2.3383675 3.9429581 -0.891078
-2.3135459 3.9575732 -0.891078
-2.2886353 3.9720306 -0.891078
-2.2636323 3.9863329 -0.891078
-2.2385418 4.0004764 -0.891078
-2.213361 4.0144629 -0.891078
-2.1834972 4.0196166 -0.88916993
-2.1539173 4.0244136 -0.88726181
-2.1013854 3.9856279 -0.87581325
-2.0989182 4.0423126 -0.88535374
-2.0779481 4.0641603 -0.88726181
-2.0435429 4.0596004 -0.88344562
-2.0223551 4.0811553 -0.88535374
-2.0095809 4.1202507 -0.891078
-1.9921495 4.1504946 -0.89489418
-1.961839 4.1540537 -0.89298606
-1.9357008 4.1662979 -0.89298606
-1.640309 4.2806854 -0.891078
-1.6135689 4.2908363 -0.891078
-1.59639 4.3286586 -0.89680225
-1.5789872 4.3663654 -0.90252656
-1.5387787 4.3390579 -0.89489418
-1.5053246 4.3299975 -0.891078
-1.2000405 4.5259709 -0.91015887
-1.1666659 4.5144138 -0.90634269
-1.1406758 4.5311742 -0.90825081
-1.1121819 4.5382519 -0.90825081
-1.0631576 4.4592123 -0.891078
-1.0506331 4.5327439 -0.90443462
1.0611594 2.9669662 -0.61249685
1.0764165 2.9510183 -0.61058879
1.0915152 2.9349961 -0.60868067
1.0994965 2.9005432 -0.60295641
1.1141623 2.8844209 -0.60104835
1.12148 2.8499601 -0.59532404
1.1393646 2.8428574 -0.59532404
1.1534952 2.8265538 -0.59341598
1.1637 2.8011203 -0.58959979
1.1812769 2.7937531 -0.58959979
1.1871682 2.7592247 -0.58387554
1.2005452 2.7427185 -0.58196741
1.2097691 2.717186 -0.57815123
1.364072 2.3522015 -0.52854091
1.3838021 2.3520451 -0.53044897
1.4136453 2.3685913 -0.53617328
1.4437505 2.3848546 -0.54189754
4.8023653 1.4143243 -0.97312587
2.9053493 0.41659728 -0.57051891
2.8592739 0.39173526 -0.56097841
2.8227122 0.36892363 -0.5533461
2.7762454 0.34530747 -0.5438056
2.7296169 0.3221052 -0.53426516
2.6925642 0.30059183 -0.52663285
2.6455882 0.2785292 -0.51709235
2.6082118 0.25803536 -0.50946003
2.5706837 0.23802234 -0.50182766
2.5427885 0.2193352 -0.49610338
2.5147612 0.20100774 -0.4903791
2.4768114 0.18237469 -0.48274675
2.4387176 0.16438431 -0.47511441
2.4102988 0.14742026 -0.46939012
2.3817728 0.13065997 -0.46366584
2.3531301 0.11431544 -0.45794159
2.3341782 0.098902591 -0.4541254
2.2955105 0.082919188 -0.44649303
2.2763684 0.067710236 -0.44267687
2.2865658 0.053486522 -0.44458497
2.2868569 0.039118621 -0.44458497
2.2870569 0.02479912 -0.44458497
2.3067989 0.010719717 -0.44840112
2.3068211 -0.0036233396 -0.44840112
2.3165686 -0.018194476 -0.45030922
2.3262239 -0.032888245 -0.45221731
2.3357856 -0.04770406 -0.4541254
2.3452539 -0.062590413 -0.4560335
2.3546321 -0.077442624 -0.45794159
2.354105 -0.092081696 -0.45794159
2.3632863 -0.10731638 -0.45984969
2.3625653 -0.12216284 -0.45984969
2.3715508 -0.13757327 -0.46175775
2.3706429 -0.15241961 -0.46175775
2.3892369 -0.16848607 -0.46557394
2.3979306 -0.18408963 -0.46748203
2.4065092 -0.19996543 -0.46939012
2.4149826 -0.21595627 -0.47129822
2.4233496 -0.23206145 -0.47320631
2.421849 -0.24723026 -0.47320631
2.4300299 -0.2632882 -0.47511441
2.4380984 -0.2795102 -0.47702247
2.4460392 -0.29600292 -0.47893056
2.4538686 -0.31260642 -0.48083866
2.4615858 -0.32931995 -0.48274675
2.4789178 -0.34745172 -0.48656294
2.4767175 -0.36280394 -0.48656294
2.4938209 -0.38116285 -0.4903791
2.501071 -0.39836845 -0.49228719
2.5082028 -0.41568014 -0.49419528
2.5055416 -0.43143135 -0.49419528
2.5221176 -0.45056349 -0.49801147
2.5385823 -0.46975365 -0.50182766
2.5356019 -0.48558393 -0.50182766
2.5517154 -0.50554258 -0.50564384
2.5580826 -0.52364528 -0.50755191
-1.0205631 -1.6645929 0.17082526
-1.0415224 -1.6750675 0.17256837
-1.0626531 -1.6853439 0.17431149
-1.0893197 -1.7038133 0.17692615
-1.1054223 -1.7052946 0.1777977
-1.1325284 -1.7232907 0.18041238
-1.1654272 -1.7493029 0.18389861
-1.1931213 -1.7667128 0.18651329
-1.2154526 -1.7756224 0.1882564
-1.2379423 -1.7843204 0.18999952
-1.2663189 -1.8009542 0.19261418
-1.2891717 -1.8091881 0.19435731
-1.3121276 -1.8172413 0.19610041
-1.3410065 -1.8331977 0.19871509
-1.3701835 -1.8488276 0.20132977
-1.399718 -1.8640805 0.20394443
-1.4294976 -1.8790343 0.20655911
-1.4534383 -1.8857962 0.20830221
-1.4959123 -1.9158868 0.21266001
-1.5264606 -1.9298898 0.21527468
-1.5571899 -1.9436265 0.21788935
-1.5880333 -1.957148 0.22050403
-1.6191568 -1.970317 0.22311869
-1.6506238 -1.9830747 0.22573337
-1.6823144 -1.9955138 0.22834805
-1.7206944 -2.015208 0.23183428
-1.7593873 -2.0344977 0.23532051
-4.1670275 -3.3863401 0.46976945
-4.3977141 -3.5287905 0.49330148
-5.1741595 -3.9427235 0.56912696
-5.1988301 -3.9101357 0.56912696
-5.2312942 -3.8833313 0.56999856
-5.2475548 -3.8444982 0.56912696
-5.6106687 -4.0565982 0.60573238
-5.9359784 -4.2355099 0.63798004
-6.4508042 -4.5428019 0.69027346
-6.0944667 -4.2353711 0.64931029
-6.1373901 -4.2082624 0.65105337
-6.1554589 -4.1640353 0.65018183
-6.1980729 -4.1363368 0.65192497
-6.2489023 -4.1137452 0.65453964
-6.2746263 -4.0744009 0.65453964
-6.3084912 -4.0402689 0.65541118
-6.3253298 -3.9952319 0.65453964
-6.3417435 -3.9503171 0.65366805
-6.3660975 -3.910949 0.65366805
-6.3903127 -3.8712556 0.65366805
-6.4059577 -3.8259199 0.65279651
-6.4298701 -3.7855947 0.65279651
-6.4535284 -3.74512 0.65279651
-6.4769325 -3.7044978 0.65279651
-6.5000806 -3.663729 0.65279651
-6.5142632 -3.6179788 0.65192497
-6.5368667 -3.5769773 0.65192497
-6.5592127 -3.5358346 0.65192497
-6.5812993 -3.4945521 0.65192497
-6.6030312 -3.4533131 0.65192497
-6.6243014 -3.412334 0.65192497
-6.6454091 -3.3710432 0.65192497
-6.6664586 -3.3292224 0.65192497
-6.6872449 -3.2872705 0.65192497
-6.7077665 -3.2451904 0.65192497
-6.7370191 -3.2072625 0.65279651
-6.7570376 -3.1648693 0.65279651
-6.7767897 -3.1223514 0.65279651
-6.7962742 -3.0797102 0.65279651
-6.8154902 -3.0369473 0.65279651
-6.8435621 -2.9980619 0.65366805
-6.8622642 -2.9550037 0.65366805
-6.8806958 -2.9118288 0.65366805
-6.9079747 -2.8725529 0.65453964
-6.9256411 -2.8296955 0.65453964
-6.9523616 -2.7902513 0.65541118
-6.9697561 -2.7465134 0.65541118
-6.9961662 -2.7062612 0.65628272
-7.013032 -2.6622496 0.65628272
-7.0389566 -2.6216102 0.65715426
-7.0646462 -2.5807517 0.65802586
-7.0807219 -2.5363123 0.65802586
-7.1059175 -2.4950733 0.6588974
-7.121387 -2.450572 0.6588974
-7.1553135 -2.4127665 0.66064054
-7.1701903 -2.3681905 0.66064054
-7.1849284 -2.3230922 0.66064054
-7.2183785 -2.2839127 0.66238362
-7.2325864 -2.2385135 0.66238362
-7.2560434 -2.1959114 0.66325521
-7.2792501 -2.1531029 0.66412675
-7.292635 -2.1073236 0.66412675
-7.3153191 -2.0641665 0.66499829
-7.3472972 -2.0236542 0.66674143
-7.3693151 -1.9806787 0.66761297
-7.3911352 -1.9373052 0.66848451
-7.4128137 -1.8932925 0.66935611
-7.4438977 -1.8514884 0.67109919
-7.4650669 -1.8070225 0.67197078
-7.3696074 -1.7349731 0.66238362
-8.4582844 -1.9352663 0.75912648
-8.0618362 -1.7913306 0.72252107
-7.4886432 -1.6146582 0.67022765
-7.4888887 -1.5655376 0.66935611
-5.0381069 -1.0202092 0.44972363
-4.9759855 -0.97512478 0.44362271
-3.6177192 -0.24710748 0.31724688
-3.5694861 -0.22128893 0.3128891
-3.5210681 -0.19618392 0.30853131
-3.4824171 -0.17239316 0.3050451
-3.4336591 -0.14856663 0.30068731
-3.3947043 -0.12551625 0.29720107
-3.3555968 -0.10296311 0.29371485
-3.3063827 -0.080661669 0.28935707
-3.266983 -0.059164919 0.28587082
-3.2274451 -0.038164753 0.2823846
-3.1877742 -0.017665505 0.27889836
-3.1579363 0.0023427985 0.27628371
-3.1279743 0.021973772 0.27366903
-3.0879302 0.041097429 0.27018279
-3.0577323 0.059829213 0.26756811
-3.0174685 0.077747621 0.2640819
-2.9770989 0.095248692 0.26059568
-2.9565322 0.11319095 0.25885254
-2.9259067 0.13043332 0.25623786
-2.8951819 0.14729692 0.25362322
-2.8544166 0.16320942 0.25013697
-2.823509 0.17924824 0.24752231
-2.8024514 0.19559728 0.24577919
-2.7713675 0.21093428 0.24316452
-2.7402089 0.22581258 0.24054985
-2.7189109 0.24102746 0.23880672
-2.6876063 0.2551176 0.23619206
-2.6661279 0.26999253 0.23444894
-2.6445694 0.28460631 0.23270583
-2.6130352 0.29783314 0.23009115
-2.5913312 0.31186405 0.22834805
-2.5596719 0.32438299 0.22573337
-2.5378337 0.33782968 0.22399026
-2.515928 0.35101622 0.22224714
-2.4939678 0.36387184 0.22050403
-2.4719684 0.37631911 0.21876091
-2.4499009 0.38857308 0.2170178
-2.427753 0.40071452 0.21527468
-2.4055502 0.41259181 0.21353157
-2.3832948 0.42420733 0.21178845
-2.3609772 0.43562374 0.21004534
-2.3385844 0.446915 0.20830221
-2.3161569 0.45787591 0.20655911
-2.3034737 0.47042692 0.20568755
-2.2809901 0.48071891 0.20394443
-2.2487631 0.48849872 0.20132977
-2.2359581 0.50030738 0.2004582
-2.2230628 0.51211065 0.19958664
-2.2101078 0.52377057 0.19871509
-2.1874156 0.53293109 0.19697197
-2.1646962 0.54182613 0.19522886
-2.1516006 0.55293757 0.19435731
-2.1288188 0.56136471 0.19261418
-2.1060164 0.5695287 0.19087107
-2.1023965 0.58274937 0.19087107
-2.0699441 0.58778441 0.1882564
-2.0662267 0.6007219 0.1882564
-2.0433681 0.60783219 0.18651329
-1.1686966 1.0691324 0.13857763
-1.1692938 1.0831926 0.13944918
-1.1625597 1.0904168 0.13944918
-1.1485285 1.0907698 0.13857763
-1.141652 1.0979649 0.13857763
-1.1275944 1.0981658 0.13770607
-1.1206719 1.1052291 0.13770607
-1.1207545 1.119288 0.13857763
-1.1066951 1.1192243 0.13770607
-1.0233302 1.1160847 0.13247673
-1.0230147 1.1298492 0.13334829
-1.0093539 1.1287403 0.13247673
-1.0023105 1.1349993 0.13247673
1.0074915 3.1187882 0.28674239
1.017702 3.0840158 0.28412771
1.0338781 3.0681202 0.28325617
1.0466542 3.0427234 0.28151304
1.0591524 3.0172877 0.27976993
1.0713724 2.9918158 0.27802682
1.0867319 2.9756677 0.27715525
1.0984548 2.9501092 0.27541214
1.1098996 2.9245219 0.27366903
1.1246598 2.9081991 0.27279747
1.1356072 2.8825381 0.27105436
1.146277 2.8568552 0.26931125
1.1604366 2.8403745 0.26843968
1.1706092 2.814631 0.26669657
1.1843877 2.7980464 0.265825
1.1940632 2.7722507 0.2640819
1.2074598 2.755569 0.26321033
1.2166387 2.7297299 0.26146722
1.2296534 2.7129583 0.26059568
1.3998064 2.3433125 0.23880672
1.4454765 2.3855908 0.24403608
1.4760846 2.4019237 0.24665074
5.2936091 7.8208337 0.82623643
5.3201013 7.75456 0.82275021
5.3400741 7.6802306 0.8183924
5.3990326 7.6632843 0.82013553
5.4639816 7.653861 0.82275021
5.4769306 7.5709505 0.81752086
5.5245976 7.5362377 0.81752086
5.5665536 7.4928946 0.81664932
5.6139698 7.4574342 0.81664932
3.6495061 3.6200075 0.44972363
3.6579459 3.5830636 0.44798052
3.6803865 3.5600095 0.44798052
3.8476105 3.6301258 0.46279699
3.9431107 3.6739154 0.47151256
4.5896268 4.2219958 0.54559493
4.6796494 4.1969671 0.54995275
4.6835537 4.1476674 0.54733807
4.7020226 4.1116009 0.54646647
4.7353039 4.0884862 0.54733807
5.13237 4.3753314 0.59004438
5.1139131 4.3046465 0.58481503
5.3090267 4.4129734 0.6039893
5.4826941 4.4999318 0.6205489
5.673399 4.5970984 0.63885158
5.8810935 4.7044864 0.6588974
6.0981727 4.8156147 0.67981476
6.3245955 4.9304914 0.70160371
6.5839615 5.0674157 0.72687888
6.8374677 5.1950951 0.75128251
7.1250081 5.3432903 0.7791723
7.4386921 5.5058498 0.80967683
7.7949109 5.6940513 0.84453911
8.1699371 5.889636 0.88114452
8.604538 6.1211452 0.92385083
9.0586624 6.3588619 0.96830028
9.5652342 6.6251349 1.017979
10.133065 6.9246254 1.0737587
12.373545 8.3421345 1.305593
12.442305 8.275259 1.3073361
12.494054 8.1969194 1.3073361
12.528583 8.1074314 1.305593
12.562481 8.0178328 1.3038499
12.612394 7.939086 1.3038499
12.619024 7.834516 1.2994921
12.701519 7.7766423 1.3029783
12.741602 7.6915345 1.3021067
12.789678 7.6113253 1.3021067
12.837248 7.5308156 1.3021067
12.875688 7.4450231 1.3012352
12.913556 7.3590436 1.3003637
12.950853 7.2728825 1.2994921
12.996294 7.1913667 1.2994921
13.041223 7.1095672 1.2994921
13.085635 7.0274868 1.2994921
13.129342 6.9454875 1.2994921
13.163289 6.8594027 1.2986206
13.214584 6.7819014 1.2994921
13.248044 6.6942453 1.2986206
13.298762 6.6153111 1.2994921
13.366906 6.5447636 1.3021067
13.389815 6.4520001 1.3003637
13.43009 6.3677425 1.3003637
13.469834 6.2832336 1.3003637
13.518101 6.202631 1.3012352
13.55664 6.1179423 1.3012352
13.60339 6.0378723 1.3021067
13.649832 5.9570827 1.3029783
13.686992 5.871201 1.3029783
11.125764 4.6899843 1.0563276
10.4003 4.3074136 0.98485988
9.7627735 3.9716961 0.92210776
9.1677198 3.6626506 0.86371338
8.6434774 3.390116 0.8122915
8.2000427 3.1560695 0.76871365
7.8097544 2.949357 0.7303651
7.426209 2.7520583 0.69288814
7.0874166 2.5764575 0.65976894
6.7844191 2.4181583 0.63013601
6.5454936 2.2869506 0.60660398
6.2767987 2.1495266 0.58045721
6.0256076 2.0216966 0.55605364
5.8110495 1.9091712 0.53513622
5.6332583 1.8116244 0.51770508
5.435473 1.710409 0.49853083
5.2461677 1.6146836 0.48022813
5.0845003 1.5300189 0.46454009
4.9506545 1.4558831 0.45146674
4.7873597 1.3752401 0.43577871
2.9584928 0.42303151 0.26146722
2.9117298 0.39777341 0.25710943
2.8647463 0.37328923 0.25275165
2.8175826 0.34932551 0.24839386
2.7801468 0.32696104 0.24490763
2.7326419 0.30397964 0.24054985
2.6948676 0.28264743 0.23706362
2.6569345 0.26180211 0.23357739
2.6188476 0.24144474 0.23009115
2.5806112 0.22157682 0.22660492
2.5521607 0.20298856 0.22399026
2.5136392 0.18410784 0.22050403
2.4849129 0.16653158 0.21788935
2.4560702 0.14925171 0.21527468
2.4171708 0.13164982 0.21178845
2.3880959 0.11508718 0.20917378
2.3589034 0.099035181 0.20655911
2.319654 0.082866564 0.20307288
2.3002195 0.067503072 0.20132977
2.3006015 0.052910946 0.20132977
2.2909279 0.038288396 0.2004582
2.301084 0.024060084 0.20132977
2.2912271 0.00976012 0.2004582
2.3012054 -0.0045184726 0.20132977
2.3110931 -0.019059364 0.20220132
2.3208885 -0.033724684 0.20307288
2.3305907 -0.048513845 0.20394443
2.3302417 -0.063092738 0.20394443
2.3397624 -0.077860571 0.204816
2.3491867 -0.092813231 0.20568755
2.3485572 -0.1075717 0.20568755
2.3677318 -0.12336227 0.20743066
2.36691 -0.13823666 0.20743066
2.3858812 -0.15432706 0.20917378
2.3948164 -0.16981149 0.21004534
2.3937132 -0.18471138 0.21004534
2.4024327 -0.20057663 0.21091689
2.411047 -0.21655872 0.21178845
2.4195549 -0.23265694 0.21266001
2.4279623 -0.2488043 0.21353157
2.4362776 -0.26491961 0.21440312
2.4444785 -0.28121454 0.21527468
2.4525526 -0.29776871 0.21614625
2.460515 -0.31443539 0.2170178
2.4683642 -0.33121383 0.21788935
2.4761088 -0.34803569 0.21876091
2.4936173 -0.36626586 0.22050403
2.4912896 -0.38177714 0.22050403
2.5085163 -0.40056443 0.22224714
2.5157773 -0.41795054 0.22311869
2.5229185 -0.43544367 0.22399026
2.5299509 -0.45297387 0.22486182
2.5368907 -0.47045669 0.22573337
2.543684 -0.48818171 0.22660492
2.560065 -0.50825614 0.22834805
2.5665627 -0.52641678 0.2292196
2.5827441 -0.54643261 0.23096271
3.2901232 -0.80453628 0.29632953
3.3140612 -0.83218437 0.29894421
3.3377817 -0.86016017 0.30155885
3.3420193 -0.8833701 0.30243042
3.374918 -0.91457319 0.30591664
3.3883021 -0.94109225 0.30765978
3.4014854 -0.96781534 0.30940288
3.4144661 -0.99474108 0.31114599
3.4272418 -1.0218679 0.3128891
3.4588678 -1.0550071 0.31637534
3.4711909 -1.0826511 0.31811845
3.4833026 -1.1104915 0.31986156
3.4857595 -1.1353461 0.32073313
3.4975641 -1.163209 0.32247624
3.5091236 -1.1913577 0.32421935
3.5203946 -1.2199062 0.32596248
3.5502286 -1.2552847 0.3294487
3.5703847 -1.287706 0.33206338
3.6193721 -1.3565361 0.33816427
3.6294727 -1.3861425 0.33990738
3.6299756 -1.4125322 0.34077895
3.6395507 -1.4426538 0.34252205
3.6581275 -1.4766802 0.34513673
3.6764605 -1.5108961 0.34775141
3.7037909 -1.5490206 0.35123762
3.7215786 -1.5837427 0.3538523
3.7481213 -1.6229281 0.35733855
3.7652006 -1.6584928 0.35995322
3.763797 -1.6861904 0.36082476
3.7894373 -1.726222 0.36431101
6.1788154 -6.3167634 0.77307141
6.1322575 -6.3481278 0.77219987
5.9784889 -6.5066838 0.77307141
6.0713663 -6.6916752 0.79050255
7.3254466 -8.1765366 0.96045625
7.2739277 -8.2224026 0.96045625
7.2157941 -8.2602425 0.95958471
7.1579676 -8.2972507 0.95871317
6.9310336 -8.3457794 0.94912601
7.2139893 -8.7968235 0.99531859
6.8581967 -8.469923 0.95348382
6.7861834 -8.4895029 0.95086914
6.7391138 -8.5396099 0.95174068
6.8575101 -8.8012323 0.97614431
7.0334077 -9.1437931 1.0092635
12.776955 -16.828438 1.8485733
12.659019 -16.892441 1.8468301
12.540783 -16.955627 1.8450871
12.428595 -17.025702 1.8442155
12.311216 -17.086218 1.8424723
12.198407 -17.154716 1.8416008
11.739882 -16.734606 1.7884358
11.639628 -16.816608 1.7893074
11.535208 -16.888407 1.7893074
11.418749 -16.943344 1.7875643
11.306551 -17.006458 1.7866927
11.232722 -17.126837 1.7919221
-1.0021999 -1.6562562 -0.30661154
-1.0228281 -1.6668184 -0.30974025
-1.043718 -1.6771302 -0.31286892
-1.0647774 -1.6872447 -0.3159976
-1.0860047 -1.69716 -0.31912631
-1.1127739 -1.7151604 -0.32381934
-1.1343839 -1.7246386 -0.32694802
-1.1561565 -1.7339121 -0.33007672
-1.183621 -1.7511626 -0.33476976
-1.2001827 -1.7518393 -0.33633408
-1.2280661 -1.7686024 -0.34102714
-1.2505226 -1.7770059 -0.34415582
-1.2788676 -1.7932378 -0.34884885
-1.3016211 -1.8012203 -0.35197753
-1.3302596 -1.8170294 -0.35667059
-1.3592032 -1.8325074 -0.36136362
-1.3884914 -1.8476185 -0.36605665
-1.4180225 -1.862433 -0.37074968
-1.447794 -1.8769485 -0.37544271
-1.4838845 -1.898945 -0.3817001
-1.5141774 -1.9128165 -0.38639313
-1.5508184 -1.9341375 -0.39265051
-1.5814507 -1.9474937 -0.39734355
-1.6186454 -1.9681193 -0.4036009
-1.656266 -1.9882654 -0.40985829
-1.6942027 -2.0080152 -0.41611567
-1.7324518 -2.0273657 -0.42237306
-1.77101 -2.0463138 -0.42863044
-1.8163841 -2.0722835 -0.43645215
-4.9823422 -0.97433698 -0.80407315
-4.8719058 -0.92099833 -0.78530103
-3.6164865 -0.24559511 -0.5741145
-3.5785255 -0.22043921 -0.56785709
-3.5305245 -0.19533949 -0.56003535
-3.482342 -0.17103773 -0.55221367
-3.4438686 -0.14765215 -0.54595625
-3.3953769 -0.12420646 -0.53813457
-3.3566008 -0.10167327 -0.53187716
-3.3176773 -0.079634093 -0.5256198
-3.2786107 -0.058086321 -0.51936239
-3.2295299 -0.036921483 -0.51154071
-3.190191 -0.016424855 -0.5052833
-3.1606007 0.0035854699 -0.50059026
-3.1210093 0.023151724 -0.49433291
-3.0911744 0.042354267 -0.48963988
-3.0513496 0.060886338 -0.48338249
-3.0114198 0.07875865 -0.47712511
-2.9812555 0.096554779 -0.47243208
-2.9509816 0.11413857 -0.46773905
-2.9206054 0.13134734 -0.46304601
-2.8802669 0.1476717 -0.45678863
-2.859561 0.16463132 -0.45365995
-2.8288999 0.18070546 -0.44896692
-2.7981505 0.19640239 -0.44427386
-2.7771652 0.21247208 -0.44114518
-2.7462533 0.22738136 -0.43645215
-2.7152779 0.2417651 -0.43175912
-2.6842225 0.25586101 -0.42706609
-2.6629093 0.27072269 -0.42393738
-2.6415162 0.28532812 -0.4208087
-2.6200457 0.29967409 -0.41768003
-2.5886939 0.31257901 -0.41298699
-2.5670829 0.3263461 -0.40985829
-2.5356116 0.3385483 -0.40516526
-2.5138712 0.35173535 -0.40203658
-2.4920781 0.36458173 -0.39890787
-2.4702435 0.37703529 -0.39577919
-2.4385843 0.38776091 -0.39108616
-2.4263554 0.40146232 -0.38952181
-2.4043169 0.4133532 -0.38639313
-2.3822255 0.42498186 -0.38326442
-2.3600695 0.43642733 -0.38013574
-2.3378401 0.44773826 -0.37700707
-2.3252668 0.46062663 -0.37544271
-2.3029742 0.47126672 -0.37231401
-2.2806559 0.4815709 -0.36918533
-2.2679775 0.49359235 -0.36762097
-2.2455835 0.50338811 -0.3644923
-2.2231288 0.51304495 -0.36136362
-2.2006416 0.52244091 -0.35823491
-2.1877205 0.53391522 -0.35667059
-2.174742 0.5452491 -0.35510623
-2.1617084 0.55643988 -0.35354188
-2.1295211 0.56244528 -0.34884885
-2.1164119 0.57323158 -0.3472845
-2.1032512 0.58387661 -0.34572017
-2.0805409 0.59167612 -0.34259146
-2.0578358 0.59914666 -0.33946279
-2.0446181 0.60906595 -0.33789843
-1.1510162 1.0537885 -0.24716645
-1.1588933 1.0743922 -0.25029513
-1.1594155 1.0883118 -0.25185949
-1.1526144 1.0955123 -0.25185949
-1.1457086 1.1027323 -0.25185949
-1.138757 1.1099095 -0.25185949
-1.1317611 1.1170423 -0.25185949
-1.1177341 1.1171495 -0.25029513
-1.1037513 1.1171241 -0.24873079
-1.0967101 1.1240373 -0.24873079
-1.0827733 1.123793 -0.24716645
-1.0756906 1.1305743 -0.24716645
-1.0753292 1.1445086 -0.24873079
-1.0681165 1.1512429 -0.24873079
-1.0541903 1.1506484 -0.24716645
-1.0469776 1.157215 -0.24716645
-1.0397874 1.16368 -0.24716645
-1.0259842 1.1627278 -0.2456021
-1.0186586 1.1691511 -0.2456021
-1.0112923 1.1755286 -0.2456021
-1.0038866 1.1818593 -0.2456021
-2.511133 3.8454611 -0.72742027
-2.497617 3.8777709 -0.73054892
-2.4732041 3.8933866 -0.73054892
-2.4591784 3.9255903 -0.73367763
-2.4188936 3.9157548 -0.72898459
-2.3942416 3.9308763 -0.72898459
-2.3644123 3.9373741 -0.72742027
-2.3446569 3.9606521 -0.72898459
-2.3147483 3.9667745 -0.72742027
-2.2947021 3.9898026 -0.72898459
-2.2647188 3.9955485 -0.72742027
-2.2395685 4.0096998 -0.72742027
-2.2143316 4.0236917 -0.72742027
-2.1891387 4.0374537 -0.72742027
-2.1640804 4.05094 -0.72742027
-2.1388068 4.0643406 -0.72742027
-2.1132288 4.0776982 -0.72742027
-2.0875652 4.0908961 -0.72742027
-2.0618215 4.1039314 -0.72742027
-2.0359941 4.1168056 -0.72742027
-2.0100884 4.1295161 -0.72742027
-1.9841012 4.142065 -0.72742027
-1.958038 4.154449 -0.72742027
-1.9360497 4.175631 -0.72898459
-1.6576821 4.3360705 -0.73524195
-1.6166246 4.3093743 -0.72898459
-1.5959581 4.3381248 -0.7321133
-1.5719273 4.3573918 -0.73367763
-1.5514865 4.3856707 -0.73680633
-1.530612 4.4139123 -0.73993498
-1.1988245 4.5357661 -0.74306369
-1.1678393 4.5336442 -0.74149936
-1.148944 4.5792127 -0.74775672
-1.1224941 4.5959358 -0.7493211
-1.0981599 4.622117 -0.75244975
-1.069098 4.6289253 -0.75244975
-1.0378293 4.6259141 -0.75088543
-1.0108463 4.641994 -0.75244975
1.0262444 3.0415194 -0.508412
1.0389017 3.0163343 -0.5052833
1.0545582 3.0004292 -0.50371897
1.070056 2.9844465 -0.50215465
1.0786109 2.9498358 -0.49746159
1.0936738 2.9337456 -0.49589723
1.1085773 2.9175832 -0.49433291
1.1197548 2.892139 -0.4912042
1.1306565 2.8666701 -0.48807552
1.1412828 2.8411794 -0.48494685
1.1553727 2.8248107 -0.48338249
1.1655058 2.7992592 -0.48025379
1.1830709 2.7918811 -0.48025379
1.192768 2.766253 -0.47712511
1.2061574 2.7496593 -0.47556075
1.2193859 2.7330067 -0.47399643
1.3693914 2.3571064 -0.43175912
1.3942047 2.3654737 -0.4348878
1.4191768 2.3736215 -0.4380165
1.4545492 2.3984385 -0.44427386
3.6319952 3.6453321 -0.81502354
3.6337826 3.6015813 -0.81033051
3.6716516 3.5487704 -0.80876619
3.8080752 3.6348658 -0.83379567
3.9239504 3.6992798 -0.85413218
4.7006621 4.1071544 -0.98866582
5.8251009 1.9518784 -0.97302234
5.6307874 1.8474983 -0.9386068
5.4542084 1.7516799 -0.9073199
5.2766547 1.6581558 -0.87603301
5.0981488 1.5669345 -0.84474611
4.9470892 1.486551 -0.81815225
4.8047042 1.4109125 -0.79312271
2.9697852 0.44251269 -0.47556075
2.9236171 0.41687322 -0.46773905
2.877233 0.3919259 -0.45991731
2.8306332 0.36772951 -0.4520956
2.7936594 0.34524566 -0.44583821
2.7467251 0.32193699 -0.4380165
2.6996098 0.29923195 -0.43019477
2.662143 0.27815834 -0.42393738
2.6146898 0.25660282 -0.41611567
2.5867438 0.23746057 -0.41142264
2.5389798 0.21699759 -0.4036009
2.5107548 0.19870317 -0.39890787
2.4823954 0.18085305 -0.39421484
2.4440482 0.16284233 -0.38795745
2.4252973 0.14642549 -0.38482878
2.3867195 0.12905133 -0.37857139
2.3578825 0.11271601 -0.37387836
2.3289306 0.096873425 -0.36918533
2.2998793 0.081243001 -0.3644923
2.2904775 0.066304468 -0.36292794
2.2908516 0.051786669 -0.36292794
2.2911317 0.037391871 -0.36292794
2.3011973 0.023170095 -0.3644923
2.3210502 0.0089883795 -0.36762097
2.3309381 -0.0054921778 -0.36918533
2.3308575 -0.020137712 -0.36918533
2.3405607 -0.034929838 -0.37074968
2.3402951 -0.04963525 -0.37074968
2.3498123 -0.064533204 -0.37231401
2.3493674 -0.079090945 -0.37231401
2.3685672 -0.094510488 -0.37544271
2.3679266 -0.1093907 -0.37544271
2.3770559 -0.12478437 -0.37700707
2.376225 -0.139717 -0.37700707
2.3851612 -0.15520798 -0.37857139
2.3940058 -0.17068571 -0.38013574
2.4027433 -0.18635769 -0.3817001
2.401525 -0.2014505 -0.3817001
2.4198859 -0.21831056 -0.38482878
2.4184663 -0.23351076 -0.38482878
2.4366097 -0.25064391 -0.38795745
2.4448285 -0.26680738 -0.38952181
2.4431193 -0.28203028 -0.38952181
2.4511034 -0.2985695 -0.39108616
2.4589758 -0.31522012 -0.39265051
2.4667354 -0.33198139 -0.39421484
2.4743924 -0.34877154 -0.39577919
2.4819553 -0.36553481 -0.39734355
2.499155 -0.38398695 -0.40047222
2.5064459 -0.40124321 -0.40203658
2.513618 -0.41860619 -0.4036009
2.5304029 -0.43775874 -0.40672961
2.5373387 -0.4553107 -0.40829393
2.5441797 -0.47282749 -0.40985829
2.5605674 -0.49247938 -0.41298699
2.5670652 -0.51070839 -0.41455132
2.5734689 -0.52887177 -0.41611567
-1.0026318 -1.6555223 0.23764521
-1.0181276 -1.6576973 0.23886392
-1.0390182 -1.6681172 0.2413013
-1.0600796 -1.6783394 0.24373868
-1.0759569 -1.6800038 0.24495737
-1.1027076 -1.6981835 0.24861346
-1.1297287 -1.7160923 0.25226954
-1.1625273 -1.7419837 0.2571443
-1.1845722 -1.7510871 0.25958169
-1.2067771 -1.7599815 0.2620191
-1.2291399 -1.7686656 0.26445648
-1.2630899 -1.7933669 0.26933125
-1.2858653 -1.8015527 0.27176863
-1.3087237 -1.8095727 0.27420601
-1.3316429 -1.8174421 0.2766434
-1.3606955 -1.8330139 0.28029948
-1.3900838 -1.8482252 0.28395557
-1.4137005 -1.8552439 0.28639296
-1.4495903 -1.8777516 0.29126772
-1.4797033 -1.8920618 0.29492381
-1.5162162 -1.9138467 0.29979858
-1.5405626 -1.9198231 0.30223596
-1.5774671 -1.9410515 0.30711073
-1.6147679 -1.9618332 0.31198552
-1.6461297 -1.9745195 0.31564158
-1.6905209 -2.0020554 0.32173505
-1.7224197 -2.0140235 0.32539114
-1.7610333 -2.0331714 0.33026591
-1.8064997 -2.0593741 0.33635938
-1.8456919 -2.0777345 0.34123415
-5.1661921 -3.930243 0.7970255
-5.1907845 -3.8977053 0.7970255
-5.2071977 -3.8591042 0.79580683
-5.3755445 -3.931783 0.8177433
-5.6496272 -4.0780129 0.85552275
-5.9255881 -4.2211747 0.89330226
-6.4875183 -4.5611453 0.97373605
-6.0917683 -4.2264047 0.91036397
-6.1427741 -4.2048655 0.91402006
-6.1443963 -4.1495214 0.91036397
-6.2033882 -4.1328459 0.91523874
-6.245822 -4.1046896 0.91767615
-6.2631607 -4.0599666 0.91645747
-6.2885461 -4.0205336 0.91645747
-6.3220797 -3.9862363 0.91767615
-6.3299923 -3.9361959 0.91523874
-6.3627195 -3.9020898 0.91645747
-6.3869224 -3.8623478 0.91645747
-6.4025383 -3.817059 0.91523874
-6.4349523 -3.7817845 0.91645747
-6.4499984 -3.7363029 0.91523874
-6.4647269 -3.6907818 0.91402006
-6.4877892 -3.65009 0.91402006
-6.5105953 -3.6092544 0.91402006
-6.5331445 -3.5682759 0.91402006
-6.5554352 -3.5271568 0.91402006
-6.5686975 -3.4812505 0.91280138
-6.5903101 -3.4401605 0.91280138
-6.6114984 -3.3992622 0.91280138
-6.6502719 -3.3669457 0.91523874
-6.6624122 -3.320667 0.91402006
-6.6742344 -3.2743688 0.91280138
-6.694675 -3.2323706 0.91280138
-6.7238173 -3.1945026 0.91402006
-6.7437563 -3.1521928 0.91402006
-6.7634287 -3.1097584 0.91402006
-6.7828345 -3.0672014 0.91402006
-6.8110414 -3.0285559 0.91523874
-6.829936 -2.9857013 0.91523874
-6.8576798 -2.9466472 0.91645747
-6.8760591 -2.9035013 0.91645747
-6.8940573 -2.8605032 0.91645747
-6.9208393 -2.821481 0.91767615
-6.9475083 -2.7819703 0.91889483
-6.9648509 -2.7382631 0.91889483
-6.9819183 -2.6944478 0.91889483
-7.0079923 -2.6540413 0.9201135
-7.0594401 -2.5725675 0.92255092
-7.0661178 -2.5248215 0.92133224
-7.0912099 -2.483655 0.92255092
-7.1159701 -2.442544 0.92376959
-7.1309671 -2.3984079 0.92376959
-7.1457806 -2.3539057 0.92376959
-7.1793222 -2.3150535 0.92620701
-7.2031918 -2.2728856 0.92742568
-7.2173305 -2.227582 0.92742568
-7.2406864 -2.1850579 0.92864436
-7.2542725 -2.1395204 0.92864436
-7.2866473 -2.0993943 0.93108177
-7.3092489 -2.0562577 0.93230045
-7.3315187 -2.013201 0.93351912
-7.3534384 -1.9703065 0.93473786
-7.3751817 -1.9269348 0.93595654
-7.4063807 -1.8854547 0.93839395
-7.4277158 -1.8412682 0.93961263
-8.1112356 -1.7956214 1.0200464
-7.481885 -1.6070551 0.93961263
-7.4918351 -1.5600115 0.93961263
-5.0399108 -1.0164559 0.63128316
-4.948781 -0.96575701 0.61909628
-3.5281436 -0.19383742 0.43385485
-3.4697948 -0.16907465 0.4265427
-3.4311152 -0.14575602 0.42166793
-3.3922873 -0.12276004 0.41679314
-3.3433867 -0.099959366 0.41069967
-3.3042579 -0.078014165 0.4058249
-3.264987 -0.056562889 0.40095013
-3.2355032 -0.035719518 0.39729404
-3.1959624 -0.015199963 0.39241928
-3.1562932 0.0048195878 0.38754451
-3.1164999 0.024341725 0.38266972
-3.0865121 0.04350223 0.37901366
-3.0464864 0.061969452 0.37413889
-3.016278 0.080054499 0.3704828
-2.9958801 0.098205708 0.36804542
-2.9456146 0.11508902 0.36195195
-2.9150875 0.13224584 0.35829586
-2.8844624 0.14902209 0.35463977
-2.8537426 0.16542031 0.35098371
-2.8328369 0.18207355 0.34854633
-2.8019345 0.19777332 0.34489024
-2.7709477 0.21309055 0.34123415
-2.7398891 0.22792268 0.33757809
-2.7087662 0.24224256 0.333922
-2.687443 0.25723258 0.33148462
-2.6660254 0.27209687 0.32904723
-2.6445277 0.28670368 0.32660982
-2.6130919 0.299918 0.32295376
-2.591449 0.31394383 0.32051638
-2.5598884 0.32645267 0.31686029
-2.5381112 0.33989623 0.31442291
-2.5162673 0.35307777 0.31198552
-2.4943726 0.365904 0.30954814
-2.472435 0.37834951 0.30711073
-2.4504249 0.39063001 0.30467334
-2.428339 0.40276989 0.30223596
-2.3964164 0.41296354 0.29857987
-2.3840039 0.42626479 0.2973612
-2.361743 0.43770999 0.29492381
-2.3394117 0.44900426 0.29248643
-2.3170505 0.45994431 0.29004905
-2.2946687 0.47050568 0.28761163
-2.281975 0.48277253 0.28639296
-2.2595446 0.49267358 0.28395557
-2.237061 0.50239998 0.28151819
-2.22419 0.51420957 0.28029948
-2.2016027 0.5235821 0.2778621
-2.1789865 0.53269011 0.27542472
-2.1563435 0.54153597 0.27298734
-2.1432872 0.55259532 0.27176863
-2.1205819 0.5609749 0.26933125
-2.1074364 0.57168859 0.26811254
-2.0942397 0.58226049 0.26689386
-2.0714486 0.5899694 0.26445648
-2.0581951 0.6001159 0.26323777
-2.0354147 0.6071825 0.26080039
-1.1562616 1.0594255 0.19255356
-1.156899 1.0733765 0.19377226
-1.150226 1.0805241 0.19377226
-1.1434678 1.0876735 0.19377226
-1.1366115 1.0948364 0.19377226
-1.1297097 1.1019565 0.19377226
-1.1157026 1.1020576 0.19255356
-1.1087558 1.1090462 0.19255356
-1.101766 1.1159905 0.19255356
-1.0383643 1.1485884 0.19011617
-1.0246172 1.1475964 0.18889748
-1.0108792 1.1465164 0.18767878
1.0093002 3.1160188 0.40216884
1.0226231 3.0907695 0.39973143
1.0356688 3.0654767 0.39729404
1.0484375 3.0401425 0.39485666
1.0609288 3.0147698 0.39241928
1.0731429 2.9893608 0.3899819
1.0884922 2.9732387 0.38876319
1.0967398 2.9384441 0.38510713
1.1116518 2.9222183 0.38388842
1.1228161 2.896667 0.38145104
1.1373488 2.8803232 0.38023233
1.1480172 2.8547027 0.37779495
1.1621699 2.838248 0.37657627
1.1723427 2.812567 0.37413889
1.1861151 2.7960081 0.37292019
1.1957924 2.7702749 0.3704828
1.2091842 2.753619 0.3692641
1.2183661 2.7278421 0.36682671
1.2272724 2.702059 0.36438933
1.4016095 2.3421509 0.33514068
1.4368987 2.3672371 0.34001547
1.4725575 2.3919709 0.34489024
5.1856503 7.648386 1.1346036
5.2785759 7.6810932 1.1443532
5.3718204 7.7131376 1.1541027
5.38517 7.6310492 1.1467905
5.4499578 7.6215506 1.1504465
5.4627943 7.5389338 1.1431345
5.5220904 7.5202518 1.1455718
5.5639601 7.4769583 1.1443532
5.5992432 7.4257259 1.1419157
2.3575609 2.9694409 0.46554089
2.3637309 2.9391005 0.4631035
8.4343204 8.8949118 1.5050864
8.9643841 9.3357344 1.5891762
3.6389716 3.6038921 0.62884581
3.6615436 3.5809567 0.62884581
3.6768315 3.5509849 0.62762713
3.7133002 3.5416548 0.63006449
3.8435433 3.6206663 0.64834487
3.9388499 3.6640906 0.66053182
4.6583991 4.1713114 0.76777685
4.6770802 4.135385 0.76655817
4.6880174 4.0928612 0.76412076
4.7211585 4.0698051 0.76533943
4.9658284 4.226625 0.80068159
5.0985036 4.2849336 0.8177433
5.2929859 4.3927131 0.84455454
5.4814878 4.4917407 0.87014711
5.6639323 4.5820627 0.89452094
5.8865004 4.7012348 0.92498833
6.0951934 4.8054943 0.95301825
6.328732 4.9258413 0.98470426
6.5637555 5.0437746 1.0163903
6.8323045 5.182713 1.0529511
7.1348734 5.341938 1.0943867
7.423737 5.4857607 1.1333848
7.7948732 5.6846409 1.18457
8.1849012 5.8906593 1.2381926
8.593996 6.1034856 1.2942524
9.0711002 6.3569627 1.3600619
9.5925303 6.6328983 1.4319648
10.158763 6.9304872 1.5099611
12.367687 8.3240652 1.8304775
12.428014 8.2516823 1.8316962
12.487918 8.1788702 1.8329149
12.530724 8.0948601 1.8316962
12.564596 8.0053005 1.8292588
12.597535 7.9161177 1.8268214
12.621032 7.822227 1.8231653
12.67802 7.7485704 1.8243841
12.717954 7.6636367 1.8231653
12.765854 7.5835767 1.8231653
12.804686 7.4982023 1.8219466
12.851545 7.4176006 1.8219466
12.88927 7.3317986 1.8207279
12.935082 7.2506685 1.8207279
12.989073 7.1740508 1.8219466
13.025173 7.087553 1.8207279
13.069448 7.0055747 1.8207279
13.130497 6.9330893 1.8231653
13.15559 6.8424401 1.8207279
13.197991 6.7602944 1.8207279
13.249068 6.681706 1.8219466
13.281898 6.5939145 1.8207279
13.340902 6.5190477 1.8231653
13.39949 6.4436979 1.8256028
13.430739 6.3551364 1.8243841
13.461407 6.2664347 1.8231653
13.509538 6.185863 1.8243841
13.556955 6.1054521 1.8256028
13.594523 6.0213366 1.8256028
13.640897 5.940434 1.8268214
13.677952 5.854609 1.8268214
11.11613 4.6756449 1.4807125
10.393096 4.2948704 1.3807796
9.7301226 3.9495094 1.2893777
9.1646662 3.6530867 1.2113812
8.6237507 3.3744581 1.137041
8.1447144 3.1273303 1.0712315
7.7648482 2.9255292 1.0188277
7.3918223 2.732806 0.96764255
