# .PCD v0.7 - Point Cloud Data file format
VERSION 0.7
FIELDS x y z
SIZE 4 4 4
TYPE F F F
COUNT 1 1 1
WIDTH 1478
HEIGHT 1
VIEWPOINT 0 0 0 1 0 0 0
POINTS 1478
DATA ascii
-5.701715 1.1981611 0.71537304
-5.6746731 1.2297595 0.71293563
-4.7605457 2.8109283 0.67881221
-4.7599592 2.8507524 0.68124962
-4.7589202 2.8909087 0.68368703
-4.7406611 2.920754 0.68368703
-4.7222171 2.9504812 0.68368703
-4.6952004 2.9747825 0.6824683
-4.6764174 3.0042233 0.6824683
-4.6574483 3.0335479 0.6824683
-4.6382971 3.0627501 0.6824683
-4.6272087 3.0973554 0.68368703
-4.6076574 3.1263664 0.68368703
-4.5879235 3.1552541 0.68368703
-4.5680089 3.1840172 0.68368703
-4.523592 3.195477 0.68003094
-4.5357084 3.2469451 0.68490571
-4.5150914 3.2755539 0.68490571
-4.5101271 3.3160086 0.68734306
-4.4971261 3.3502598 0.6885618
-4.4842038 3.3840387 0.68978047
-4.4551358 3.4058988 0.6885618
-4.7382464 3.8640716 0.75071514
-4.5608253 3.7673466 0.72634125
-4.3086896 3.6048572 0.68978047
-4.3162432 3.6575263 0.69465524
-4.315774 3.7039649 0.69831133
-4.2924151 3.7310097 0.69831133
-4.2614388 3.7513466 0.69709265
-4.2377834 3.778049 0.69709265
-4.2286968 3.8179026 0.69953001
-4.2046237 3.844398 0.69953001
-4.1876698 3.8774827 0.70074874
-4.1706138 3.9103482 0.70196742
-4.1535034 3.9429481 0.70318609
-4.0930643 3.9343727 0.69709265
-3.9758036 3.8700109 0.68124962
-3.8665838 3.8113043 0.66662532
-3.7512391 3.7443674 0.65078229
-3.650851 3.690249 0.63737667
-3.5512962 3.6350179 0.62397105
-3.4594719 3.5858295 0.6117841
-2.144979 2.8701239 0.43994832
-2.0974455 2.8436055 0.43385485
-2.0504375 2.8165274 0.42776138
-2.0097792 2.7969365 0.42288661
-1.9693384 2.7770259 0.41801184
-1.4218602 2.4339519 0.34610894
-1.431303 2.4858451 0.35220239
-1.4205536 2.5034218 0.35342109
-1.4096409 2.5209608 0.35463977
-1.3937728 2.5297682 0.35463977
-1.382586 2.5471985 0.35585847
-1.3713319 2.5645359 0.35707718
-2.6568534 5.5396891 0.75437123
-2.6347005 5.5832024 0.75802732
-2.7740388 7.3870506 0.96886128
-2.730999 7.4136491 0.97007996
-1.1105425 9.1736288 1.1346036
-1.0562717 9.2100086 1.1382596
1.0306123 6.8408484 0.84942931
1.0920573 6.9519005 0.86405361
1.1549379 7.0624461 0.87867796
1.2209132 7.1822562 0.89452094
1.2887176 7.3014617 0.91036397
1.3584412 7.4200253 0.92620701
1.4312884 7.5477982 0.94326872
1.5054301 7.6750145 0.96033043
1.5831978 7.8113189 0.97861081
1.6668018 7.9663739 0.99932861
1.7521055 8.1207466 1.0200464
1.8368411 8.26476 1.0395455
1.9259621 8.4176311 1.0602633
2.0220287 8.5889292 1.0834185
2.1273279 8.7882862 1.1102297
2.2352097 8.9866495 1.137041
2.3456664 9.1839972 1.1638522
2.4612055 9.3899031 1.1918821
2.5871532 9.6234674 1.2235682
2.7161303 9.8558092 1.2552543
2.8562176 10.115557 1.2905964
2.9969163 10.364387 1.3247198
3.1521189 10.649907 1.3637179
3.3110244 10.933874 1.4027162
3.4824281 11.244697 1.4453704
4.3139434 13.626083 1.7549185
4.3994722 13.59871 1.7549185
4.4754848 13.542526 1.7512624
4.5509648 13.485926 1.7476064
4.6291442 13.438296 1.7451689
4.710196 13.399582 1.7439502
4.7875943 13.351036 1.7415129
4.8679767 13.31137 1.7402942
4.9480505 13.271221 1.7390755
5.0242863 13.221313 1.7366381
5.1000905 13.170973 1.7342007
5.1791029 13.129436 1.732982
5.2540946 13.078215 1.7305447
5.3324051 13.035758 1.729326
5.4142056 13.001996 1.729326
5.4880457 12.949445 1.7268885
5.5693007 12.914706 1.7268885
5.6423612 12.86128 1.7244512
5.7230592 12.825575 1.7244512
5.7994294 12.780324 1.7232325
5.8754573 12.734621 1.7220138
5.9553547 12.697453 1.7220138
6.030746 12.650825 1.7207952
6.1101141 12.612683 1.7207952
6.1848574 12.565138 1.7195764
6.272562 12.543785 1.7220138
6.3467579 12.495276 1.7207952
6.4251418 12.455153 1.7207952
6.4986672 12.405744 1.7195764
6.576014 12.364918 1.7195764
6.6477842 12.315203 1.7183577
1.0007991 0.83006835 -0.15964884
1.0059229 0.82385153 -0.15964884
1.0187616 0.82379997 -0.16086753
1.0239176 0.81738263 -0.16086753
1.0368289 0.8170765 -0.16208622
1.0419421 0.81054592 -0.16208622
1.0470144 0.80398321 -0.16208622
1.0520452 0.79738879 -0.16208622
1.0649822 0.79670846 -0.16330491
1.069967 0.79000133 -0.16330491
1.0749096 0.78326297 -0.16330491
1.0798097 0.77649373 -0.16330491
1.0927618 0.77543777 -0.16452362
1.0976124 0.76855648 -0.16452362
1.1105857 0.76728666 -0.16574231
1.1153848 0.76029354 -0.16574231
1.128343 0.75885844 -0.166961
1.1330231 0.75185269 -0.166961
1.1376923 0.74476862 -0.166961
1.1506877 0.7429896 -0.16817969
1.1553333 0.73574495 -0.16817969
1.1683385 0.73375016 -0.16939838
1.1729257 0.72639483 -0.16939838
1.1859376 0.72418356 -0.17061707
1.1904644 0.71671784 -0.17061707
1.1949441 0.70922381 -0.17061707
1.2079437 0.70671397 -0.17183577
1.2123601 0.69911039 -0.17183577
1.2167288 0.69147915 -0.17183577
1.2297094 0.6886704 -0.17305447
1.8468415 0.94466984 -0.25470692
1.8881996 0.95090455 -0.25958169
1.9030297 0.94343048 -0.26080039
1.91784 0.93580747 -0.2620191
2.1509292 0.79394639 -0.28151819
2.1745408 0.78717291 -0.28395557
2.1887639 0.77690971 -0.28517425
2.4174519 0.6418792 -0.30711073
2.4502363 0.6342448 -0.31076682
5.9655008 -1.5895267 -0.75802732
5.9553957 -1.6269774 -0.75802732
5.9354978 -1.6616881 -0.75680864
7.279757 -2.0874364 -0.9298631
7.3427806 -2.1551802 -0.93961263
7.2348661 -2.2714303 -0.93108177
7.20155 -2.3107781 -0.92864436
7.1774573 -2.3528893 -0.92742568
7.4543042 -2.4956222 -0.96520519
4.1862946 -3.2990224 -0.65443838
4.1654825 -3.3252616 -0.65443838
4.152226 -3.3576081 -0.65565705
-4.877871 -3.8164992 -0.76046467
-4.8389125 -3.7372386 -0.75071514
-4.7910991 -3.6528134 -0.73974693
-4.7501974 -3.5753081 -0.72999734
-4.7086744 -3.4982462 -0.72024781
-4.6665268 -3.4216397 -0.71049827
-4.6234589 -3.3459046 -0.70074874
-4.587564 -3.2768111 -0.69221789
-4.5592461 -3.2138109 -0.68490571
-4.5223098 -3.1454301 -0.67637485
-4.4846983 -3.0776396 -0.667844
-4.446414 -3.0104499 -0.65931314
-4.4158483 -2.949183 -0.65200096
-4.3848133 -2.8882332 -0.64468884
-4.3446126 -2.8227723 -0.63615799
-4.3202367 -2.7690201 -0.63006449
-4.2870932 -2.710187 -0.62275231
-4.2534995 -2.6516929 -0.61544019
-4.2361412 -2.6043074 -0.61056542
-4.1196866 -2.392904 -0.58497286
-4.0829563 -2.3373861 -0.57766068
-4.062984 -2.2921772 -0.57278591
-4.0339298 -2.242492 -0.56669241
-4.0131197 -2.1980288 -0.56181765
-3.9831753 -2.1492057 -0.5557242
-3.9615431 -2.1055026 -0.55084944
-3.9395194 -2.0621588 -0.54597467
-3.9170215 -2.0193448 -0.54109985
-3.8940568 -1.9770647 -0.53622508
-3.8708053 -1.9349762 -0.53135031
-3.8383577 -1.8887075 -0.52525687
-3.8233502 -1.8515738 -0.52160078
-3.7990677 -1.810436 -0.51672602
-3.7834084 -1.7738886 -0.51306993
-3.7584267 -1.7334551 -0.50819516
-3.7330887 -1.693404 -0.5033204
-3.7164609 -1.6577859 -0.49966431
-3.6995349 -1.622442 -0.49600822
-3.6823115 -1.5873787 -0.49235213
-3.6647956 -1.5525945 -0.48869607
-3.6378248 -1.5142812 -0.48382127
-3.6288939 -1.4838799 -0.48138389
-3.6105137 -1.4499542 -0.47772783
-3.5918524 -1.4163164 -0.47407174
-3.5729113 -1.3829727 -0.47041565
-3.553695 -1.3499215 -0.46675956
-3.5342045 -1.3171687 -0.4631035
-3.5143886 -1.2848661 -0.45944741
-3.5035958 -1.2563673 -0.45701003
-3.4832759 -1.2246054 -0.45335394
-3.4721329 -1.1962302 -0.45091656
-3.4513681 -1.1648675 -0.44726047
-3.4303465 -1.1338154 -0.44360441
-3.4185164 -1.1061275 -0.44116703
-3.4064736 -1.0786351 -0.43872961
-3.3942218 -1.0513361 -0.43629223
-3.3722622 -1.0213586 -0.43263617
-3.3595788 -0.99451447 -0.43019879
-3.3466914 -0.96787202 -0.42776138
-3.3336031 -0.94142926 -0.42532399
-3.3203151 -0.91519111 -0.42288661
-2.9938078 -0.14851682 -0.36804542
-2.9550173 -0.12798461 -0.36317062
-2.9458396 -0.10917754 -0.36195195
-2.9365387 -0.090616681 -0.36073324
-2.937047 -0.072293229 -0.36073324
-2.7985101 -0.051290747 -0.34367153
-2.8384762 -0.034185123 -0.34854633
-2.7890084 -0.016063284 -0.34245285
-2.7890542 0.0015818762 -0.34245285
-2.7989128 0.01941764 -0.34367153
-2.788811 0.036872786 -0.34245285
-2.7984526 0.054342967 -0.34367153
-2.7881367 0.071548916 -0.34245285
-2.7677913 0.088432617 -0.34001547
-2.7572675 0.10532089 -0.33879676
-2.7367306 0.12152249 -0.33635938
-2.7359192 0.13859518 -0.33635938
-2.725085 0.15521893 -0.33514068
-2.7141502 0.1717106 -0.333922
-2.7031162 0.18807244 -0.33270329
-2.6919842 0.204301 -0.33148462
-2.6807554 0.22039856 -0.33026591
-2.6793177 0.2372371 -0.33026591
-5.8836627 0.78217465 -0.72877866
-5.8884983 0.82023823 -0.72999734
-5.8439412 0.85149759 -0.72512257
-5.8384762 0.8881976 -0.72512257
-5.8327799 0.92486566 -0.72512257
-5.8170609 0.95987815 -0.72390389
-5.7913494 0.99305534 -0.72146648
-5.7654519 1.0259444 -0.71902913
-5.7491307 1.0603507 -0.71781039
-5.7228565 1.0927278 -0.71537304
-5.70614 1.1267425 -0.71415436
-5.6892233 1.1605874 -0.71293563
-5.0602179 1.0654336 -0.63493925
-5.1213202 1.1119472 -0.64347011
-5.5267782 1.3831059 -0.69953001
-5.796762 1.4894339 -0.7348721
-5.518559 1.4549769 -0.70074874
-5.5284715 1.494802 -0.70318609
-5.48071 1.518907 -0.69831133
-5.4710588 1.5533117 -0.69831133
-5.5901265 1.77759 -0.72024781
-5.3428559 1.7359986 -0.68978047
-5.3601031 1.778915 -0.69343656
-5.3394203 1.8093714 -0.69221789
-5.3185658 1.8396409 -0.69099915
-5.297543 1.8697171 -0.68978047
-5.2763515 1.8996048 -0.6885618
-5.2643123 1.932718 -0.6885618
-5.2520642 1.9657577 -0.6885618
-5.2304235 1.9949511 -0.68734306
-5.2087107 2.0237262 -0.68612438
-5.1959825 2.0561852 -0.68612438
-5.18296 2.088793 -0.68612438
-5.1697345 2.121316 -0.68612438
-5.1563029 2.1537576 -0.68612438
-5.1335349 2.1822286 -0.68490571
-5.1197219 2.2144418 -0.68490571
-5.0966229 2.2425673 -0.68368703
-5.0824313 2.2745471 -0.68368703
-5.0590062 2.3023233 -0.6824683
-5.0444398 2.3340657 -0.6824683
-5.0296755 2.3657134 -0.6824683
-5.0147119 2.3972702 -0.6824683
-4.9996572 2.4285114 -0.6824683
-4.9845138 2.4594431 -0.6824683
-4.9600897 2.486264 -0.68124962
-4.9441495 2.517813 -0.68124962
-4.9281216 2.5490422 -0.68124962
-4.9120078 2.5799572 -0.68124962
-4.8957009 2.6107678 -0.68124962
-4.8792014 2.6414754 -0.68124962
-4.8538103 2.6672988 -0.68003094
-4.845623 2.7025793 -0.68124962
-4.8285475 2.7329705 -0.68124962
-4.8112798 2.7632563 -0.68124962
-4.7939458 2.7932212 -0.68124962
-4.776545 2.8228736 -0.68124962
-4.7588396 2.8526206 -0.68124962
-4.7408214 2.8824661 -0.68124962
-4.7226176 2.9121952 -0.68124962
-4.704226 2.941812 -0.68124962
-4.6940322 2.9766254 -0.6824683
-4.6752362 3.0060613 -0.6824683
-4.6562572 3.0353758 -0.6824683
-4.6370926 3.0645733 -0.6824683
-4.6259928 3.0991714 -0.68368703
-4.6064296 3.1281748 -0.68368703
-4.5866847 3.1570549 -0.68368703
-4.5748973 3.1914914 -0.68490571
-4.5547552 3.2201719 -0.68490571
-4.5344319 3.2487278 -0.68490571
-4.5218196 3.2831817 -0.68612438
-4.4958286 3.3520007 -0.6885618
-4.4591322 3.3678291 -0.68612438
-2.2584589 2.9084425 -0.45213526
-2.2159884 2.8910644 -0.44726047
-2.1738248 2.87327 -0.4423857
-2.1141589 2.8312016 -0.43385485
-2.0786619 2.8204598 -0.43019879
-2.031831 2.7932415 -0.42410532
-1.9971186 2.7815895 -0.42044923
-1.9567715 2.7616017 -0.41557446
-1.4411637 2.3994451 -0.34367153
-1.4260585 2.4084532 -0.34367153
-1.4209048 2.43451 -0.34610894
-1.4253765 2.4778039 -0.35098371
-1.4195707 2.5039792 -0.35342109
-1.4038092 2.5128496 -0.35342109
-1.3879935 2.52162 -0.35342109
-1.3768531 2.5390167 -0.35463977
-1.3656604 2.556313 -0.35585847
1.0362636 6.8600717 -0.85186672
1.0963314 6.9612761 -0.86527234
1.1609226 7.0815811 -0.88111532
1.2270679 7.201345 -0.89695835
1.2950828 7.3204956 -0.91280138
1.3667694 7.4487715 -0.9298631
1.4379582 7.5667377 -0.94570607
1.5161011 7.7133789 -0.96520519
1.5941669 7.8496041 -0.98348558
1.0037827 0.80066407 0.2033648
1.0087936 0.79434133 0.2033648
1.0137646 0.78798735 0.2033648
1.0265318 0.78761446 0.20492914
1.0314603 0.78114903 0.20492914
1.036348 0.77465278 0.20492914
1.0411948 0.76812595 0.20492914
1.0539852 0.76738232 0.2064935
1.066807 0.7665081 0.20805784
1.0716021 0.75979006 0.20805784
1.0844476 0.75870401 0.20962217
1.0891933 0.75187528 0.20962217
1.093896 0.74501687 0.20962217
1.1067171 0.7436918 0.21118653
1.1113037 0.7368204 0.21118653
1.1158835 0.72986603 0.21118653
1.1287469 0.72819471 0.21275087
1.141633 0.72639036 0.21431522
1.1461744 0.71920305 0.21431522
1.1506708 0.71198726 0.21431522
1.1635531 0.7098875 0.21587956
1.1679904 0.70256269 0.21587956
1.1808772 0.70024794 0.2174439
1.1937807 0.69779873 0.21900825
1.1981415 0.69028431 0.21900825
1.2024549 0.6827426 0.21900825
1.2067209 0.67517394 0.21900825
1.219589 0.67234701 0.22057259
5.983397 -1.5968118 0.98084408
5.9637189 -1.6317681 0.97927976
5.9438386 -1.6665404 0.97771537
5.9617295 -1.7120321 0.9824084
7.0655603 -2.1244328 1.1685654
6.9766302 -2.1452918 1.1560507
7.0101242 -2.2038958 1.1638724
6.9679284 -2.2388339 1.1591793
7.0663347 -2.3195348 1.1779515
7.2763743 -2.4392309 1.2154958
7.4758348 -2.5584571 1.2514757
9.259243 -3.2339261 1.5533942
9.2294378 -3.288723 1.5518298
9.1157637 -3.3129115 1.5361865
9.1595984 -3.3941453 1.5471368
9.1290216 -3.4476907 1.5455725
9.7343159 -3.7453663 1.651948
9.3704929 -3.6727264 1.5940672
9.0720425 -3.6216717 1.5471368
9.039959 -3.6748817 1.5455725
9.0258169 -3.7353854 1.5471368
9.4392738 -3.9756002 1.6222254
9.2547312 -6.1494102 1.7598877
8.5032139 -5.727396 1.6237897
4.3894148 -3.4618881 0.88541907
4.1746626 -3.3352737 0.84631044
4.1536241 -3.361438 0.84631044
4.124783 -3.3812079 0.84474611
4.1186552 -3.4196765 0.84787476
-4.7054548 -7.7850499 1.4407614
-4.5368228 -7.4020643 1.3750589
-4.3326964 -6.9709339 1.2999704
-4.3922095 -6.9686403 1.3046634
-4.441227 -6.9492283 1.3062278
-4.4901733 -6.9294748 1.3077921
-4.5227776 -6.8846159 1.3046634
-4.5659456 -6.8560624 1.3046634
-4.6144595 -6.8354249 1.3062278
-4.6573143 -6.8062978 1.3062278
-4.6999874 -6.7769008 1.3062278
-4.7481546 -6.7553167 1.3077921
-4.796236 -6.7333946 1.3093565
-4.8384485 -6.7031264 1.3093565
-4.8804698 -6.6725936 1.3093565
-4.9281793 -6.6497321 1.3109208
-4.9754691 -6.6267781 1.3124851
-5.0164318 -6.5958242 1.3124851
-5.0635533 -6.5721917 1.3140495
-5.1108246 -6.5480328 1.3156139
-5.1579919 -6.5235391 1.3171781
-5.2050529 -6.4987111 1.3187425
-5.2520051 -6.4735484 1.3203069
-5.2925758 -6.4404216 1.3203069
-5.3455749 -6.4222231 1.3234355
-5.3921857 -6.3960619 1.3249999
-5.4322667 -6.3620558 1.3249999
-5.4785938 -6.3352695 1.3265642
-5.5244894 -6.3084221 1.3281286
-5.5765753 -6.2888522 1.3312572
-5.6289387 -6.2686014 1.334386
-5.6682143 -6.23311 1.334386
-5.7139568 -6.204638 1.3359503
-5.7663012 -6.1830606 1.339079
-5.8115168 -6.1541734 1.3406433
-5.8631864 -6.1323261 1.3437721
-5.9082375 -6.1026883 1.3453363
-5.9602938 -6.0795512 1.3484651
-6.0053334 -6.0489907 1.3500295
-6.0572267 -6.0250697 1.3531581
-6.1020098 -5.9938135 1.3547225
-6.1537285 -5.9691091 1.3578511
-6.1982446 -5.9371586 1.3594155
-6.2497773 -5.9116712 1.3625442
-6.3009453 -5.8860793 1.3656728
-6.3590708 -5.8670192 1.3703659
-6.4028878 -5.8338442 1.3719302
-6.4467573 -5.8001065 1.3734946
-6.5052247 -5.7791653 1.3781877
-6.5562577 -5.7512045 1.3813163
-6.5997295 -5.7163634 1.3828807
-6.6580348 -5.6940417 1.3875737
-6.7009492 -5.6587963 1.389138
-6.7510524 -5.6298213 1.3922668
-6.8013287 -5.6001067 1.3953954
-6.8593731 -5.575953 1.4000884
-6.9099503 -5.5447693 1.4032171
-6.9606185 -5.5129018 1.4063458
-4.8943949 -3.8263292 0.98397279
-4.8557854 -3.7472279 0.97145802
-4.8161979 -3.6690009 0.95894325
-4.7677941 -3.5856616 0.94486415
-4.7266493 -3.5087194 0.93234938
-4.6848612 -3.432256 0.91983461
-4.642138 -3.356684 0.9073199
-4.6065702 -3.287694 0.89636946
-4.5624118 -3.2133625 0.88385469
-4.5419588 -3.1564503 0.87603301
-4.4883885 -3.0775809 0.86195391
-4.4585519 -3.016114 0.85256779
-4.4282665 -2.9549279 0.84318173
-4.3892479 -2.8886492 0.83223134
-4.3575735 -2.8287942 0.82284528
-4.3251114 -2.7697823 0.81345922
-4.2922211 -2.711071 0.80407315
-4.2672524 -2.6579392 0.79625142
-4.2332435 -2.6002679 0.78686535
-4.1260858 -2.3944554 0.75557846
-4.0896077 -2.3390613 0.7461924
-4.0698066 -2.2939205 0.73993498
-4.0409665 -2.2443261 0.7321133
-4.02033 -2.1999271 0.72585589
-4.0079908 -2.1605632 0.72116286
-3.9691465 -2.1075459 0.71177679
-3.9473009 -2.0642571 0.70551944
-3.9249704 -2.0215194 0.69926202
-3.8933773 -1.9748226 0.69144034
-3.8702886 -1.9328194 0.68518293
-3.8557649 -1.8953919 0.6804899
-3.8320336 -1.8539224 0.67423254
-3.8168528 -1.817072 0.66953951
-3.792417 -1.7762967 0.6632821
-3.7676208 -1.735901 0.65702474
-3.7424681 -1.6958876 0.65076739
-3.7259843 -1.6602794 0.64607435
-3.7092023 -1.6249459 0.64138132
-3.6830525 -1.5859829 0.63512391
-3.665657 -1.5512625 0.63043088
-3.6570916 -1.5206159 0.62730217
-3.6299994 -1.4826691 0.62104481
-3.6209099 -1.4524777 0.61791611
-3.5932055 -1.4152203 0.61165875
-3.5743895 -1.3819306 0.60696572
-3.5645328 -1.3524375 0.60383701
-3.5451908 -1.3196774 0.59914398
-3.525516 -1.2873869 0.59445095
-3.5148277 -1.2588581 0.59132224
-3.4946632 -1.2270676 0.58662921
-3.4836252 -1.1986588 0.58350056
-3.4630094 -1.1672825 0.57880753
-3.4515169 -1.1393089 0.57567883
-3.4304121 -1.1084892 0.57098579
-3.4184747 -1.0809578 0.56785709
-3.3968916 -1.0507019 0.56316406
-3.3939722 -1.0264786 0.56159973
-3.3719394 -0.99673402 0.5569067
-3.3591573 -0.97004747 0.55377799
-3.3461735 -0.94356108 0.55064929
-3.3234677 -0.91465557 0.54595625
-3.3100271 -0.88879603 0.54282761
-3.2963612 -0.86326623 0.5396989
-3.2825475 -0.83777928 0.53657019
-3.258991 -0.80999011 0.53187716
-10.604815 -0.52190495 1.6816704
-10.716431 -0.45992428 1.6988783
-10.827662 -0.3970921 1.716086
-10.948382 -0.33360532 1.7348582
-11.048992 -0.26761696 1.7505016
-2.7848332 -0.049946532 0.44114518
-2.8048446 -0.03267739 0.44427386
-2.8049946 -0.01505422 0.44427386
-2.7951567 0.0026974645 0.44270954
-2.814836 0.020648122 0.44583821
-2.8047752 0.038170129 0.44427386
-2.784735 0.055156801 0.44114518
-2.7645891 0.072032079 0.4380165
-2.764082 0.089400262 0.4380165
-2.7536013 0.10624868 0.43645215
-2.7430232 0.12286618 0.4348878
-2.7323384 0.13949059 0.43332347
-2.7215474 0.15608928 0.43175912
-2.7205129 0.17318682 0.43175912
-5.9318743 1.2125165 0.95894325
-5.6728706 1.1967541 0.91827029
-5.6845412 1.2365744 0.921399
-5.6573839 1.2679453 0.91827029
-5.6396813 1.3012474 0.91670597
-5.6217847 1.3343742 0.91514158
-5.603694 1.3673306 0.91357726
-5.5758314 1.3977078 0.91044855
-5.5669389 1.4327155 0.91044855
-5.5482779 1.465142 0.90888423
-5.5198956 1.4948118 0.90575552
-5.5199118 1.5321047 0.9073199
-5.5101757 1.5667584 0.9073199
-5.4907403 1.5985863 0.90575552
-5.4617367 1.627144 0.90262687
-5.4326539 1.6551968 0.89949816
-5.4127812 1.6861542 0.89793384
-5.3926692 1.7171322 0.89636946
-2.371341 0.78803593 0.39577919
-2.3850489 0.8092677 0.39890787
-5.4654107 2.3665104 0.94329983
-5.0888786 2.2415476 0.88072604
-5.0206127 2.2492476 0.87133998
-5.0603094 2.3053179 0.88072604
-5.0636497 2.3453679 0.88385469
-5.0488129 2.3771386 0.88385469
-5.0426874 2.4130762 0.88541907
-5.0186639 2.440146 0.88385469
-4.9857368 2.4624476 0.88072604
-4.9171715 2.4672027 0.87133998
-4.9629521 2.5298755 0.88229036
-4.9468598 2.5611994 0.88229036
-4.9219279 2.5876334 0.88072604
-4.9142861 2.6231573 0.88229036
-4.8977084 2.6539814 0.88229036
-4.8722816 2.6799431 0.88072604
-4.8467236 2.705688 0.87916166
-4.8296266 2.7360885 0.87916166
-4.8123407 2.7663784 0.87916166
-4.7950006 2.7963269 0.87916166
-4.7775822 2.8259833 0.87916166
-4.7598405 2.8557646 0.87916166
-4.7418041 2.8856137 0.87916166
-4.7235789 2.9153516 0.87916166
-4.713541 2.950212 0.88072604
-4.694911 2.9797709 0.88072604
-4.6760964 3.0092096 0.88072604
-4.6570959 3.038532 0.88072604
-4.6379132 3.0677321 0.88072604
-4.6267509 3.1023116 0.88229036
-4.6071682 3.1313198 0.88229036
-4.5874019 3.1602068 0.88229036
-4.5755544 3.1946206 0.88385469
-4.5553913 3.2233078 0.88385469
-4.5350494 3.2518651 0.88385469
-4.5223565 3.286324 0.88541907
-4.5013299 3.3150659 0.88541907
-4.4804487 3.3432341 0.88541907
-4.4675269 3.3768868 0.88698339
-4.4463511 3.404721 0.88698339
-4.6202407 3.773885 0.94486415
-4.3529167 3.6013663 0.89480513
-4.3150635 3.6159565 0.89167643
-4.3223786 3.6685634 0.89793384
-4.3142242 3.7085249 0.90106249
-4.2833872 3.7290745 0.89949816
-4.267282 3.7624447 0.90106249
-4.2435565 3.7891836 0.90106249
-4.2269917 3.8223953 0.90262687
-4.2101746 3.8555503 0.9041912
-4.1858673 3.8819263 0.9041912
-4.1687865 3.9147062 0.90575552
-4.1516089 3.9472668 0.9073199
-4.0841851 3.9320157 0.89793384
-3.9603903 3.8610718 0.87603301
-3.8517075 3.8026116 0.85726088
-3.7369359 3.735956 0.83692437
-3.6370375 3.6820676 0.81971657
-3.5379689 3.6270726 0.80250877
-3.446588 3.5780964 0.78686535
-2.1799312 2.8836932 0.57255012
-2.1322362 2.8577526 0.56472844
-2.0908129 2.8392801 0.55847102
-2.0440378 2.8123112 0.55064929
-1.9977868 2.7847955 0.54282761
-1.4229487 2.4402146 0.44740257
-1.4272755 2.4833601 0.45365995
-1.4165112 2.5008733 0.45522428
-1.4007704 2.5097237 0.45522428
-1.3897325 2.5271304 0.45678863
-1.3738275 2.5358119 0.45678863
-1.3672926 2.5617547 0.45991731
-2.6565752 5.5502872 0.97458673
-2.6258559 5.5758057 0.97615105
-2.6115315 5.6370029 0.98397279
-1.3052787 9.361619 1.4970778
-1.2386203 9.3108912 1.4876918
-1.1738871 9.2694969 1.47987
-1.1097282 9.2276583 1.4720483
-1.0159596 8.9204187 1.4219893
1.0383097 6.8553872 1.0981699
1.1013879 6.9755564 1.1185064
1.1644146 7.0854526 1.1372786
1.228865 7.1948271 1.1560507
1.2968181 7.3133287 1.1763872
1.3666041 7.431201 1.1967236
1.4394207 7.5582485 1.2186245
1.5155123 7.694416 1.2420896
1.5933709 7.8299193 1.2655548
1.6750213 7.9744086 1.2905843
1.7602409 8.1279144 1.3171781
1.847122 8.2807312 1.3437721
1.9407979 8.4519358 1.3734946
2.0392826 8.6318197 1.4047815
2.1424341 8.8203907 1.4376327
2.255208 9.036747 1.4751769
2.3609767 9.2137537 1.5064639
2.4816153 9.437542 1.5455725
2.6051567 9.6601677 1.5846812
2.7368543 9.9006443 1.6269184
2.8716743 10.139837 1.6691557
3.017858 10.406176 1.716086
3.1731195 10.690002 1.7661451
3.3320637 10.972277 1.8162041
3.5034642 11.281261 1.8709562
1.0051229 0.83234137 -0.11417402
1.0102607 0.82609779 -0.11417402
1.0154045 0.81976712 -0.11417402
1.0283254 0.81957996 -0.11504558
1.0334547 0.81310266 -0.11504558
1.0385431 0.80659324 -0.11504558
1.0514966 0.806113 -0.11591714
1.0565407 0.79949039 -0.11591714
1.0695248 0.79879737 -0.11678869
1.0745226 0.79206157 -0.11678869
1.079478 0.78529465 -0.11678869
1.0843908 0.77849662 -0.11678869
1.0892608 0.7716679 -0.11678869
1.1022526 0.77051622 -0.11766025
1.1152726 0.7692315 -0.11853181
1.1200838 0.76220888 -0.11853181
1.1248096 0.75521749 -0.11853181
1.1377722 0.75373554 -0.11940336
1.1508002 0.75205904 -0.12027492
1.1555028 0.7448135 -0.12027492
1.1601598 0.73753864 -0.12027492
1.1732113 0.73552614 -0.12114648
1.1778096 0.72814018 -0.12114648
1.1908675 0.72591048 -0.12201804
1.195405 0.71841377 -0.12201804
1.1998954 0.71088868 -0.12201804
1.2129407 0.70835942 -0.12288959
1.2173674 0.70072436 -0.12288959
1.2304111 0.69797701 -0.12376115
1.2434678 0.69509315 -0.12463271
1.8307017 0.94914836 -0.18041238
1.8721197 0.9557454 -0.18389861
1.8869886 0.94843751 -0.18477017
1.9107683 0.94539803 -0.18651329
1.9166707 0.93337369 -0.18651329
2.1880221 0.77473873 -0.20307288
2.1927805 0.76116729 -0.20307288
2.2352204 0.76027834 -0.20655911
2.2399533 0.7462191 -0.20655911
2.2730103 0.74139792 -0.20917378
2.2871137 0.73013115 -0.21004534
2.4906564 0.59275538 -0.22399026
2.51373 0.58164006 -0.22573337
2.5367241 0.57042545 -0.22747648
2.5694382 0.56093299 -0.23009115
2.5924037 0.54890484 -0.23183428
5.976779 -1.5575997 -0.54036558
5.9765506 -1.597499 -0.54123718
5.9471803 -1.6297534 -0.53949404
5.9368224 -1.6670882 -0.53949404
6.223021 -1.7897128 -0.56651235
7.2311621 -2.2765079 -0.66325521
7.1977491 -2.3157952 -0.66151208
7.1830568 -2.3609741 -0.66151208
7.4702921 -2.5075009 -0.68940192
9.2732229 -3.1776462 -0.85761249
9.2436705 -3.2325602 -0.85674095
8.8854017 -3.1700652 -0.82536489
9.1461525 -3.328022 -0.8515116
9.1157207 -3.381958 -0.85064006
9.541749 -3.6077864 -0.89247477
9.1659603 -3.530762 -0.85935563
9.0973454 -3.5697892 -0.85499781
9.065485 -3.6231816 -0.85412627
9.0517683 -3.683825 -0.85499781
9.3137465 -3.8588314 -0.88201612
9.5649109 -4.0328789 -0.90816283
8.2437658 -5.5573506 -0.86981428
8.2251358 -5.6202784 -0.87155741
4.4477091 -3.4655643 -0.49330148
4.1912608 -3.3082774 -0.46715477
4.1703916 -3.3345463 -0.46715477
4.1493578 -3.3606837 -0.46715477
3.8971066 -3.197135 -0.44100806
-4.4344811 -7.3303185 -0.74953938
-4.3287501 -7.0564485 -0.7242642
-4.3727727 -7.029253 -0.7242642
-4.4381127 -7.0353417 -0.72775042
-4.4768615 -6.9989257 -0.72687888
-4.5099072 -6.9539423 -0.72513574
-4.5535111 -6.9254684 -0.72513574
-4.6024599 -6.9050107 -0.72600734
-4.6457524 -6.875958 -0.72600734
-4.6944923 -6.8548512 -0.72687888
-4.7374701 -6.8252196 -0.72687888
-4.7802606 -6.7953186 -0.72687888
-4.8286448 -6.7732611 -0.72775042
-4.8711071 -6.7427883 -0.72775042
-4.9427981 -6.7522411 -0.73210824
-5.0029302 -6.7450557 -0.73472291
-5.0568137 -6.729692 -0.73646599
-5.0923791 -6.6903048 -0.73559445
-5.128015 -6.650454 -0.73472291
-5.1696997 -6.618103 -0.73472291
-5.2173619 -6.5933022 -0.73559445
-5.2586861 -6.5603905 -0.73559445
-5.3060813 -6.5349536 -0.73646599
-5.3533645 -6.5091796 -0.73733759
-5.3941555 -6.4754167 -0.73733759
-5.4475832 -6.4566245 -0.73908067
-5.4945154 -6.4298425 -0.73995227
-5.5413256 -6.4027252 -0.74082381
-5.5876641 -6.3755784 -0.74169534
-5.6336708 -6.3482871 -0.74256694
-5.6799006 -6.3203583 -0.74343848
-5.7329106 -6.2992811 -0.74518156
-5.7791281 -6.2704611 -0.74605316
-5.8320065 -6.2485919 -0.74779624
-5.8844981 -6.2266259 -0.74953938
-5.9367385 -6.204443 -0.75128251
-5.9892669 -6.1815238 -0.75302559
-6.0419416 -6.1579919 -0.75476873
-6.0945568 -6.1340418 -0.75651181
-6.1047149 -6.0675373 -0.75302559
-6.1427178 -6.0290604 -0.75302559
-6.2019382 -6.0111456 -0.75564027
-6.2683716 -5.9996119 -0.75912648
-6.4290223 -6.0764365 -0.77394301
-6.5468512 -6.1110487 -0.78353012
-6.5626154 -6.0501113 -0.78091544
-6.5929365 -6.0022678 -0.7800439
-6.4897599 -5.8341846 -0.7634843
-6.9360447 -6.1570272 -0.81141996
-6.8247628 -5.9819975 -0.79398882
-6.5835071 -5.6977873 -0.76174116
-6.6343241 -5.6692533 -0.7634843
-6.7075748 -5.6599436 -0.76784205
-6.7578206 -5.6310301 -0.76958519
-6.8082719 -5.6013379 -0.77132833
-6.8665295 -5.577292 -0.77394301
-6.9095097 -5.5398951 -0.77481455
-6.9524732 -5.5019474 -0.77568609
-4.8831086 -3.8144162 -0.54210871
-4.8438663 -3.7349951 -0.53513622
-4.7956953 -3.6504481 -0.52729225
-4.7545085 -3.5727882 -0.52031976
-4.7127371 -3.4955235 -0.51334733
-4.6703 -3.4187694 -0.50637484
-4.626904 -3.342941 -0.4994024
-4.5907516 -3.2737217 -0.49330148
-4.5622435 -3.2105637 -0.48807216
-4.5250468 -3.1420619 -0.48197126
-4.4871716 -3.0741563 -0.47587034
-4.4486241 -3.0068519 -0.46976945
-4.4178591 -2.9454415 -0.46454009
-4.386591 -2.8843982 -0.45931077
-4.3627763 -2.8297708 -0.45495296
-4.3214865 -2.7651017 -0.44885206
-4.2881379 -2.706136 -0.44362271
-4.2627668 -2.652822 -0.43926492
-4.0911579 -2.3378155 -0.41224664
-4.0710449 -2.2925117 -0.40876043
-4.0418143 -2.2427201 -0.40440264
-4.0121212 -2.1933875 -0.40004486
-3.9995108 -2.1539645 -0.39743018
-3.9689636 -2.1054504 -0.3930724
-3.9379666 -2.0574062 -0.38871461
-3.9241307 -2.0191646 -0.38609993
-3.8921349 -1.9722979 -0.38174215
-3.8776441 -1.93459 -0.37912747
-3.8539553 -1.8926231 -0.37564126
-3.8298936 -1.8510308 -0.37215501
-3.8144593 -1.8140949 -0.36954033
-3.78969 -1.7732046 -0.36605412
-3.7645588 -1.7326978 -0.36256787
-3.7481451 -1.6966857 -0.35995322
-3.7223275 -1.6568977 -0.35646698
-3.7052855 -1.6214955 -0.3538523
-3.6879468 -1.5863734 -0.35123762
-3.6703141 -1.5515337 -0.34862298
-3.6523902 -1.5169785 -0.3460083
-3.6341782 -1.4827104 -0.34339362
-3.6064334 -1.4450263 -0.33990738
-3.5969009 -1.415044 -0.33816427
-3.5778415 -1.38165 -0.33554959
-3.5585055 -1.3485519 -0.33293495
-3.5388961 -1.3157517 -0.33032027
-3.5283051 -1.2868571 -0.32857713
-3.5080707 -1.2549056 -0.32596248
-3.4970446 -1.2263609 -0.32421935
-3.4764173 -1.1946516 -0.3216047
-3.4649723 -1.1664287 -0.31986156
-3.4438493 -1.135278 -0.31724688
-3.422473 -1.1044391 -0.31463224
-3.4103456 -1.076914 -0.3128891
-3.3980081 -1.0495849 -0.31114599
-3.3854628 -1.0224537 -0.30940288
-3.3727114 -0.99552172 -0.30765978
-3.359756 -0.96879065 -0.30591664
-3.3370094 -0.93956196 -0.30330199
-2.8190525 -0.03173615 -0.24665074
-2.7893107 -0.013875073 -0.24403608
-2.8192284 0.0038439021 -0.24665074
-2.8191466 0.02180298 -0.24665074
-2.8089938 0.039315458 -0.24577919
-2.7887766 0.056317162 -0.24403608
-2.7784116 0.073483646 -0.24316452
-2.7579818 0.090286754 -0.2414214
-2.7573659 0.10746326 -0.2414214
-2.7466955 0.12409641 -0.24054985
-2.7359173 0.14075011 -0.23967829
-2.7250338 0.15736248 -0.23880672
-2.7140496 0.17384511 -0.23793517
-2.7129037 0.19089374 -0.23793517
-2.7017179 0.20717461 -0.23706362
-2.6904352 0.22332107 -0.23619206
-2.6790564 0.23933536 -0.23532051
-2.6279163 0.2514191 -0.23096271
-2.6659267 0.2719706 -0.23444894
-5.8798985 0.8237499 -0.51944822
-5.8647504 0.85923231 -0.51857668
-5.839541 0.89305407 -0.51683354
-5.8436522 0.93129343 -0.51770508
-5.8180299 0.96473396 -0.515962
-5.8020363 0.99957764 -0.51509041
-5.7760282 1.0325086 -0.51334733
-5.7596316 1.0669638 -0.51247573
-5.7430301 1.1012568 -0.51160419
-5.716454 1.1334429 -0.50986111
-5.69946 1.1673405 -0.50898951
-5.6822667 1.2010664 -0.50811797
-5.6551409 1.232504 -0.50637484
-5.9422998 1.5318065 -0.53687936
-5.5088043 1.4570316 -0.49853083
-5.5283842 1.4994402 -0.50114554
-5.4996581 1.5288086 -0.4994024
-5.4803624 1.5606068 -0.49853083
-5.7896051 1.846028 -0.53165001
-5.3800697 1.7527642 -0.49504462
-5.3594985 1.7833867 -0.49417305
-5.3576193 1.8202322 -0.49504462
-5.3460774 1.8538575 -0.49504462
-5.3249316 1.8840897 -0.49417305
-5.3036189 1.9141266 -0.49330148
-5.2914867 1.9474137 -0.49330148
-5.2604928 1.9736224 -0.49155837
-5.2480979 2.0063493 -0.49155837
-5.2262831 2.0352135 -0.49068683
-5.21346 2.0678401 -0.49068683
-5.1911283 2.0968239 -0.48981526
-5.1778502 2.1294005 -0.48981526
-5.1643696 2.1618903 -0.48981526
-5.1415186 2.1903932 -0.4889437
-5.127655 2.2226536 -0.4889437
-5.1044726 2.2508094 -0.48807216
-5.0902305 2.282836 -0.48807216
-5.0667219 2.3106415 -0.48720059
-5.0521045 2.3424294 -0.48720059
-5.0372863 2.3741276 -0.48720059
-5.0222707 2.4057295 -0.48720059
-4.9982314 2.4326048 -0.48632905
-4.9830627 2.4635277 -0.48632905
-4.967432 2.4948955 -0.48632905
-4.951437 2.5264912 -0.48632905
-4.9353809 2.5577137 -0.48632905
-4.9192138 2.5886717 -0.48632905
-4.9028521 2.6195273 -0.48632905
-4.8862972 2.6502798 -0.48632905
-4.8695478 2.6809301 -0.48632905
-4.8526077 2.711472 -0.48632905
-4.835475 2.7419095 -0.48632905
-4.8181524 2.7722361 -0.48632905
-4.8007903 2.8021951 -0.48632905
-4.7833357 2.8318872 -0.48632905
-4.7655416 2.8617296 -0.48632905
-4.7474675 2.8916147 -0.48632905
-4.7292047 2.9213879 -0.48632905
-4.7107568 2.9510434 -0.48632905
-4.7005296 2.9859262 -0.48720059
-4.6816769 3.0154002 -0.48720059
-4.6626372 3.0447576 -0.48720059
-4.6434155 3.0739923 -0.48720059
-4.6322823 3.1086569 -0.48807216
-4.6126595 3.1376996 -0.48807216
-4.5928526 3.166621 -0.48807216
-4.5728664 3.1954148 -0.48807216
-4.5608282 3.2298424 -0.4889437
-4.5485387 3.2642419 -0.48981526
-4.5277596 3.293004 -0.48981526
-4.5066886 3.3217824 -0.48981526
-4.4858027 3.3499339 -0.48981526
-4.4808493 3.3896842 -0.49155837
-4.435854 3.3994462 -0.4889437
-2.3012345 2.9301312 -0.32596248
-2.2461572 2.8972933 -0.32073313
-2.1976373 2.8717933 -0.31637534
-2.1555338 2.8537474 -0.3128891
-2.1137431 2.8352883 -0.30940288
-2.0604641 2.800369 -0.30417353
-2.0254204 2.7889664 -0.30155885
-1.9790821 2.7609792 -0.29720107
-1.4446088 2.4441576 -0.24839386
-1.4292226 2.4531863 -0.24839386
-1.4237026 2.4793956 -0.25013697
-1.4179078 2.5056324 -0.25188008
-1.406989 2.5231922 -0.25275165
-1.391107 2.5319831 -0.25275165
-1.3846552 2.5581951 -0.25449476
-1.3686931 2.5667706 -0.25449476
1.0454803 6.88447 -0.60921866
1.1089636 7.0056777 -0.6205489
1.1707721 7.1066957 -0.63013601
1.237255 7.2268472 -0.64146626
1.3056939 7.3463678 -0.65279651
1.3759407 7.465261 -0.66412675
1.4492085 7.5934167 -0.67632854
1.5277541 7.7405357 -0.69027346
1.6062142 7.8772001 -0.70334685
1.6905539 8.0326748 -0.71816331
1.7743505 8.1777563 -0.73210824
1.8640916 8.3416042 -0.74779624
1.9586271 8.5142488 -0.76435584
2.055676 8.6859636 -0.78091544
2.1573136 8.8664675 -0.79834658
2.2661304 9.0653582 -0.81752086
2.3800063 9.272872 -0.83756667
2.496577 9.4793043 -0.85761249
2.6210287 9.7038631 -0.87940145
2.7510564 9.9368238 -0.90206194
2.889549 10.187692 -0.92646551
3.0368564 10.456334 -0.95261228
3.1876507 10.723516 -0.97875899
1.0085135 0.81354976 0.25186786
1.0136052 0.80719709 0.25186786
1.026374 0.80687934 0.25377595
1.0236684 0.7943964 0.25186786
1.0364323 0.79391813 0.25377595
1.0492301 0.79331064 0.25568405
1.054194 0.78670251 0.25568405
1.0591161 0.78006333 0.25568405
1.0719366 0.77916497 0.25759214
1.0768111 0.77241445 0.25759214
1.0816431 0.76563346 0.25759214
1.0944799 0.7644431 0.25950024
1.1073443 0.76312149 0.26140833
1.1039996 0.75062943 0.25950024
1.1168013 0.74921334 0.26140833
1.1214218 0.74227941 0.26140833
1.1260436 0.73524934 0.26140833
1.1388938 0.73347473 0.26331642
1.1434799 0.72630447 0.26331642
1.1646588 0.72952729 0.26713258
1.1608679 0.71703666 0.26522449
1.1737341 0.71483457 0.26713258
1.1782024 0.70744568 0.26713258
1.1910714 0.70502907 0.26904067
1.1954776 0.69753158 0.26904067
1.2083462 0.6949001 0.27094877
1.2126886 0.68729413 0.27094877
1.2255533 0.68444741 0.27285686
1.2298295 0.67673355 0.27285686
1.8509893 0.92943323 0.40260696
1.8831924 0.93083388 0.40833125
1.9066581 0.92757177 0.41214743
2.0245485 0.83249593 0.42550406
2.0752492 0.83813918 0.4350445
2.1935337 0.74513835 0.45030922
2.2074866 0.73444027 0.45221731
2.2400584 0.72967672 0.45794159
5.9738774 -1.5992981 1.2020967
5.9637108 -1.6368014 1.2020967
5.9344091 -1.6689248 1.1982805
6.0181341 -1.7333472 1.2173613
6.1296349 -1.8068473 1.2421665
6.3250861 -1.9071338 1.2841445
6.5006404 -2.0045156 1.3223063
6.6751585 -2.1043487 1.3604681
6.8580151 -2.2094617 1.400538
7.058455 -2.3230908 1.444424
7.2856436 -2.448705 1.4940344
7.4465284 -2.5549624 1.5302881
7.7175355 -2.7022643 1.5894389
7.9962182 -2.8563704 1.6504978
8.3101511 -3.0275209 1.719189
8.6406384 -3.2095616 1.7916964
8.9785376 -3.3988075 1.866112
9.1221647 -3.5179489 1.9004576
9.0999784 -3.5749471 1.9004576
9.0864515 -3.6356997 1.9023657
9.0543375 -3.6890156 1.9004576
9.0219126 -3.7420716 1.8985494
9.450634 -3.9890063 1.9939539
7.9406295 -5.4304485 1.8699281
7.4061546 -5.1335249 1.7516265
6.948329 -4.8804798 1.6504978
4.4432554 -3.4648988 1.0952436
4.3674779 -3.4501536 1.081887
4.1541038 -3.3241968 1.0341847
4.1407609 -3.3564134 1.0360929
4.1195903 -3.382364 1.0360929
4.1133518 -3.4207346 1.039909
1.9897597 -2.237112 0.58196741
1.9498148 -2.2200139 0.57433504
-4.6520643 -7.683269 1.7459023
-4.4941349 -7.3196831 1.6695787
-4.3323011 -6.9581037 1.593255
-4.3811755 -6.9390459 1.5951632
-4.4458585 -6.9444499 1.6027955
-4.4947486 -6.924613 1.6047037
-4.5327721 -6.8880348 1.6027955
-4.5814085 -6.8675847 1.6047037
-4.6244683 -6.8386636 1.6047037
-4.6673436 -6.8094735 1.6047037
-4.7100363 -6.7800136 1.6047037
-4.7581944 -6.7583122 1.6066117
-4.8005643 -6.7282825 1.6066117
-4.8427444 -6.6979871 1.6066117
-4.8905344 -6.6753454 1.6085198
-4.938231 -6.6523676 1.6104279
-4.9795346 -6.6215072 1.6104279
-5.0264149 -6.5983353 1.612336
-5.0735912 -6.5745335 1.6142441
-5.1208453 -6.5502591 1.6161522
-5.1619005 -6.5179548 1.6161522
-5.2088947 -6.4930501 1.6180602
-5.2557793 -6.4678116 1.6199683
-5.3025522 -6.4422402 1.6218765
-5.3492107 -6.4163361 1.6237845
-5.3957515 -6.390101 1.6256926
-5.4421749 -6.3635325 1.6276007
-5.4884772 -6.3366332 1.6295087
-5.540751 -6.3171139 1.633325
-5.5863047 -6.2900014 1.635233
-5.6321077 -6.2622304 1.6371411
-5.6779532 -6.2339768 1.6390493
-5.7236657 -6.2053938 1.6409574
-5.7759433 -6.1836557 1.6447735
-5.8210592 -6.1547227 1.6466815
-5.86587 -6.1256285 1.6485897
-5.9177423 -6.1029077 1.6524059
-5.9628487 -6.0726094 1.6543139
-6.014729 -6.0489454 1.6581302
-6.0595818 -6.017952 1.6600382
-6.1112905 -5.9935064 1.6638544
-6.1558795 -5.9618192 1.6657625
-6.2074051 -5.9365921 1.6695787
-6.2588563 -5.910953 1.6733949
-6.3026991 -5.8785834 1.675303
-6.3534417 -5.8527203 1.6791191
-6.4044533 -5.8260717 1.6829354
-6.4555364 -5.7988377 1.6867515
-6.5065317 -5.7711897 1.6905676
-6.5648179 -5.7495966 1.6962919
-6.6082387 -5.7146564 1.6982
-6.6589446 -5.6857715 1.7020162
-6.709209 -5.6568761 1.7058324
-6.7592182 -5.627759 1.7096486
-6.8094578 -5.5978322 1.7134647
-6.8673611 -5.5734944 1.719189
-6.9102368 -5.5359597 1.7210971
-6.9530635 -5.4979143 1.7230052
-4.8982973 -3.8231859 1.2078209
-4.8600144 -3.7444053 1.1925561
-4.8129044 -3.660605 1.1753834
-4.7648449 -3.5776672 1.1582106
-4.7161536 -3.4951866 1.1410378
-4.6825585 -3.4249208 1.1276811
-4.6401095 -3.3497481 1.1124164
-4.5968204 -3.275363 1.0971518
-4.5610104 -3.2070193 1.0837951
-4.5165482 -3.1335337 1.0685303
-4.487546 -3.0718248 1.0570818
-4.4498138 -3.0051117 1.0437251
-4.4197679 -2.9441731 1.0322766
-4.3892093 -2.8836176 1.0208281
-4.3577213 -2.8240957 1.0093796
-4.3255129 -2.7653162 0.997931
-4.2846026 -2.7015538 0.98457438
-4.2598114 -2.6486633 0.97503394
-4.2343702 -2.5964456 0.9654935
-4.1999764 -2.5396843 0.95404494
-4.0919099 -2.3361149 0.91588318
-4.0637312 -2.2862926 0.90634269
-4.0350895 -2.2369173 0.89680225
-4.0146046 -2.1926987 0.88916993
-3.9937246 -2.1488264 0.88153756
-3.9637799 -2.1007071 0.87199712
-3.9420919 -2.0575922 0.86436474
-3.9198992 -2.0150681 0.85673237
-3.8972774 -1.9730076 0.84909999
-3.8744016 -1.9310732 0.84146768
-3.851207 -1.8893974 0.8338353
-3.8276432 -1.8480899 0.82620293
-3.8037136 -1.8071539 0.81857055
-3.7883148 -1.7707489 0.8128463
-3.7636912 -1.7305084 0.80521393
-3.7476571 -1.6946925 0.79948968
-3.722353 -1.6551586 0.7918573
-3.7056959 -1.6199422 0.78613305
-3.6887443 -1.5850008 0.7804088
-3.6624579 -1.5465183 0.77277642
-3.6449018 -1.5121909 0.76705217
-3.6270602 -1.4781457 0.76132786
-3.6089356 -1.4443849 0.75560361
-3.5996671 -1.4145007 0.75178742
-3.5718493 -1.377725 0.74415505
-3.5620739 -1.3483053 0.74033886
-3.5336664 -1.3122286 0.73270655
-3.5233176 -1.2834924 0.72889036
-3.5034702 -1.2517298 0.72316611
-3.4927032 -1.223299 0.71934992
-3.4724665 -1.19177 0.71362561
-3.4705813 -1.1668003 0.71171755
-3.4405482 -1.1326926 0.70408517
-3.428911 -1.1050308 0.70026898
-3.4170628 -1.0775601 0.6964528
-3.3956251 -1.0473889 0.69072855
-3.3833427 -1.0203643 0.68691236
-3.3708556 -0.99353558 0.68309617
-3.3487322 -0.96418828 0.67737192
-3.3452744 -0.94047195 0.67546386
-3.3227181 -0.91164273 0.66973954
-3.2207797 -0.75498098 0.64302629
-3.2637439 -0.74345112 0.65065867
-2.7972262 -0.047970533 0.5438056
-2.7974722 -0.030394929 0.5438056
-2.8074243 -0.012861603 0.54571372
-2.7681844 0.0048771775 0.53808135
-2.8073609 0.022830378 0.54571372
-2.797348 0.040235877 0.5438056
-2.787231 0.057365682 0.54189754
-2.7671921 0.074273944 0.53808135
-2.7568598 0.091334872 0.53617328
-2.7464294 0.10810214 0.53426516
-2.7359009 0.12467029 0.5323571
-2.7350674 0.14178289 0.5323571
-2.7243228 0.1583959 0.53044897
-2.7232738 0.17550939 0.53044897
-5.4979162 0.98502129 1.0857031
-5.510921 1.0231311 1.0895194
-5.4947443 1.055883 1.0876112
-5.4783731 1.0884751 1.0857031
-5.471426 1.1228735 1.0857031
-5.473866 1.1592644 1.0876112
-5.4472938 1.1894451 1.0837951
-5.4205585 1.2193407 1.0799789
-5.4127903 1.2533734 1.0799789
-5.404808 1.2873595 1.0799789
-5.3966131 1.3212918 1.0799789
-5.3691649 1.3503864 1.0761627
-5.3605747 1.3840935 1.0761627
-5.3335338 1.4848877 1.0761627
-5.3052192 1.5129842 1.0723466
-5.295608 1.5462892 1.0723466
-5.2764778 1.5764022 1.0704385
-5.2666092 1.6090654 1.0704385
-5.2751794 1.6478342 1.0742546
-5.2553701 1.6779621 1.0723466
-5.2260594 1.7048591 1.0685303
-1.972737 1.6347457 0.49801147
-1.9925017 1.6723521 0.50564384
-1.9744761 1.6784798 0.50373572
-1.9713295 1.6972579 0.50564384
-1.9680254 1.7160614 0.50755191
-1.9572039 1.7283934 0.50755191
-1.946306 1.7406563 0.50755191
-1.9353303 1.7528514 0.50755191
-1.9315132 1.7716115 0.50946003
-1.9203433 1.783713 0.50946003
-1.9092066 1.7956282 0.50946003
-1.8980441 1.8074232 0.50946003
-1.8937665 1.8260753 0.5113681
-1.8892785 1.8447965 0.51327616
-1.8706704 1.8497283 0.5113681
-1.8728842 1.8753374 0.51518428
-1.8541718 1.8800783 0.51327616
-1.8491707 1.8987241 0.51518428
-1.8440092 1.91738 0.51709235
-1.8386849 1.9360466 0.51900047
-1.8264847 1.9475607 0.51900047
-1.8142112 1.9589988 0.51900047
-1.8084918 1.9776025 0.52090853
-1.7960299 1.988927 0.52090853
-1.7834983 2.0001719 0.52090853
-1.7838688 2.0260742 0.52472472
-1.771104 2.0372419 0.52472472
-1.7582681 2.0483303 0.52472472
-1.7580576 2.0743139 0.52854091
-1.744989 2.0853195 0.52854091
-1.7318528 2.096242 0.52854091
-1.7248516 2.1146894 0.53044897
-1.7115312 2.1254847 0.53044897
-1.7042505 2.1438811 0.5323571
-1.6968071 2.1622689 0.53426516
-1.6952099 2.1884086 0.53808135
-1.6873895 2.2068141 0.53998947
-1.6794032 2.2252083 0.54189754
-1.6712533 2.2435882 0.5438056
-1.6803808 2.2856808 0.55143797
-1.6834205 2.3199279 0.55716228
-1.6747296 2.3382945 0.55907035
-1.6827322 2.3807898 0.56670272
-1.6845853 2.4154708 0.57242697
-1.4123119 2.4263494 0.54571372
-1.4116925 2.4607193 0.55143797
-1.4010354 2.4780855 0.5533461
-1.3949916 2.5039904 0.55716228
-1.393402 2.5385211 0.56288654
-1.3867624 2.5644958 0.56670272
-1.3661606 2.5644126 0.5647946
-2.6444001 5.5360146 1.1925561
-2.6179163 5.5702877 1.1963724
-2.5993416 5.6222677 1.2040048
-1.6784402 7.3093991 1.4577807
-1.6431627 7.3677053 1.4673212
-1.2314696 9.3131065 1.8260421
-1.166804 9.2719622 1.8165016
-1.1003703 9.2108822 1.8031449
1.0461545 6.8707318 1.3509277
1.1077664 6.9803624 1.3738247
1.1707966 7.0894856 1.3967218
1.2352409 7.1980872 1.4196188
1.3049771 7.3254051 1.4463322
1.373014 7.4327788 1.4692292
1.4475508 7.5685892 1.4978505
1.523645 7.7037907 1.526472
1.6034595 7.8479466 1.5570014
1.6871696 8.0010023 1.5894389
1.7723758 8.1534166 1.6218765
1.8614612 8.314703 1.6562221
1.9553245 8.4846411 1.6924758
2.0516212 8.6536665 1.7287295
2.1570909 8.850421 1.7707075
2.2651122 9.0461836 1.8126854
2.3781204 9.2504368 1.8565714
2.4962864 9.46311 1.9023657
2.6172163 9.674655 1.9481598
1.0106796 0.84625888 -0.06908346
1.015922 0.83995843 -0.06908346
1.013371 0.82733226 -0.068560101
1.0263064 0.82723796 -0.06908346
1.0314838 0.82077318 -0.06908346
1.0444736 0.82044482 -0.069606818
1.049608 0.81386608 -0.069606818
1.062631 0.81332475 -0.070130177
1.0677203 0.80663204 -0.070130177
1.0727674 0.79990745 -0.070130177
1.0858152 0.79907036 -0.070653543
1.0908145 0.79223222 -0.070653543
1.1038874 0.79118037 -0.071176901
1.1006836 0.77846247 -0.070653543
1.1137422 0.77724642 -0.071176901
1.1268289 0.77589673 -0.07170026
1.1234213 0.76318967 -0.071176901
1.13644 0.76175004 -0.07170026
1.141138 0.75469422 -0.07170026
1.1542047 0.75299084 -0.072223619
1.1589131 0.7457239 -0.072223619
1.1720074 0.74377847 -0.072746977
1.1851227 0.74169785 -0.073270336
1.1897595 0.7342369 -0.073270336
1.1943493 0.72674692 -0.073270336
1.198892 0.71922833 -0.073270336
1.211983 0.71676475 -0.073793694
1.22509 0.71416485 -0.074317053
1.229553 0.70645338 -0.074317053
1.2426574 0.7036345 -0.074840419
1.2470539 0.69581282 -0.074840419
2.3300791 0.67783278 -0.12717637
2.3727167 0.67409569 -0.12926981
2.3769052 0.6591742 -0.12926981
6.0094991 -1.571098 -0.32552963
5.9609618 -1.5983493 -0.3234362
5.9508018 -1.6357714 -0.3234362
5.9500189 -1.6758362 -0.32395956
6.2656054 -1.8072889 -0.34175378
7.2375183 -2.2847588 -0.39775327
7.2040119 -2.3240561 -0.39670655
7.1608138 -2.3598971 -0.39513648
7.477109 -2.5163257 -0.41345406
9.2839384 -3.1894691 -0.51446241
9.27314 -3.2510414 -0.5149858
8.9892464 -3.2150762 -0.50033176
9.165884 -3.3433557 -0.51132226
9.1072559 -3.3869567 -0.50922883
9.4782228 -3.592159 -0.53120995
9.139039 -3.528522 -0.51341569
9.0981798 -3.5783663 -0.51236898
9.0940571 -3.6428878 -0.51341569
9.0617418 -3.6961837 -0.51289237
9.3334684 -3.8755956 -0.52963984
12.561503 -7.9195876 -0.77823567
12.393702 -7.9230533 -0.77090859
12.326915 -7.9899054 -0.76986188
9.7727709 -6.4219513 -0.61285406
9.3914747 -6.2562323 -0.59139627
8.2760897 -5.5885992 -0.52335954
8.1996078 -5.6122861 -0.52074277
4.4558501 -3.4775357 -0.29622149
4.1988993 -3.3196619 -0.28052071
4.177958 -3.3459787 -0.28052071
4.1568522 -3.3721633 -0.28052071
-4.6218038 -7.6266246 -0.46736008
-4.3500371 -7.0788398 -0.43543515
-4.3837118 -7.0345135 -0.43438843
-4.4544978 -7.0490408 -0.43700522
-4.4987001 -7.0209136 -0.43700522
-4.5427246 -6.9925089 -0.43700522
-4.5810771 -6.9554882 -0.43648186
-4.6135988 -6.9099569 -0.43543515
-4.6681166 -6.8973742 -0.43648186
-4.7113619 -6.8679075 -0.43648186
-4.7544208 -6.8381696 -0.43648186
-4.8030443 -6.8163252 -0.43700522
-4.8457775 -6.7860126 -0.43700522
-4.8941741 -6.7635221 -0.43752858
-4.9365735 -6.7326379 -0.43752858
-4.9906893 -6.7175198 -0.4385753
-5.0323601 -6.6863599 -0.4385753
-5.0797472 -6.662992 -0.43909866
-5.1213665 -6.6310554 -0.43909866
-5.1690831 -6.6066113 -0.43962201
-5.2166944 -6.5818291 -0.44014537
-5.2641978 -6.5567088 -0.44066873
-5.3115916 -6.5312514 -0.44119209
-5.3588734 -6.5054564 -0.44171545
-5.4060383 -6.4793267 -0.44223884
-5.4530878 -6.4528594 -0.4427622
-5.5000181 -6.4260564 -0.44328555
-5.5468264 -6.3989182 -0.44380891
-5.5996809 -6.3793163 -0.44485563
-5.6391001 -6.3444977 -0.44485563
-5.6920762 -6.3239102 -0.44590235
-5.7384253 -6.2954016 -0.44642571
-5.7914143 -6.2738976 -0.44747242
-5.8375392 -6.2446804 -0.44799578
-5.8831186 -6.2155166 -0.44851914
-5.9353347 -6.1933665 -0.44956586
-5.9809518 -6.163249 -0.45008922
-6.0265579 -6.1326704 -0.45061257
-6.0790596 -6.1088409 -0.45165929
-6.1314993 -6.0845933 -0.45270601
-6.1767411 -6.0529375 -0.45322937
-6.2146506 -6.0140085 -0.45322937
-6.2667546 -5.9886408 -0.45427608
-6.3187842 -5.9628553 -0.4553228
-6.370348 -5.9370694 -0.45636952
-6.4143596 -5.9042473 -0.45689288
-6.4659801 -5.8774052 -0.45793959
-6.4953494 -5.8299918 -0.45741624
-7.0475245 -6.2460971 -0.49352807
-6.8461509 -5.9912434 -0.47678056
-6.5965257 -5.6999998 -0.45689288
-6.6701946 -5.6908484 -0.4595097
-6.7359982 -5.6750021 -0.46160313
-6.7787085 -5.6395435 -0.46212649
-6.8216033 -5.6033278 -0.46264985
-6.8644319 -5.5666461 -0.46317321
-6.9230213 -5.5416775 -0.46474329
-6.9503484 -5.491271 -0.46421993
-4.9059196 -3.8260348 -0.32605299
-4.8586445 -3.7403092 -0.32134277
-4.8022981 -3.6496036 -0.31610918
-4.7609143 -3.5718341 -0.31192228
-4.7189808 -3.4944129 -0.30773541
-4.676342 -3.4175551 -0.30354854
-4.6327076 -3.3416765 -0.29936168
-4.6045132 -3.278157 -0.29622149
-4.5677495 -3.2090771 -0.29255798
-4.5303717 -3.1404889 -0.28889447
-4.5005579 -3.0781362 -0.28575432
-4.461863 -3.0106978 -0.28209081
-4.4226933 -2.9435802 -0.27842727
-4.3996134 -2.8879457 -0.27581048
-4.35887 -2.8224437 -0.27214697
-4.3341947 -2.768503 -0.26953018
-4.3007479 -2.7093735 -0.26639003
-4.2752728 -2.6559489 -0.2637732
-4.1314263 -2.3910525 -0.25016588
-4.1029963 -2.340308 -0.24754907
-4.0740933 -2.2900159 -0.24493226
-4.0534577 -2.245019 -0.24283883
-4.023653 -2.1955891 -0.24022204
-4.0021844 -2.1513515 -0.2381286
-3.9803207 -2.1074712 -0.23603515
-3.9580648 -2.0639513 -0.23394172
-3.9352882 -2.0210526 -0.23184828
-3.9031777 -1.9740963 -0.22923149
-3.8886435 -1.936265 -0.2276614
-3.8648639 -1.8942142 -0.22556797
-3.8407106 -1.8525392 -0.22347453
-3.8161876 -1.8112433 -0.2213811
-3.8003473 -1.7745544 -0.21981101
-3.7751229 -1.7339685 -0.21771757
-3.7586405 -1.6978812 -0.2161475
-3.7327285 -1.6580163 -0.21405406
-3.7156172 -1.6225411 -0.21248397
-3.6982083 -1.5873468 -0.2109139
-3.6805053 -1.5524358 -0.20934382
-3.6625104 -1.5178103 -0.20777375
-3.6442268 -1.4834727 -0.20620367
-3.6256573 -1.4494253 -0.20463358
-3.6068051 -1.4156703 -0.2030635
-3.5876729 -1.3822098 -0.20149343
-3.5682638 -1.349046 -0.19992335
-3.5579436 -1.3196537 -0.19887663
-3.5379267 -1.2872628 -0.19730656
-3.5176182 -1.2552489 -0.19573647
-3.5065563 -1.2266048 -0.19468975
-3.4858537 -1.1948342 -0.19311967
-3.4743583 -1.1665512 -0.19207296
-3.4531593 -1.135341 -0.19050288
-3.4412124 -1.1075032 -0.18945616
