# .PCD v0.7 - Point Cloud Data file format
VERSION 0.7
FIELDS x y z
SIZE 4 4 4
TYPE F F F
COUNT 1 1 1
WIDTH 1465
HEIGHT 1
VIEWPOINT 0 0 0 1 0 0 0
POINTS 1465
DATA ascii
1.9200517 1.3887371 0.041362204
1.9368776 1.3824543 0.041536726
1.986398 1.3990442 0.042409346
1.9951491 1.3865358 0.042409346
2.0203063 1.3852921 0.042758394
2.0371318 1.3783509 0.04293292
2.0789025 1.3878978 0.043631017
2.0959322 1.3803076 0.04380554
2.1297178 1.3834512 0.044329111
2.1467869 1.3754364 0.044503637
5.4305153 0.92755377 0.096162759
5.5940189 0.91981584 0.09895514
6.291007 0.99386561 0.11117183
6.2081571 0.94083536 0.10960111
6.2337356 0.90468198 0.10995016
6.2247114 0.82423079 0.10960111
6.2396226 0.78686488 0.10977563
6.2940817 0.75358796 0.11064825
6.5371284 0.74105579 0.11483683
8.5200586 0.9116596 0.14956713
8.5256186 0.85810876 0.14956713
8.2521219 0.77823853 0.14468044
8.3863249 0.73781139 0.14694926
8.4505262 0.6907233 0.14799641
8.4446774 0.6375522 0.14782187
9.1467409 0.63278461 0.16003856
8.541831 0.53703302 0.14939259
8.5051069 0.48109415 0.1486945
8.4979734 0.42719021 0.14851998
8.5004568 0.37452909 0.14851998
8.5625639 0.32407725 0.14956713
9.0541124 0.28572398 0.1581188
18.641209 0.47104621 0.32548738
18.07399 0.34309474 0.31553951
18.095785 0.22978018 0.31588855
18.086872 0.11601291 0.31571403
18.097242 0.0024681136 0.31588855
18.076914 -0.10954015 0.31553951
18.055893 -0.22139259 0.31519046
18.054144 -0.33483618 0.31519046
13.327032 -2.0112851 0.23525843
13.571118 -2.1342051 0.23979606
13.28134 -2.1731162 0.23490939
10.408915 -1.7703472 0.18429741
10.279431 -1.8148527 0.18220311
9.9235973 -1.8163973 0.17609479
9.9807539 -1.8917466 0.17731644
8.555788 -1.6774155 0.15218498
8.5548887 -1.7330782 0.1523595
8.5537739 -1.7880964 0.15253402
-1.0179846 -1.4401482 -0.40716141
-1.0270132 -1.4337237 -0.40716141
-1.0417089 -1.4351394 -0.40941092
-1.0505812 -1.4286574 -0.40941092
-1.0652493 -1.4299229 -0.41166043
-1.0742127 -1.4232016 -0.41166043
-1.0890368 -1.424176 -0.41390994
-1.1276729 -1.4559172 -0.42515749
-1.1487161 -1.4642222 -0.42965651
-1.1639556 -1.4646039 -0.43190601
-1.1609144 -1.4420822 -0.427407
-1.1824682 -1.3605442 -0.41615945
-1.1780012 -1.3385623 -0.41166043
-1.1862866 -1.331225 -0.41166043
-1.1815714 -1.3092779 -0.40716141
-1.156894 -1.2658787 -0.39591384
-1.138244 -1.2300799 -0.3869158
-1.132533 -1.2087706 -0.38241678
-1.106573 -1.1662889 -0.37116924
-1.1071157 -1.1522989 -0.36891973
-1.1831504 -1.059532 -0.36667022
-1.1970836 -1.0585316 -0.36891973
-1.2183787 -1.0638195 -0.37341875
-1.2323257 -1.0626132 -0.37566826
-1.2314787 -1.048627 -0.37341875
-1.2529593 -1.0534093 -0.37791777
-1.2670506 -1.0517393 -0.38016728
-1.2887064 -1.0561097 -0.38466629
-1.3028916 -1.0541203 -0.3869158
-1.3094891 -1.0459132 -0.3869158
-3.9009652 -1.8477802 -0.99653316
-3.9324393 -1.8033177 -0.99878269
-3.8992813 -1.758545 -0.98753512
-3.8835313 -1.7221618 -0.98078656
-3.9300027 -1.7133025 -0.9897846
-3.8779972 -1.6617121 -0.97403806
-3.8704014 -1.6297506 -0.96953905
-3.9165795 -1.6202995 -0.97853708
-3.9176559 -1.5919907 -0.97628754
-3.8823159 -1.5493295 -0.96504003
-3.8827691 -1.5216893 -0.96279049
-3.8650093 -1.4593092 -0.95379245
-3.864965 -1.4316115 -0.95154297
-3.8280931 -1.3906643 -0.9402954
-3.7541459 -1.3371603 -0.92004979
-3.7900708 -1.3231809 -0.92679834
-3.7890766 -1.2962288 -0.9245488
-3.8155119 -1.2789209 -0.92904782
-3.8141189 -1.2521751 -0.92679834
-3.8033581 -1.2222236 -0.92229933
-3.8109624 -1.1983024 -0.92229933
-3.7997899 -1.1686054 -0.91780031
-3.7977264 -1.1419021 -0.91555077
-3.6492147 0.42061552 -0.84806544
-3.6368275 0.44235834 -0.84581596
-3.769284 0.48252064 -0.87730908
-3.7661834 0.50615299 -0.87730908
-3.7726238 0.53083646 -0.87955862
-3.7596159 0.55282634 -0.87730908
-3.7560685 0.5764367 -0.87730908
-3.7619936 0.60156482 -0.87955862
-3.7581398 0.62518913 -0.87955862
-3.7637386 0.65045005 -0.8818081
-3.7499869 0.67236477 -0.87955862
-3.7456882 0.69591427 -0.87955862
-3.7412419 0.71943426 -0.87955862
-3.7366476 0.74292785 -0.87955862
-3.7414505 0.76835018 -0.8818081
-3.7460897 0.79382223 -0.88405764
-3.7410994 0.81701803 -0.88405764
-3.7122669 1.3669511 -0.91330129
-3.6580088 1.3730876 -0.90205371
-3.5766244 1.3678817 -0.88405764
-3.6225398 1.4112767 -0.8975547
-3.6045446 1.4304148 -0.89530516
-3.5774179 1.4457338 -0.89080614
-3.5952961 1.4793043 -0.8975547
-3.6128919 1.5131581 -0.90430325
-3.612277 1.5396482 -0.90655273
-3.6114707 1.5661919 -0.90880227
-1.253687 1.0373245 -0.37566826
-1.2396764 1.038923 -0.37341875
-1.2479814 1.059302 -0.37791777
-1.2413013 1.067122 -0.37791777
-1.2198749 1.0621034 -0.37341875
-1.2058688 1.0633032 -0.37116924
-1.1918968 1.0643685 -0.36891973
-1.1779586 1.0653011 -0.36667022
-1.1640567 1.0661001 -0.36442071
-1.1430588 1.0601288 -0.35992169
-1.1293652 1.060521 -0.35767218
-1.1156992 1.060797 -0.35542265
-1.1019932 1.0610276 -0.35317314
-1.0883281 1.0611289 -0.35092363
-1.0747061 1.0611 -0.34867412
-1.061139 1.0609307 -0.34642461
-1.0408496 1.0536219 -0.34192559
-1.03429 1.0600618 -0.34192559
-1.0140882 1.0525059 -0.33742657
-1.0007384 1.051798 -0.33517706
1.2066423 1.4676841 -0.43865454
1.2158401 1.4600737 -0.43865454
1.2312719 1.4598538 -0.44090405
1.2530774 1.4669061 -0.44540307
-1.0060371 -1.4411818 0.092111282
-1.009305 -1.4266797 0.091587923
-1.0298859 -1.4365424 0.092634641
-1.038868 -1.4300603 0.092634641
-1.053628 -1.4316388 0.093157999
-1.1948597 -1.409055 0.096821517
-1.197183 -1.3939439 0.096298158
-1.1862335 -1.3638096 0.094728082
-1.194661 -1.3564335 0.094728082
-1.2115109 -1.0569965 0.084260888
-1.225602 -1.0559883 0.084784247
-1.2321385 -1.0483541 0.084784247
-1.2463474 -1.0470152 0.085307606
-1.2682744 -1.051914 0.086354323
-1.2748587 -1.0439245 0.086354323
-1.2969247 -1.04845 0.087401047
-1.3112919 -1.0465097 0.087924406
-1.3256857 -1.0444301 0.088447765
-1.3479879 -1.0483413 0.089494482
-3.9574409 -2.8095493 0.25435275
-3.9422994 -2.7617097 0.25225931
-3.9267142 -2.7141724 0.25016588
-3.9354398 -2.6838202 0.24964251
-3.9356539 -2.6478913 0.24859579
-3.9272521 -2.6065438 0.24702571
-3.9184868 -2.5654068 0.24545564
-3.9177499 -2.529901 0.24440891
-3.9082582 -2.4892063 0.24283883
-3.9151497 -2.4596312 0.24231547
-3.9133763 -2.4247422 0.24126875
-3.9114907 -2.3896933 0.24022204
-3.8555796 -1.3173118 0.2135307
-3.8068488 -1.2743776 0.21039054
-3.8146923 -1.2507036 0.21039054
-3.8414924 -1.2328137 0.21143726
-3.8301075 -1.2026691 0.21039054
-3.8184958 -1.1727167 0.20934382
-3.8162243 -1.1458297 0.20882046
-3.8137662 -1.1190175 0.2082971
-3.8015041 -1.0895931 0.20725039
-3.8081822 -1.0660187 0.20725039
-6.9334235 -1.6636114 0.37367871
-6.9437399 -1.6200129 0.37367871
-6.9537811 -1.5763541 0.37367871
-6.9537959 -1.530483 0.37315536
-6.9437423 -1.4825925 0.37210864
-6.9333625 -1.434885 0.37106192
-6.922658 -1.3873706 0.3700152
-6.9214129 -1.3420587 0.36949185
-6.9197803 -1.2973073 0.36896849
-3.7897928 -0.51593709 0.20044671
-3.8028631 -0.4933989 0.20097007
-3.8462241 -0.25563413 0.20201679
-3.8477545 -0.2314637 0.20201679
-3.8391576 -0.20680846 0.20149343
-3.8403652 -0.18301679 0.20149343
-3.8314502 -0.15874334 0.20097007
-3.832372 -0.13466762 0.20097007
-3.7913983 0.31880873 0.19939999
-3.78935 0.34229437 0.19939999
-3.7871504 0.36582941 0.19939999
-7.0504293 1.3586555 0.37629551
-6.7381449 1.3424416 0.36007136
-6.7393589 1.3867627 0.36059472
-6.7403045 1.4310445 0.36111808
-6.7313085 1.4727803 0.36111808
-6.7220297 1.5145671 0.36111808
-6.7123809 1.556771 0.36111808
-6.7121801 1.6012343 0.36164144
-6.7116866 1.6457528 0.36216483
-6.710897 1.6903318 0.36268818
-6.4777727 1.6749636 0.35065091
-6.2451148 1.6567382 0.33861363
-6.061132 1.6487606 0.32919315
-5.8678823 1.6358596 0.31924933
-5.6942472 1.6260785 0.31035221
-5.5114136 1.6112914 0.30093175
-5.3482437 1.5996243 0.29255798
-5.1949863 1.5889168 0.28470761
-5.0516033 1.579356 0.27738056
-4.9180045 1.5712796 0.27057689
-4.7844858 1.5622797 0.2637732
-3.6472805 1.502368 0.20672703
-3.6285589 1.5213943 0.20620367
-3.6372986 1.5520005 0.20725039
-3.6366353 1.5788014 0.20777375
-6.0499845 2.9950156 0.35379106
-6.0578127 3.0464277 0.35536113
-6.980967 4.6870365 0.44066873
-6.9266114 4.7139525 0.43909866
-6.9132981 4.7687192 0.44014537
-1.2395178 1.0396187 0.084784247
-1.2557942 1.066782 0.086354323
-1.2490664 1.0746516 0.086354323
-1.2272317 1.0693572 0.085307606
-1.2130013 1.070439 0.084784247
-1.1988058 1.0713844 0.084260888
-1.1846461 1.0721947 0.08373753
-1.1631627 1.0661213 0.082690813
-1.1491393 1.0665963 0.082167447
-1.1279542 1.0600183 0.081120729
-1.1141125 1.0601214 0.080597371
-1.1002388 1.0601711 0.080074012
-1.0864081 1.0600891 0.079550654
-1.0726228 1.059875 0.079027295
-1.0518409 1.0524493 0.07798057
-1.0382843 1.0518394 0.077457212
-1.0247591 1.0511185 0.076933853
-1.0042826 1.0431479 0.075887136
1.1134268 1.4617139 0.096298158
1.128666 1.4626136 0.096821517
1.1438563 1.4634606 0.097344875
1.1653227 1.4719858 0.098391593
1.1745484 1.4646348 0.098391593
1.1900241 1.4649773 0.098914959
1.2118953 1.4728942 0.099961676
1.2147325 1.4575791 0.099438317
1.2238666 1.4499182 0.099438317
1.2394418 1.4497902 0.099961676
1.2616001 1.4570732 0.10100839
1.2772905 1.4566469 0.10153175
1.2929215 1.4561726 0.10205511
1.3086193 1.4555387 0.10257848
1.7701259 1.4000944 0.11827926
1.8024784 1.4074116 0.11984934
1.826982 1.4084107 0.12089606
2.315604 1.3419037 0.14026035
2.358676 1.3471388 0.1423538
5.168644 0.87870598 0.27476376
5.3415422 0.87399358 0.28366089
6.2719288 0.86510783 0.33180997
6.2474661 0.82232112 0.33023989
6.2623625 0.78473657 0.33076325
6.3762498 0.75834692 0.3365202
6.5892849 0.74172723 0.34751076
8.49053 0.90175605 0.44747242
8.5357761 0.85236001 0.44956586
8.2227898 0.7689575 0.43281835
8.3766756 0.73042428 0.44066873
8.4407625 0.68334389 0.44380891
8.4548035 0.63163912 0.44433227
9.3652401 0.64051074 0.49195799
8.8806915 0.55133569 0.46631336
8.4951191 0.47383636 0.44590235
8.5278444 0.42207101 0.44747242
8.5103416 0.36836123 0.44642571
8.5823221 0.3180753 0.45008922
9.0732479 0.2791951 0.47573385
18.648811 0.45658311 0.97763562
18.102156 0.32940766 0.94885087
18.133825 0.21601938 0.95042098
18.114853 0.10196507 0.94937426
18.095163 -0.011545921 0.94832748
18.084759 -0.12359396 0.94780415
18.073656 -0.23580712 0.94728076
18.081802 -0.34955505 0.94780415
13.328982 -2.0221384 0.7065354
13.316197 -2.1046851 0.7065354
13.302866 -2.187367 0.7065354
10.611401 -1.813362 0.56418163
10.285147 -1.8241922 0.54743409
10.253839 -1.885168 0.54638737
10.21236 -1.9439551 0.54481727
8.5734406 -1.6878695 0.45793959
8.5626945 -1.7415642 0.45793959
4.0125246 -1.3829935 0.22242782
3.8907311 -1.3683535 0.2161475
-1.0063306 -1.440397 -0.34154809
-1.0267057 -1.4500686 -0.34536427
-1.0357965 -1.443589 -0.34536427
-1.0505871 -1.4450152 -0.34727237
-1.0653418 -1.4463817 -0.34918046
-1.0684438 -1.4318624 -0.34727237
-1.0774193 -1.4251209 -0.34727237
-1.0982589 -1.4339331 -0.35108855
-1.1432244 -1.4736366 -0.36253709
-1.1523649 -1.4665 -0.36253709
-1.1676698 -1.4669107 -0.36444518
-1.1645399 -1.4442623 -0.36062899
-1.167382 -1.429314 -0.3587209
-1.1700824 -1.4143873 -0.3568128
-1.1726416 -1.3994836 -0.35490471
-1.1814116 -1.3920881 -0.35490471
-1.1773379 -1.369749 -0.35108855
-1.1858913 -1.3623505 -0.35108855
-1.1878189 -1.3476124 -0.34918046
-1.1896385 -1.3328774 -0.34727237
-1.1848249 -1.3108119 -0.34345618
-1.1598699 -1.2671629 -0.33391574
-1.1276634 -1.216754 -0.32246721
-1.1419241 -1.2168771 -0.32437527
-1.1089752 -1.1669837 -0.31292674
-1.1366796 -1.181237 -0.31865102
-1.1371267 -1.1671404 -0.31674293
-1.1781648 -1.0534012 -0.30720249
-1.1994778 -1.0589714 -0.31101865
-1.2282827 -1.070792 -0.31674293
-1.2423327 -1.0695658 -0.31865102
-1.2564377 -1.0681789 -0.32055911
-1.270643 -1.0665746 -0.32246721
-1.2848774 -1.0648336 -0.32437527
-1.29914 -1.0629556 -0.32628337
-1.3134292 -1.0609401 -0.32819146
-1.3200693 -1.0526668 -0.32819146
-1.3343705 -1.0504236 -0.33009955
-3.9297066 -2.8244314 -0.94068831
-3.8831401 -2.754508 -0.92542362
-3.9003704 -2.7300553 -0.92542362
-3.9174469 -2.7054949 -0.92542362
-3.9100323 -2.6642451 -0.91969937
-3.9022548 -2.6231959 -0.91397506
-3.8941169 -2.5823503 -0.90825081
-3.8938358 -2.5470848 -0.90443462
-3.8932657 -2.5119252 -0.90061843
-3.8923542 -2.4769588 -0.89680225
-3.882684 -2.4371388 -0.891078
-3.8894157 -2.4077837 -0.88916993
-3.8793314 -2.3679552 -0.88344562
-3.9118102 -1.7604997 -0.8338353
-3.9227941 -1.7358875 -0.8338353
-3.8976178 -1.6955425 -0.82620293
-3.9081943 -1.6710197 -0.82620293
-3.9005165 -1.6388261 -0.82238674
-3.9016628 -1.6105409 -0.82047868
-3.8764672 -1.432411 -0.80330586
-3.7838724 -1.3712369 -0.78231686
-3.8016632 -1.3507216 -0.78422499
-3.7915344 -1.3203521 -0.7804088
-3.7625661 -1.2839056 -0.77277642
-3.7890682 -1.2667938 -0.77659261
-3.7875423 -1.2401557 -0.77468449
-3.8046076 -1.2193295 -0.77659261
-3.7934606 -1.1895262 -0.77277642
-3.7820902 -1.1599115 -0.76896024
-3.7799006 -1.1333059 -0.76705217
-3.7869468 -1.1095339 -0.76705217
-3.774945 -1.0803989 -0.76323599
-3.7815664 -1.0569893 -0.76323599
-3.6565583 0.42437312 -0.71553373
-3.6733069 0.44972429 -0.71934992
-3.7872388 0.48784354 -0.74224699
-3.7841103 0.51154608 -0.74224699
-3.7808681 0.53498286 -0.74224699
-3.7774684 0.55848163 -0.74224699
-3.7738848 0.58220601 -0.74224699
-3.7604604 0.60434783 -0.74033886
-3.7565887 0.62796444 -0.74033886
-3.7428975 0.64987504 -0.7384308
-3.7484012 0.67512041 -0.74033886
-3.7537351 0.70045853 -0.74224699
-3.7492597 0.72403097 -0.74224699
-3.7542629 0.74949467 -0.74415505
-3.7494795 0.7730695 -0.74415505
-3.7445657 0.79653001 -0.74415505
-3.7491472 0.82181817 -0.74606317
-3.7439651 0.84511214 -0.74606317
-3.7385812 0.86862034 -0.74606317
-3.7425973 0.89437383 -0.74797124
-3.7369037 0.91787249 -0.74797124
-3.7310631 0.94133294 -0.74797124
-3.7250745 0.96475822 -0.74797124
-3.7284267 0.99066418 -0.74987936
-3.7315993 1.0166522 -0.75178742
-3.7251382 1.0400773 -0.75178742
-3.6211369 1.4402931 -0.75751168
-3.575623 1.4482752 -0.74987936
-3.5846021 1.4781983 -0.75369555
-3.611449 1.5158876 -0.76132786
-3.6108801 1.542406 -0.76323599
-3.6011181 1.5650623 -0.76323599
-3.6549144 1.7542783 -0.78804111
-3.6702878 1.7901186 -0.79376543
-3.6589682 1.8131433 -0.79376543
-3.6738074 1.8493394 -0.79948968
-3.6795959 1.8813224 -0.80330586
-3.676414 1.9089292 -0.80521393
-3.6643479 1.93199 -0.80521393
-3.6607904 1.9596092 -0.80712205
-3.6656563 1.9919447 -0.81093824
-3.6702585 2.0244203 -0.81475437
-3.648946 2.0425656 -0.8128463
-3.6532915 2.074831 -0.81666249
-3.6488264 2.1024053 -0.81857055
-3.652493 2.1351991 -0.82238674
-3.6558919 2.1681197 -0.82620293
-3.6506081 2.1961086 -0.82811105
-3.6618769 2.2343402 -0.8338353
-3.6561127 2.2624707 -0.83574337
-3.6667695 2.3010504 -0.84146768
-3.6439571 2.3187749 -0.83955956
-3.6458647 2.3521879 -0.84337574
-3.639436 2.3801055 -0.84528381
-3.6409299 2.4135363 -0.84909999
-3.6256928 2.4363663 -0.84909999
-3.6346531 2.4756761 -0.8548243
-1.2480874 1.047641 -0.31674293
-1.2564375 1.0681791 -0.32055911
-1.2497015 1.0760521 -0.32055911
-1.2281195 1.0709792 -0.31674293
-1.2140088 1.0721761 -0.31483483
-1.1926146 1.0666949 -0.31101865
-1.1858891 1.0741668 -0.31101865
-1.1646485 1.068326 -0.30720249
-1.1435527 1.0622355 -0.3033863
-1.1297983 1.0625755 -0.30147821
-1.1160609 1.0628104 -0.29957011
-1.1022947 1.062988 -0.29766202
-1.0885713 1.0630344 -0.29575393
-1.0679107 1.0560488 -0.29193777
-1.0543413 1.0557685 -0.29002967
-1.0477794 1.062281 -0.29002967
-1.0274552 1.0547121 -0.28621349
-1.0140023 1.0540729 -0.28430539
-1.0005989 1.053306 -0.2823973
1.1491306 1.4690356 -0.36253709
1.1704344 1.4772503 -0.36635327
1.1858374 1.4775227 -0.36826137
-1.0104216 -1.4450433 0.15426566
-1.0194811 -1.4386662 0.15426566
-1.0343107 -1.4403242 0.15513723
-1.0433007 -1.4338256 0.15513723
-1.0521648 -1.4273338 0.15513723
-1.0669879 -1.42874 0.15600878
-1.1823976 -1.4652309 0.16472435
-1.1915805 -1.4577729 0.16472435
-1.1943635 -1.4425839 0.1638528
-1.1906017 -1.4197845 0.16210967
-1.1930499 -1.4046829 0.16123812
-1.1888592 -1.3820547 0.15949501
-1.1778508 -1.3520561 0.15688033
-1.1927958 -1.3522029 0.15775189
-1.1589239 -1.0353789 0.13596296
-1.172877 -1.034667 0.13683452
-1.2168849 -1.0600264 0.1411923
-1.2234292 -1.0524665 0.1411923
-1.2375475 -1.051282 0.14206386
-1.2593939 -1.0562891 0.14380698
-1.2736787 -1.054709 0.14467853
-1.2802804 -1.0466853 0.14467853
-1.2868316 -1.0386205 0.14467853
-1.3167055 -1.0491384 0.14729321
-1.3311014 -1.0470035 0.14816476
-1.329785 -1.0325098 0.14729321
-4.7043476 -3.422812 0.50898951
-4.4989014 -3.2308922 0.48458591
-3.9581194 -2.8053582 0.42444846
-3.9348497 -2.7518868 0.42009068
-3.9356639 -2.7157934 0.41834757
-3.9361808 -2.6797988 0.41660443
-3.9364011 -2.6439054 0.41486132
-3.9363265 -2.6081157 0.41311821
-3.9192805 -2.5615313 0.409632
-3.9185517 -2.5260601 0.40788886
-3.9090576 -2.4854622 0.40527418
-3.9075029 -2.450609 0.40353107
-3.9142056 -2.4210038 0.40265954
-3.9038248 -2.3808017 0.40004486
-3.8377662 -1.3079073 0.35472387
-3.8174486 -1.2746391 0.35210919
-3.8347757 -1.2539537 0.35298076
-3.833091 -1.2267978 0.35210919
-3.8312168 -1.1997128 0.35123762
-3.8291538 -1.1726998 0.35036609
-3.8173597 -1.142903 0.34862298
-3.8149042 -1.116098 0.34775141
-3.812233 -1.089474 0.34687984
-3.8093147 -1.0631552 0.3460083
-6.8008752 -1.6714029 0.61270487
-7.2859955 -1.7421553 0.65541118
-6.9280763 -1.6106243 0.62229198
-6.9380598 -1.5670605 0.62229198
-6.9672303 -1.5277058 0.62403512
-6.9474597 -1.4776802 0.62142044
-6.9370933 -1.4299785 0.61967731
-6.926403 -1.3824618 0.61793423
-6.9251342 -1.3372164 0.61706263
-6.9234943 -1.292454 0.61619109
-6.8921876 -1.242274 0.61270487
-6.8605976 -1.1921211 0.60921866
-6.8747602 -0.97444618 0.60747552
-6.9103632 -0.93523806 0.6100902
-6.7797251 1.0050714 0.59963149
-6.7535863 1.044606 0.59788841
-6.7665601 1.0901865 0.59963149
-6.7792263 1.1359748 0.60137463
-6.7621408 1.1768374 0.60050309
-6.7546129 1.2193036 0.60050309
-6.746819 1.261718 0.60050309
-6.7387576 1.3040862 0.60050309
-6.7304311 1.3463993 0.60050309
-6.7315946 1.3906784 0.60137463
-6.7325063 1.4348387 0.60224617
-6.7234864 1.4765261 0.60224617
-6.7238851 1.5205331 0.6031177
-6.7239008 1.5650104 0.6039893
-6.7139349 1.6072251 0.6039893
-6.713377 1.6517599 0.60486084
-6.7125254 1.6963475 0.60573238
-6.4606643 1.6759559 0.58394349
-6.2189617 1.6550274 0.56302607
-6.0450597 1.6494902 0.54820961
-5.8522925 1.6364663 0.53165001
-5.6790872 1.6265759 0.51683354
-5.4967294 1.6116202 0.50114554
-5.3339663 1.5998555 0.48720059
-5.1810913 1.5890557 0.47412723
-5.0285592 1.5764275 0.46105388
-4.9047637 1.5713546 0.45059517
-4.7715778 1.5622706 0.43926492
-3.6095848 1.4901587 0.34165052
-3.6185191 1.5205263 0.34339362
-3.6363726 1.5549834 0.3460083
-3.6356657 1.5817739 0.34687984
-6.9520044 4.675519 0.73297977
-6.9224916 4.7191052 0.73297977
-6.966465 4.8134751 0.74082381
-6.9442453 4.862864 0.74169534
-1.2433088 1.0444622 0.14206386
-1.2518959 1.0651648 0.14380698
-1.2376324 1.0665063 0.14293541
-1.2234017 1.0677108 0.14206386
-1.209205 1.0687788 0.1411923
-1.1950428 1.0697114 0.14032075
-1.173537 1.0638173 0.13857763
-1.1594908 1.0644332 0.13770607
-1.1455131 1.0648831 0.13683452
-1.1243848 1.0583048 0.13509139
-1.1105655 1.0584089 0.13421984
-1.0895568 1.0515302 0.13247673
-1.0829287 1.058355 0.13247673
-1.062096 1.0511236 0.13073361
-1.048463 1.0506955 0.12986206
-1.0349399 1.0500766 0.1289905
-1.0214369 1.049358 0.12811893
-1.0010161 1.0413914 0.12637582
1.009047 1.4702331 0.15600878
6.3321142 1.0309665 0.56128299
6.249886 0.97730893 0.55343896
6.2770424 0.86085916 0.5543105
6.2526221 0.81807417 0.55169582
6.267478 0.78037763 0.55256742
6.4107614 0.75734508 0.56476921
6.6133995 0.73918152 0.58220035
8.4903469 0.89499271 0.7469247
8.4958029 0.84163004 0.7469247
8.233099 0.76339948 0.72339267
8.4064379 0.72646016 0.73820913
8.4504986 0.67754513 0.74169534
8.4644861 0.62567806 0.74256694
9.3826618 0.63429934 0.82275021
8.9986744 0.55156499 0.78875947
8.5145626 0.46821219 0.74605316
8.5073757 0.4144524 0.74518156
8.5097799 0.36173442 0.74518156
8.621376 0.31274152 0.75476873
9.1011286 0.27289751 0.7966035
18.64353 0.44180083 1.6315554
18.108074 0.31528699 1.5844914
18.119659 0.20161577 1.5853629
18.120569 0.08776316 1.5853629
18.10084 -0.025570113 1.5836198
18.08041 -0.1375673 1.5818768
18.079205 -0.25008327 1.5818768
18.156956 -0.36527574 1.5888492
14.322641 -2.0926383 1.2663729
13.33431 -2.033514 1.1800888
13.311616 -2.1145289 1.1792172
13.298199 -2.1973293 1.1792172
10.623377 -1.8239981 0.94302511
10.278252 -1.8312981 0.91339219
10.295932 -1.9012688 0.91600686
8.5805302 -1.6962676 0.76522744
8.5795116 -1.751906 0.76609898
-1.0136821 -1.4484953 -0.28001767
-1.0284771 -1.4501539 -0.28158203
-1.0433326 -1.4516836 -0.28314638
-1.0465715 -1.4371499 -0.28158203
-1.1847262 -1.4298009 -0.2940968
-1.1873372 -1.4147633 -0.29253244
-1.1834093 -1.3922241 -0.28940377
-1.1921335 -1.3847611 -0.28940377
-1.2007658 -1.3772824 -0.28940377
-1.1896663 -1.347603 -0.28471074
-1.1980369 -1.3401669 -0.28471074
-1.1998049 -1.325291 -0.28314638
-1.1680187 -1.274083 -0.27376032
-1.2218009 -1.063477 -0.25655252
-1.2433467 -1.0687633 -0.2596812
-1.2575094 -1.0673897 -0.26124555
-1.2717612 -1.0658118 -0.2628099
-1.2860425 -1.0640965 -0.26437426
-1.300352 -1.0622435 -0.26593858
-1.3070006 -1.0540522 -0.26593858
-1.3290516 -1.0581231 -0.26906729
-1.3434393 -1.0558548 -0.27063161
-3.901232 -2.7627385 -0.75714278
-3.9104176 -2.7325146 -0.75557846
-3.9275091 -2.707891 -0.75557846
-3.9281125 -2.67205 -0.75244975
-3.9202201 -2.6308048 -0.74775672
-3.9119654 -2.5897653 -0.74306369
-3.9033506 -2.5489337 -0.73837066
-3.9026816 -2.5136616 -0.73524195
-3.8933063 -2.4733305 -0.73054892
-3.9001863 -2.4439166 -0.72898459
-3.8901267 -2.4039998 -0.72429156
-3.8168936 -1.3527578 -0.64138132
-3.7973278 -1.3190265 -0.63668823
-3.8054979 -1.2952659 -0.63668823
-3.8040805 -1.2685384 -0.63512391
-3.8212967 -1.2478859 -0.63668823
-3.810246 -1.2178375 -0.63355958
-3.798969 -1.1879774 -0.63043088
-3.7969134 -1.1611959 -0.62886655
-3.6493695 0.42644274 -0.58193618
-3.7348425 0.46023658 -0.59601527
-3.7710569 0.48877123 -0.60227269
-3.7875021 0.51499176 -0.6054014
-3.7842386 0.53844947 -0.6054014
-3.761272 0.55910695 -0.60227269
-3.7576849 0.58272761 -0.60227269
-3.7539492 0.60632718 -0.60227269
-3.7598062 0.63153696 -0.60383701
-3.7557638 0.65514898 -0.60383701
-3.7515733 0.67873305 -0.60383701
-3.7569423 0.70411181 -0.6054014
-3.7330518 0.72394162 -0.60227269
-3.7477977 0.75126618 -0.6054014
-3.7430036 0.77479833 -0.6054014
-3.7380879 0.79817843 -0.6054014
-3.7427166 0.82344687 -0.60696572
-3.747148 0.84892499 -0.60853004
-3.7417402 0.87245113 -0.60853004
-3.7457891 0.89824802 -0.61009443
-3.7400715 0.92176467 -0.61009443
-3.7437806 0.94767064 -0.61165875
-3.7473121 0.97365749 -0.61322308
-3.7315767 0.99464041 -0.61165875
-3.7347813 1.0206696 -0.61322308
-3.5965552 1.4600437 -0.61478746
-3.5964389 1.4863842 -0.61635178
-3.6143408 1.5204422 -0.62104481
-3.6228764 1.5508947 -0.62417352
-3.6221151 1.5775721 -0.62573785
-3.6671932 1.763718 -0.64450997
-3.6649134 1.7910604 -0.64607435
-3.6801264 1.8272305 -0.65076739
-3.6862109 1.8592119 -0.65389603
-3.6832466 1.8868405 -0.65546042
-3.6888433 1.9190613 -0.65858907
-3.676712 1.942202 -0.65858907
-3.6818452 1.9746002 -0.66171777
-3.6693652 1.9976958 -0.66171777
-3.674031 2.0302649 -0.66484648
-3.6612694 2.0531893 -0.66484648
-3.6742313 2.0904882 -0.66953951
-3.6782475 2.1232083 -0.67266816
-3.664835 2.1462765 -0.67266816
-3.6597679 2.1743066 -0.67423254
-3.6544943 2.2023556 -0.67579687
-3.6658657 2.2407281 -0.6804899
-3.6685045 2.2741239 -0.68361861
-3.6541429 2.2971299 -0.68361861
-3.6479669 2.3253522 -0.68518293
-3.6499519 2.35883 -0.68831164
-3.6517901 2.3922246 -0.69144034
-3.6532743 2.4258528 -0.69456899
-3.6379607 2.4487579 -0.69456899
-3.6469786 2.4882684 -0.69926202
-1.2549653 1.0550961 -0.2596812
-1.2633513 1.0757668 -0.2628099
-1.2341282 1.0643322 -0.25811687
-1.2199779 1.0655679 -0.25655252
-1.213259 1.0732118 -0.25655252
-1.1991355 1.074223 -0.25498816
-1.1777319 1.0684637 -0.25185949
-1.156449 1.0624776 -0.24873079
-1.1425542 1.0629575 -0.24716645
-1.121567 1.0564719 -0.24403776
-1.1078172 1.056621 -0.24247342
-1.0940524 1.0566987 -0.24090907
-1.0803301 1.056646 -0.23934473
-1.0666527 1.0564623 -0.23778038
-1.0530546 1.0561146 -0.23621604
-1.0326298 1.0485446 -0.23308735
-1.0191925 1.0478759 -0.23152301
-1.0125886 1.0542587 -0.23152301
1.0477068 1.484944 -0.28783941
1.0627123 1.486401 -0.28940377
1.0776955 1.4877869 -0.29096809
1.0869899 1.48101 -0.29096809
6.2531309 0.85511309 -0.99961621
6.2387214 0.81379837 -0.9964875
6.2436695 0.7749235 -0.9964875
-1.0078514 -1.4389598 0.21570873
-1.0226177 -1.4406927 0.21692742
-1.0432408 -1.4503543 0.21936481
-1.046432 -1.4357897 0.21814612
-1.0553079 -1.4292787 0.21814612
-1.2001189 -1.4288532 0.22911437
-1.1897793 -1.3986043 0.22545828
-1.1985434 -1.3911011 0.22545828
-1.1991841 -1.0562005 0.19620964
-1.2057564 -1.0486913 0.19620964
-1.2272896 -1.0541346 0.19864702
-1.2489763 -1.059303 0.20108442
-1.2556075 -1.0514346 0.20108442
-1.2698387 -1.0498492 0.20230311
-1.2917885 -1.0544022 0.20474049
-1.2983879 -1.0462649 0.20474049
-1.3127036 -1.0442654 0.20595919
-1.3270451 -1.042127 0.20717788
-4.7941532 -3.4824779 0.72755998
-4.5897789 -3.2907712 0.69343656
-4.1483741 -2.9353113 0.62397105
-3.9307287 -2.7444103 0.58862895
-3.9315474 -2.7083972 0.58619153
-3.9320691 -2.6724825 0.58375412
-3.9322956 -2.6366689 0.58131677
-3.9405062 -2.6064339 0.58009809
-3.9318671 -2.5653529 0.576442
-3.9228685 -2.5244839 0.57278591
-3.9134171 -2.4839802 0.56912982
-3.911907 -2.4491518 0.56669241
-3.9102085 -2.4142878 0.56425506
-3.9168227 -2.3845105 0.56303638
-11.751392 -5.0081539 1.5684584
-11.919954 -4.9917278 1.5867388
-12.107126 -4.9809313 1.6074566
-3.8044498 -1.2670248 0.49235213
-3.8028383 -1.2402052 0.49113345
-3.8294666 -1.2223231 0.49357083
-3.8275967 -1.1952792 0.49235213
-3.8445239 -1.1741053 0.49357083
-3.8328037 -1.1442477 0.49113345
-3.8303893 -1.1173635 0.48991475
-3.8182013 -1.0879817 0.48747736
-3.8057446 -1.0589825 0.48503998
-6.8460221 -0.18674313 0.84089845
-6.8371367 -0.14351836 0.83967978
-6.8379035 -0.10055491 0.83967978
-6.8284755 -0.057507556 0.83846104
-6.8187766 -0.014579017 0.83724236
-6.798883 0.028180603 0.83480501
-6.8277783 0.11325651 0.83846104
-6.8170166 0.15559143 0.83724236
-6.8059835 0.19813009 0.83602369
-6.8046041 0.24089104 0.83602369
-6.8029561 0.28363883 0.83602369
-6.7865658 0.41002965 0.83480501
-6.7838559 0.4526608 0.83480501
-6.7808776 0.49527767 0.83480501
-6.7776318 0.53787142 0.83480501
-6.78403 0.58103472 0.83602369
-6.7704158 0.62214965 0.83480501
-6.7664056 0.66434717 0.83480501
-6.7719698 0.70787847 0.83602369
-3.8059299 0.51899844 0.47163436
-3.782989 0.53976631 0.46919698
-3.7991846 0.56626701 0.47163436
-3.7857442 0.58860081 0.47041565
-3.781971 0.61237663 0.47041565
-3.7780488 0.63612622 0.47041565
-3.773977 0.65985274 0.47041565
-3.7697568 0.68355119 0.47041565
-3.7653873 0.70722467 0.47041565
-3.770613 0.73276168 0.47163436
-3.7659342 0.75643957 0.47163436
-3.7611072 0.78008556 0.47163436
-3.7561622 0.80355871 0.47163436
-3.7511113 0.82681674 0.47163436
-3.7458839 0.85018468 0.47163436
-3.7501338 0.87596053 0.47285303
-3.7542067 0.90182519 0.47407174
-3.7484665 0.92539465 0.47407174
-3.7521989 0.95136899 0.47529042
-3.7461474 0.97492486 0.47529042
-3.7495372 1.0010043 0.47650912
-3.7431741 1.0245426 0.47650912
-3.7366624 1.0480422 0.47650912
-3.7395437 1.074239 0.47772783
-3.7327621 1.0975717 0.47772783
-3.7258897 1.1206791 0.47772783
-3.7283618 1.1466593 0.47894651
-3.7306542 1.1727148 0.48016521
-3.7232254 1.1960913 0.48016521
-3.7249608 1.2228808 0.48138389
-3.6135409 1.4951134 0.48016521
-3.6315172 1.5293461 0.48382127
-3.6218369 1.5521322 0.48382127
-3.6211109 1.5788261 0.48503998
-6.0528879 3.0082996 0.82993019
-6.6718092 3.3683424 0.91767615
-6.9064198 4.65274 1.0224838
-6.9016385 4.7128358 1.0261399
-1.2455319 1.048 0.19986571
-1.2540317 1.0686805 0.20230311
-1.2322644 1.0635686 0.19986571
-1.2180848 1.0647576 0.19864702
-1.2113711 1.0723896 0.19864702
-1.1972191 1.0733538 0.19742833
-1.1757543 1.0675113 0.19499095
-1.1617177 1.0681593 0.19377226
-1.1404957 1.0618666 0.19133486
-1.1194499 1.0552961 0.18889748
-1.1128489 1.0622547 0.18889748
-1.09188 1.0554292 0.18646009
-1.0852268 1.0622691 0.18646009
-1.0714819 1.0620791 0.1852414
-1.0438119 1.0476562 0.18158531
-1.0303389 1.047029 0.18036662
-1.0168742 1.0463139 0.17914793
-1.0102803 1.0526822 0.17914793
1.124041 1.4519644 0.22545828
1.1575131 1.4762148 0.23033306
1.1666934 1.4689701 0.23033306
1.182122 1.4693439 0.23155175
1.1976008 1.4695816 0.23277044
1.4688751 1.4365466 0.25226954
1.4850116 1.4341842 0.25348824
1.4939935 1.4248253 0.25348824
6.3097277 1.0222355 0.78483856
6.3160257 0.98257035 0.78483856
6.2645497 0.85420352 0.7763077
6.2598796 0.81409234 0.77508903
6.2549825 0.77383369 0.77387029
6.3977308 0.7507115 0.790932
6.5700245 0.72910964 0.8116498
8.469821 0.88610369 1.0456389
8.5147324 0.83675188 1.0505137
8.2134247 0.75506961 1.0127342
8.3762074 0.71731275 1.0322334
8.4200687 0.66854292 1.0371081
8.4438705 0.6174857 1.0395455
9.4577284 0.63191277 1.1638522
9.025589 0.54610008 1.1102297
8.5035639 0.46090904 1.0456389
8.5062771 0.40779582 1.0456389
8.498723 0.35466978 1.0444202
8.6197996 0.30590594 1.0590446
9.0977707 0.26564547 1.1175419
10.592819 -1.8273171 1.319845
9.9949169 -1.7889156 1.2467234
9.4955282 -1.7611775 1.1857888
9.1918516 -1.7646646 1.1492279
8.5575104 -1.6987013 1.0712315
8.5467348 -1.7521093 1.0712315
4.0140533 -1.3905787 0.52160078
3.9023511 -1.3792365 0.50819516
-1.0141134 -1.4466915 -0.21692742
-1.017435 -1.4321996 -0.21570873
-1.0322126 -1.433834 -0.21692742
-1.1922708 -1.4739093 -0.23277044
-1.1700546 -1.428002 -0.22667697
-1.1853429 -1.4282597 -0.22789566
-1.18152 -1.4055885 -0.22545828
-1.1903285 -1.3981369 -0.22545828
-1.1926078 -1.3831136 -0.22423959
-1.1946865 -1.3681688 -0.2230209
-1.196566 -1.3533047 -0.2218022
-1.1983658 -1.3384179 -0.22058351
-1.2000848 -1.3235087 -0.21936481
-1.154616 -1.2575067 -0.20961526
-1.1285952 -1.2139817 -0.2035218
-1.122541 -1.1924624 -0.20108442
-1.1300116 -1.1853856 -0.20108442
-1.1235993 -1.1640292 -0.19864702
-1.1446645 -1.1712421 -0.20108442
-1.1379875 -1.149967 -0.19864702
-1.2286377 -1.0677561 -0.19986571
-1.2427614 -1.0665877 -0.20108442
-1.2645366 -1.0716465 -0.2035218
-1.2712446 -1.0636804 -0.2035218
-1.2855552 -1.061993 -0.20474049
-1.2998939 -1.0601683 -0.20595919
-1.3142607 -1.0582043 -0.20717788
-1.3286532 -1.056102 -0.20839657
-1.3430715 -1.0538598 -0.20961526
-3.9144943 -2.7675171 -0.58862895
-3.923666 -2.7371871 -0.58741021
-3.9244342 -2.701226 -0.58497286
-3.9166965 -2.6597857 -0.58131677
-3.9003463 -2.6130276 -0.576442
-3.9084077 -2.5829959 -0.57522327
-3.8996148 -2.5421278 -0.57156724
-3.898814 -2.506839 -0.56912982
-3.8976147 -2.471833 -0.56669241
-3.8960261 -2.4371083 -0.56425506
-3.8942611 -2.4023304 -0.56181765
-3.7970259 -1.2891018 -0.49235213
-3.8049405 -1.2655505 -0.49235213
-3.8221998 -1.2448597 -0.49357083
-3.811033 -1.21479 -0.49113345
-3.8091149 -1.1878668 -0.48991475
-3.7975159 -1.1581185 -0.48747736
-6.6043787 -1.6148627 -0.83480501
-6.6240516 -1.5756295 -0.83602369
-6.9045882 -1.5965917 -0.87014711
-6.9241681 -1.555351 -0.87136579
-6.5168056 -1.4208962 -0.81896198
-6.7489514 -1.4271497 -0.8469919
-6.3299541 -1.297053 -0.79336941
-6.3866577 -1.2669098 -0.79946285
-6.5601482 -1.2588322 -0.82018065
-6.6654115 -1.2362649 -0.8323676
-3.6571231 0.43026143 -0.45213526
-3.7823975 0.46911162 -0.46797827
-3.8089018 0.49671727 -0.47163436
-3.7860608 0.51778239 -0.46919698
-3.7729542 0.53982735 -0.46797827
-3.7695127 0.56335711 -0.46797827
-3.7560914 0.58550268 -0.46675956
-3.7621357 0.61068058 -0.46797827
-3.7582242 0.63430756 -0.46797827
-3.7639413 0.65962088 -0.46919698
-3.7597225 0.6832583 -0.46919698
-3.7553554 0.70686668 -0.46919698
-3.7605822 0.73234648 -0.47041565
-3.7559066 0.75595933 -0.47041565
-3.7510824 0.77954435 -0.47041565
-3.7461457 0.80293298 -0.47041565
-3.7507908 0.82826918 -0.47163436
-3.7455499 0.85165507 -0.47163436
-3.7401247 0.87517315 -0.47163436
-3.7442024 0.90097672 -0.47285303
-3.7384672 0.92448533 -0.47285303
-3.7422049 0.95039868 -0.47407174
-3.7361593 0.97389376 -0.47407174
-3.7395554 0.99991226 -0.47529042
-3.7331986 1.0233897 -0.47529042
-3.7458065 1.0521932 -0.47772783
-3.6038976 1.4663212 -0.47772783
-3.6129529 1.4965338 -0.48016521
-3.6217709 1.5269157 -0.4826026
-3.6212265 1.5535558 -0.48382127
-3.6113942 1.5762769 -0.48382127
-3.6748958 1.7709764 -0.50088298
-3.6726096 1.7983974 -0.50210166
-3.6790109 1.8302784 -0.50453907
-3.6762965 1.8578358 -0.50575775
-3.6822119 1.8899615 -0.50819516
-3.6878669 1.9222363 -0.51063251
-3.6844895 1.9500117 -0.51185125
-3.6809072 1.9778224 -0.51306993
-3.6858354 2.0104156 -0.51550734
-3.6731303 2.0335355 -0.51550734
-3.6776779 2.0661364 -0.51794469
-3.6734283 2.0937989 -0.51916337
-3.6688855 2.1216462 -0.52038211
-3.6726034 2.1547027 -0.52281946
-3.6845806 2.1929636 -0.52647555
-3.6707284 2.2160721 -0.52647555
-3.6567328 2.2390912 -0.52647555
-3.6678872 2.2777321 -0.53013164
-3.6619029 2.3060212 -0.53135031
-3.6557064 2.3343267 -0.53256905
-3.6577349 2.3678775 -0.5350064
-3.6512902 2.3959429 -0.53622508
-3.6527989 2.4296715 -0.53866249
-3.6539192 2.4636734 -0.54109985
-3.6465626 2.4921823 -0.54231858
-3.6194763 2.7503178 -0.55816156
-3.6257181 2.7911699 -0.56181765
-1.2593156 1.0469905 -0.20108442
-1.2527126 1.054882 -0.20108442
-1.2536116 1.0691733 -0.20230311
-1.2318468 1.0640522 -0.19986571
-1.2251371 1.0717708 -0.19986571
-1.21095 1.0728651 -0.19864702
-1.1967971 1.0738243 -0.19742833
-1.1753352 1.0679728 -0.19499095
-1.153994 1.0618951 -0.19255356
-1.1328228 1.0555419 -0.19011617
-1.1190406 1.0557301 -0.18889748
-1.1124319 1.0626915 -0.18889748
-1.091465 1.0558583 -0.18646009
-1.0706291 1.0488036 -0.18402271
-1.0640179 1.05551 -0.18402271
-1.050409 1.0550942 -0.18280402
-1.0368923 1.0545051 -0.18158531
-1.0233781 1.0538335 -0.18036662
-1.0098665 1.0530792 -0.17914793
1.1826988 1.4688796 -0.23155175
1.2107242 1.4844946 -0.23520783
1.226349 1.4845102 -0.23642652
1.2356522 1.4767755 -0.23642652
1.2513236 1.4765548 -0.23764521
1.2670408 1.476195 -0.23886392
5.162725 0.90034366 -0.64347011
5.3443928 0.89794087 -0.66540658
6.3199267 1.0213412 -0.78605723
6.2869868 0.97552443 -0.78118247
6.2103109 0.88385814 -0.77021426
6.2452102 0.84910333 -0.77387029
6.2405081 0.80911589 -0.77265161
6.2552857 0.77137738 -0.77387029
6.5261827 0.76318616 -0.80677503
-1.0006528 -1.4455303 0.27845335
-1.0097154 -1.4392145 0.27845335
-1.0244616 -1.4408915 0.28001767
-1.039268 -1.4424402 0.28158203
-1.0482403 -1.4359331 0.28158203
-1.1990315 -1.4435999 0.29722548
-1.1953615 -1.4209216 0.2940968
-1.1914544 -1.3983468 0.29096809
-1.200217 -1.3908331 0.29096809
-1.1958658 -1.3684493 0.28783941
-1.191231 -1.3462201 0.28471074
-1.199615 -1.3387545 0.28471074
-1.2013656 -1.3238765 0.28314638
-1.1828641 -1.2872704 0.276889
-1.130267 -1.2148364 0.2628099
-1.1446042 -1.2149434 0.26437426
-1.118126 -1.1719961 0.25655252
-1.1254108 -1.1650028 0.25655252
-1.1257012 -1.1509466 0.25498816
-1.1727667 -1.0444382 0.24873079
-1.208974 -1.0631382 0.25498816
-1.2155782 -1.0555806 0.25498816
-1.2220951 -1.0480289 0.25498816
-1.2512286 -1.0595248 0.2596812
-1.257861 -1.0516422 0.2596812
-1.272061 -1.0500056 0.26124555
-1.2862897 -1.0482317 0.2628099
-1.3005461 -1.0463203 0.26437426
-1.3148289 -1.044271 0.26593858
-1.329137 -1.0420831 0.26750293
-3.9286857 -2.7752361 0.76183581
-3.9298398 -2.7392011 0.75870717
-3.9388349 -2.7088585 0.75714278
-3.9394312 -2.6729655 0.75401413
-3.9397326 -2.6371725 0.75088543
-3.9232559 -2.5905969 0.74462801
-3.9063509 -2.5443332 0.73837066
-3.9139504 -2.5144002 0.73680633
-3.9128635 -2.4793782 0.73367763
-3.9030235 -2.439383 0.72898459
-3.9013646 -2.4045973 0.72585589
-3.9163959 -2.3800368 0.72585589
-3.8055518 -1.2641175 0.63512391
-3.8039792 -1.2372729 0.63355958
-3.8399129 -1.2223352 0.63825262
-3.8380868 -1.1952477 0.63668823
-3.8360727 -1.1682312 0.63512391
-3.8244045 -1.1384696 0.6319952
-3.8219981 -1.1116594 0.63043088
-3.8003516 -1.079713 0.62573785
-3.8069682 -1.056146 0.62573785
-3.8271513 -0.19724523 0.60696572
-3.8283 -0.17352813 0.60696572
-3.8391783 -0.15000235 0.60853004
-3.8499167 -0.12620185 0.61009443
-3.8407602 -0.10174716 0.60853004
-3.7919493 -0.076616473 0.60070831
-3.8121078 -0.053063489 0.60383701
-3.8024893 -0.029035976 0.60227269
-3.8223505 -0.0051694782 0.6054014
-3.7828004 0.018651234 0.59914398
-3.8021286 0.28071198 0.60383701
-3.8002899 0.30459478 0.60383701
-3.798317 0.32828149 0.60383701
-3.7962101 0.35180983 0.60383701
-3.7939389 0.37551057 0.60383701
-3.7575452 0.51536697 0.60070831
-3.7542799 0.53863907 0.60070831
-3.7606106 0.56353807 0.60227269
-3.7862711 0.59172964 0.60696572
-3.7922268 0.61709505 0.60853004
-3.7785363 0.63926142 0.60696572
-3.7744451 0.66299093 0.60696572
-3.760488 0.68492246 0.6054014
-3.7755215 0.71219939 0.60853004
-3.7612784 0.73401469 0.60696572
-3.756592 0.75763392 0.60696572
-3.7517576 0.78122121 0.60696572
-3.7468147 0.80459404 0.60696572
-3.7514012 0.82992762 0.60853004
-3.7461452 0.8533392 0.60853004
-3.7503259 0.87911314 0.61009443
-3.7447281 0.90266061 0.61009443
-3.74857 0.9285453 0.61165875
-3.7426615 0.95208085 0.61165875
-3.7461624 0.97807187 0.61322308
-3.7399428 1.0015912 0.61322308
-3.7431006 1.0276841 0.61478746
-3.7270615 1.0485085 0.61322308
-3.7298911 1.074639 0.61478746
-3.7420666 1.103457 0.61791611
-3.7257016 1.1237696 0.61635178
-3.728106 1.1497415 0.61791611
-3.7303305 1.1757883 0.61948049
-3.722856 1.1992439 0.61948049
-3.7151411 1.2229351 0.61948049
-3.6038086 1.4944037 0.61791611
-3.6307461 1.5323807 0.62417352
-3.6119714 1.5512644 0.62260914
-3.620254 1.5818385 0.62573785
-6.0396304 2.9604161 1.0653187
-6.0385919 3.0071127 1.0684474
-6.0636468 3.0672846 1.0762691
-6.0706096 3.118865 1.0809622
-6.0629377 3.2608011 1.0903482
-6.0596676 3.3082986 1.0934769
-6.0481877 3.7591729 1.1278925
-6.0411596 3.8076348 1.1310211
-6.9262881 4.6740403 1.3234355
-6.9130869 4.7286215 1.3265642
-1.2375584 1.0297235 0.25498816
-1.2461687 1.050209 0.25811687
-1.2545706 1.0708423 0.26124555
-1.2328739 1.0657849 0.25811687
-1.2187222 1.0670037 0.25655252
-1.2046034 1.0680878 0.25498816
-1.1831713 1.0624371 0.25185949
-1.1691649 1.0632055 0.25029513
-1.147931 1.0571486 0.24716645
-1.1196474 1.0440768 0.24247342
-1.1059752 1.0442135 0.24090907
-1.0922931 1.0442747 0.23934473
-1.0786144 1.0442468 0.23778038
-1.0579259 1.0371746 0.2346517
-1.0513886 1.043801 0.2346517
-1.0378956 1.0433327 0.23308735
-1.0244888 1.0426983 0.23152301
-1.0179571 1.049076 0.23152301
1.0046519 1.4787166 0.28314638
1.0251265 1.4886445 0.28627506
1.0344596 1.482174 0.28627506
6.2639074 0.84917527 1.0011805
6.2690487 0.81034815 1.0011805
6.264184 0.76997757 0.99961621
6.4160557 0.74775386 1.0230814
6.6071591 0.72797817 1.0528039
8.5076494 0.8833071 1.3547225
8.4835405 0.82696009 1.3500295
8.2525015 0.75212657 1.3124851
8.4482965 0.66419947 1.3422077
8.4424286 0.61071479 1.3406433
9.372509 0.61882555 1.4876918
8.9522619 0.53460711 1.4204249
8.482028 0.45306098 1.3453363
8.514286 0.40157101 1.3500295
8.5067415 0.34840515 1.3484651
8.627203 0.2993848 1.3672372
9.1028128 0.25863773 1.4423257
12.238974 -1.9635831 1.9632525
11.41787 -1.9050617 1.8334119
10.714716 -1.8570116 1.7223434
10.032086 -1.8037008 1.6144036
9.4670944 -1.7635958 1.525236
8.9224215 -1.7202059 1.4391971
8.5530424 -1.7047974 1.3813163
8.5519228 -1.7600751 1.3828807
-1.0041702 -1.4493945 -0.15426566
-1.0075325 -1.4349037 -0.1533941
-1.0223036 -1.4366618 -0.15426566
-1.019657 -1.4140496 -0.15252255
-1.0343215 -1.4157151 -0.1533941
-1.1818011 -1.4400289 -0.16298124
-1.1844577 -1.4249142 -0.16210967
-1.1869711 -1.4098233 -0.16123812
-1.189342 -1.3947574 -0.16036656
-1.1850594 -1.3721782 -0.15862344
-1.1907227 -1.0595911 -0.13944918
-1.2123238 -1.0652398 -0.1411923
-1.2339838 -1.0707257 -0.14293541
-1.240594 -1.0630597 -0.14293541
-1.2624243 -1.068154 -0.14467853
-1.2844013 -1.0729744 -0.14642164
-1.2834324 -1.0585445 -0.14555009
-1.2977829 -1.0567498 -0.14642164
-1.3121613 -1.0548164 -0.14729321
-1.3265663 -1.0527436 -0.14816476
-1.3488388 -1.0566747 -0.14990787
-3.9392037 -2.7803473 -0.42183378
-3.932071 -2.738462 -0.41921911
-3.940989 -2.7080603 -0.41834757
-3.9414351 -2.6720648 -0.41660443
-3.9250238 -2.6250947 -0.41311821
-3.9164944 -2.5839233 -0.41050354
-3.9159529 -2.5483971 -0.40876043
-3.9151206 -2.51298 -0.40701732
-3.9054461 -2.4725592 -0.40440264
-3.912241 -2.4430377 -0.40353107
-3.9019866 -2.4028661 -0.4009164
-3.8119848 -1.2908877 -0.35210919
-3.829365 -1.2703815 -0.35298076
-3.8277559 -1.2433439 -0.35210919
-3.816505 -1.213233 -0.35036609
-3.8240523 -1.1892294 -0.35036609
-3.8123872 -1.1593819 -0.34862298
-3.8100474 -1.1325667 -0.34775141
-3.8075218 -1.1058267 -0.34687984
-3.7951682 -1.0766523 -0.34513673
-6.8387442 -0.2645112 -0.59875995
-6.840271 -0.22153892 -0.59875995
-6.8415279 -0.17855424 -0.59875995
-6.8325548 -0.13536882 -0.59788841
-6.8332705 -0.092434332 -0.59788841
-6.8237548 -0.049427681 -0.59701681
-6.8139687 -0.0065406188 -0.59614527
-3.6702263 0.43472469 -0.32334781
-3.77616 0.47134858 -0.33293495
-3.8027561 0.49895242 -0.33554959
-3.789705 0.52127296 -0.33467805
-3.7765422 0.54332566 -0.33380648
-3.7730722 0.56691992 -0.33380648
-3.7694359 0.59061456 -0.33380648
-3.7656505 0.61428785 -0.33380648
-3.7715385 0.63960052 -0.33467805
-3.7674451 0.66328603 -0.33467805
-3.7632034 0.68694335 -0.33467805
-3.7588127 0.71057558 -0.33467805
-3.7542741 0.73417777 -0.33467805
-3.7495868 0.75775295 -0.33467805
-3.7642558 0.78536552 -0.33642116
-3.7592912 0.80879617 -0.33642116
-3.7444816 0.82991785 -0.33554959
-3.7489336 0.85552251 -0.33642116
-3.7434843 0.87905973 -0.33642116
-3.7475705 0.90490252 -0.33729273
-3.7418113 0.92843026 -0.33729273
-3.7359035 0.95192331 -0.33729273
-3.7298491 0.97537678 -0.33729273
-3.7332685 1.0013746 -0.33816427
-3.7365088 1.0274518 -0.33903584
-3.729979 1.0509095 -0.33903584
-3.7328742 1.0770856 -0.33990738
-3.7356472 1.1031365 -0.34077895
-3.7287402 1.1262616 -0.34077895
-3.7312093 1.152281 -0.34165052
-3.714498 1.1723794 -0.34077895
-3.6252124 1.4783143 -0.34252205
-3.6250534 1.5048814 -0.34339362
-3.6155262 1.5276294 -0.34339362
-3.6333127 1.5621196 -0.3460083
-3.6234255 1.5849184 -0.3460083
-3.6600945 1.7673881 -0.35559541
-3.6846917 1.8079016 -0.35908166
-3.6821747 1.8354626 -0.35995322
-3.6883452 1.8675613 -0.36169633
-3.6853969 1.8952558 -0.36256787
-3.691077 1.9275963 -0.36431101
-3.6876936 1.9554178 -0.36518255
-3.6841068 1.9832705 -0.36605412
-3.6803141 2.0111573 -0.36692566
-3.6850288 2.0439045 -0.36866879
-3.6722269 2.0668173 -0.36866879
-3.6680012 2.0944707 -0.36954033
-3.6720779 2.1273439 -0.37128347
-3.6758163 2.1604688 -0.37302658
-3.6707251 2.1886244 -0.37389812
-3.6739502 2.2219548 -0.37564126
-3.6599164 2.2449958 -0.37564126
-3.6626565 2.2784705 -0.37738436
-3.6566932 2.3067546 -0.3782559
-3.6589119 2.3404195 -0.37999904
-3.6442623 2.3631659 -0.37999904
-3.6545241 2.4021161 -0.38261372
-3.6477287 2.4304349 -0.38348526
-3.6488974 2.4644566 -0.38522837
-3.6497805 2.4985905 -0.3869715
-3.6226842 2.7572474 -0.39830175
-3.6289563 2.7982032 -0.4009164
-1.2554641 1.0454565 -0.14293541
-1.2641004 1.0661699 -0.14467853
-1.2498022 1.0676206 -0.14380698
-1.2355361 1.0689341 -0.14293541
-1.2213031 1.0701106 -0.14206386
-1.2071037 1.0711514 -0.1411923
-1.1929405 1.0720556 -0.14032075
-1.1714456 1.0661199 -0.13857763
-1.1500735 1.0599562 -0.13683452
-1.1361655 1.0603027 -0.13596296
-1.1223332 1.0604804 -0.13509139
-1.1156828 1.0674747 -0.13509139
-1.0946449 1.0605993 -0.13334829
-1.0737374 1.0535028 -0.13160516
-1.0600302 1.0532068 -0.13073361
-1.0464268 1.0527235 -0.12986206
-1.0329049 1.0520785 -0.1289905
-1.0263088 1.058514 -0.1289905
-1.005859 1.0505502 -0.12724738
1.0194914 1.4992918 -0.15862344
1.0288917 1.4928565 -0.15862344
1.0439558 1.4945292 -0.15949501
1.0590814 1.4960712 -0.16036656
1.0683793 1.4894456 -0.16036656
1.0834436 1.4908562 -0.16123812
1.0987291 1.492017 -0.16210967
1.1082115 1.4849874 -0.16210967
1.1295854 1.4938505 -0.1638528
1.1389492 1.4867237 -0.1638528
1.9253377 1.4006375 -0.20830221
1.9502848 1.4001321 -0.21004534
5.172586 0.89793551 -0.45931077
5.3352585 0.89215821 -0.47325566
6.314455 1.0153688 -0.55953985
6.2436986 0.88360751 -0.55169582
6.2589531 0.84603471 -0.55256742
6.2443142 0.80469275 -0.55082428
6.2492223 0.76564753 -0.55082428
6.5408769 0.75969779 -0.57609946
8.4566946 0.92839932 -0.74431002
8.5119057 0.88037068 -0.74866784
8.3487091 0.81050754 -0.73385131
8.2048187 0.74453223 -0.72077799
8.4376087 0.71269721 -0.74082381
8.4219999 0.65885073 -0.73908067
8.7439137 0.62907237 -0.76697052
8.9465046 0.58717 -0.78440166
8.472683 0.50262898 -0.74256694
8.505518 0.45096624 -0.74518156
8.4982109 0.39751375 -0.74431002
8.4806032 0.34404525 -0.74256694
8.940568 0.30674434 -0.78265858
10.276252 -1.7851763 -0.91252059
10.274636 -1.851475 -0.91339219
10.204044 -1.9050262 -0.90816283
8.6660261 -1.6743038 -0.77219987
8.5576458 -1.7092092 -0.7634843
8.5565901 -1.764491 -0.76435584
4.0641704 -1.3847432 -0.37564126
3.895432 -1.354627 -0.36082476
-1.0012335 -1.4439447 0.34154809
-1.0159303 -1.4456568 0.34345618
-1.0249935 -1.439245 0.34345618
-1.0397605 -1.4407365 0.34536427
-1.0602943 -1.4500859 0.34918046
-1.0634159 -1.4356004 0.34727237
-1.0841601 -1.4446223 0.35108855
-1.0991569 -1.4455959 0.35299665
-1.102142 -1.4309506 0.35108855
-1.135139 -1.4550529 0.3587209
-1.2081102 -1.4337885 0.36444518
-1.1979784 -1.4037689 0.3587209
-1.1939368 -1.3813608 0.35490471
-1.2025102 -1.3739039 0.35490471
-1.1979785 -1.3517339 0.35108855
-1.1998545 -1.3369077 0.34918046
-1.2016284 -1.3220782 0.34727237
-1.1699482 -1.271237 0.33582383
-1.1810561 -1.0501586 0.30720249
-1.1950077 -1.0491936 0.30911058
-1.2163475 -1.0545974 0.31292674
-1.2303146 -1.0534253 0.31483483
-1.251873 -1.0583835 0.31865102
-1.2660342 -1.0567873 0.32055911
-1.2802244 -1.0550547 0.32246721
-1.2944427 -1.0531851 0.32437527
-1.3086876 -1.0511785 0.32628337
-1.3152664 -1.042935 0.32628337
-1.337253 -1.0467515 0.33009955
-3.9468517 -2.7834249 0.93878025
-3.9159179 -2.72493 0.92733169
-3.9248691 -2.694716 0.92542362
-3.9335957 -2.6644969 0.9235155
-3.9257743 -2.6233671 0.91779125
-3.9175925 -2.5824411 0.912067
-3.9090524 -2.5417223 0.90634269
-3.9084191 -2.5065126 0.90252656
-3.9073503 -2.4716458 0.89871037
-3.9059327 -2.4369969 0.89489418
-3.9043803 -2.4022269 0.891078
-3.9026115 -2.367465 0.88726181
-3.8311245 -1.2957158 0.78613305
-3.8111246 -1.2626922 0.7804088
-3.8096118 -1.2357973 0.77850068
-3.8173013 -1.2118365 0.77850068
-3.8248401 -1.1878279 0.77850068
-3.8228352 -1.16092 0.77659261
-3.84672 -0.29210621 0.74987936
-3.8386869 -0.26724812 0.74797124
-3.8402903 -0.24312481 0.74797124
-3.8074558 -0.097873606 0.74033886
-3.8079956 -0.073947832 0.74033886
-3.7985697 -0.049892239 0.7384308
-3.7988081 -0.026023243 0.7384308
-3.7438128 0.51643771 0.73461461
-3.7502565 0.54102635 0.73652273
-3.7662122 0.56740105 0.74033886
-3.77227 0.59257787 0.74224699
-3.7684724 0.61626697 0.74224699
-3.7742033 0.64157873 0.74415505
-3.7700977 0.66527897 0.74415505
-3.7658432 0.68895495 0.74415505
-3.76144 0.71260172 0.74415505
-3.7568884 0.73622239 0.74415505
-3.7521887 0.75981194 0.74415505
-3.7569489 0.78538221 0.74606317
-3.742393 0.80667698 0.74415505
-3.7469058 0.83197743 0.74606317
-3.7416279 0.85540074 0.74606317
-3.7457347 0.8811419 0.74797124
-3.7496657 0.90696633 0.74987936
-3.7438929 0.93050915 0.74987936
-3.7284613 0.95158577 0.74797124
-3.7319045 0.97748166 0.74987936
-3.7256894 1.0009096 0.74987936
-3.7287905 1.0269063 0.75178742
-3.722265 1.0503135 0.75178742
-3.7155919 1.0736814 0.75178742
-3.7088389 1.0967816 0.75178742
-3.7207637 1.1254247 0.75560361
-3.7043417 1.1455551 0.75369555
-3.7158923 1.1744019 0.75751168
-3.708401 1.1978477 0.75751168
-3.7100167 1.2245234 0.7594198
-3.6077192 1.499348 0.7594198
-3.5982277 1.5219854 0.7594198
-3.6066265 1.5523261 0.76323599
