# .PCD v0.7 - Point Cloud Data file format
VERSION 0.7
FIELDS x y z
SIZE 4 4 4
TYPE F F F
COUNT 1 1 1
WIDTH 1472
HEIGHT 1
VIEWPOINT 0 0 0 1 0 0 0
POINTS 1472
DATA ascii
-2.0758193 -1.3830916 -0.57587469
-2.1170385 -1.3914281 -0.58487272
-2.1175632 -1.3727987 -0.58262324
-2.1097288 -1.3489687 -0.57812423
-2.0769536 -1.3097003 -0.56687665
-2.0603185 -1.2811886 -0.56012809
-2.4352183 0.88727963 -0.59836978
-2.4022622 0.89220005 -0.59162128
-2.3601587 0.89347672 -0.58262324
-2.3181353 0.89426136 -0.57362521
-2.2852654 0.89811641 -0.56687665
-2.2433932 0.89797449 -0.55787861
-2.219661 0.90469652 -0.5533796
-2.1779242 0.90371192 -0.54438156
-2.1451955 0.90619379 -0.537633
-2.1125348 0.90827221 -0.5308845
-2.0800054 0.90981281 -0.52413595
-2.0564427 0.9149428 -0.51963693
-2.0240219 0.91579521 -0.51288837
-1.991672 0.91627789 -0.50613987
-1.9682236 0.92051744 -0.50164086
-1.9360007 0.9203167 -0.4948923
-1.9126332 0.9239853 -0.49039328
-1.8805494 0.92310441 -0.48364475
-1.8572733 0.92620468 -0.47914574
-1.8340229 0.92906982 -0.47464672
-1.8020757 0.92735875 -0.46789819
-1.7788711 0.92977351 -0.46339917
-1.7643876 0.936364 -0.46114966
-1.7327355 0.93356705 -0.45440114
-1.7268357 0.94443518 -0.45440114
-1.7293866 0.95999604 -0.45665064
-1.7318101 0.9756251 -0.45890015
-1.7341048 0.99132329 -0.46114966
-1.7278421 1.0021989 -0.46114966
-1.7299083 1.0179775 -0.46339917
-1.7318448 1.0338205 -0.46564868
-1.7253147 1.044682 -0.46564868
-1.72702 1.0606004 -0.46789819
-1.7203103 1.0714494 -0.46789819
-1.7216872 1.0875912 -0.4701477
-1.7229402 1.1037744 -0.47239721
-1.7241426 1.1198852 -0.47464672
-1.7252096 1.1360554 -0.47689623
-1.7261418 1.152282 -0.47914574
-1.7188674 1.1631054 -0.47914574
-1.6917797 1.3943471 -0.50613987
-1.7128896 1.4299449 -0.51513791
-1.7409446 1.4722874 -0.52638549
-1.738946 1.4896684 -0.52863497
-1.7369121 1.5069499 -0.5308845
-1.727409 1.5178339 -0.5308845
-1.6960015 1.509225 -0.52413595
2.0250905 -2.804244 -0.79857624
1.984812 -2.7851727 -0.7895782
1.9672732 -2.7975886 -0.7895782
1.9441022 -2.8018887 -0.78732866
-1.3751538 -1.6096714 0.11095223
-1.3983088 -1.6161029 0.11199895
-1.3886648 -1.5847762 0.11042886
-1.4050848 -1.5836117 0.11095223
-14.526896 -6.3353267 0.83057159
-14.520521 -6.2242546 0.82795483
-15.010296 -6.322854 0.85359943
-15.197364 -6.2895174 0.86197317
-15.708388 -6.3857026 0.88866454
-4.7696114 -1.6986166 0.26534331
-4.7424765 -1.6554502 0.26324984
-4.7622333 -1.6288517 0.2637732
-4.7629046 -1.5957253 0.26324984
-4.7728367 -1.5657676 0.26324984
-4.7730722 -1.5326952 0.26272649
-4.7635541 -1.4966881 0.26167977
-4.7909412 -1.4065588 0.26167977
-4.8574018 -1.3925216 0.26481992
-7.8126435 -2.1341388 0.42444459
-7.8161011 -2.0829914 0.42392123
-7.8387003 -2.0363514 0.42444459
-7.8029671 -1.9746821 0.42182779
-7.6602435 -1.8867232 0.41345406
-4.8435063 -1.1282352 0.26063305
-4.7920604 -1.084553 0.2574929
-4.8963161 -1.0758549 0.26272649
-4.8541451 -1.034659 0.26010969
-4.8703294 -1.006161 0.26063305
-4.8569713 -0.97162098 0.25958633
-4.8237624 -0.93349659 0.2574929
-4.7804518 -0.89398986 0.25487611
-4.8842492 -0.88167715 0.26010969
-4.8700156 -0.84754556 0.25906298
-4.8752446 -0.81693107 0.25906298
-4.8704224 -0.78469324 0.25853962
-4.8752565 -0.75407743 0.25853962
-4.8798981 -0.72342926 0.25853962
-4.884347 -0.69275516 0.25853962
-4.8886037 -0.66205108 0.25853962
-4.8827624 -0.63004547 0.25801626
-4.8767128 -0.59813684 0.2574929
-4.8902941 -0.56863862 0.25801626
-4.8838444 -0.53680855 0.2574929
-4.8970537 -0.50714201 0.25801626
-4.890204 -0.47539547 0.2574929
-4.9129853 -0.44646907 0.25853962
-4.8765054 -0.25748938 0.25592282
-4.8879986 -0.22738776 0.25644618
-4.899292 -0.19749925 0.25696954
-4.8704853 -0.16595703 0.25539947
-4.8914089 -0.13548049 0.25644618
-4.8821869 -0.10418603 0.25592282
-4.9127007 -0.073960714 0.2574929
-7.9080524 0.57760692 0.41554749
-7.9440866 0.63044524 0.41764092
-7.9499187 0.68119717 0.41816428
-7.9355373 0.73022133 0.41764092
-7.940731 0.78104258 0.41816428
-7.925735 0.82988214 0.41764092
-7.9302897 0.8807646 0.41816428
-7.9345169 0.93174124 0.41868764
-7.7600255 0.96071607 0.40979052
-7.4270458 0.96691245 0.39251965
-7.1932521 0.98247427 0.38048241
-6.9299073 0.99090075 0.36687505
-6.7062583 1.0019571 0.35536113
-6.4827518 1.0102469 0.34384722
-6.2692723 1.017365 0.33285668
-6.0953388 1.0285887 0.32395956
-5.9214458 1.038082 0.31506246
-5.7477031 1.0453109 0.30616534
-5.5840025 1.0518256 0.2977916
-4.855731 1.0744054 0.26063305
-4.8684545 1.108907 0.26167977
-4.8711762 1.1414874 0.26220313
-4.8638058 1.1724946 0.26220313
-4.8465638 1.2009749 0.26167977
-4.8486004 1.2338644 0.26220313
-4.8504143 1.2668295 0.26272649
-2.429826 0.88638091 0.13555013
-2.3868325 0.88753587 0.13345669
-2.371871 0.89897525 0.13293333
-2.3568599 0.91026312 0.13240996
-2.30463 0.90677136 0.12979317
-2.2618082 0.90637577 0.12769973
-2.2283301 0.90925014 0.12612966
-2.1856689 0.90794641 0.12403622
-2.1522477 0.91018224 0.12246613
-2.1189024 0.91199571 0.12089606
-2.0856874 0.91327375 0.11932598
-2.0525405 0.91417199 0.1177559
-2.028563 0.91880941 0.11670918
-1.9955379 0.91900569 0.1151391
-1.9716361 0.9230569 0.11409238
-1.9297276 0.91826349 0.11199895
-1.9149299 0.92602211 0.11147559
-1.8911479 0.92922831 0.11042886
-1.8405976 0.91879106 0.10781207
-1.81696 0.9213348 0.10676535
-1.7932985 0.92374456 0.10571863
-1.7696956 0.92586237 0.10467191
-1.7462052 0.92759329 0.10362519
-1.7227631 0.92906684 0.10257848
-1.7256515 0.9446677 0.10310183
-1.7196816 0.95549202 0.10310183
-1.7136445 0.96627778 0.10310183
-1.7162068 0.98198575 0.10362519
-1.7186396 0.99776298 0.10414855
-1.7209411 1.0136102 0.10467191
-1.7145387 1.0244027 0.10467191
-1.7166084 1.0403315 0.10519527
-1.7185459 1.0563256 0.10571863
-1.7203315 1.0724142 0.10624199
-1.7134651 1.0833513 0.10624199
-1.7149532 1.0996075 0.10676535
-1.7163833 1.1158036 0.10728871
-1.7176765 1.1320617 0.10781207
-1.71053 1.1428313 0.10781207
-1.7281209 1.1703562 0.10938215
-1.708971 1.4278294 0.11670918
-1.7303312 1.464493 0.11880262
-1.7361534 1.4884582 0.11984934
-1.7343078 1.5058842 0.1203727
-1.7323107 1.5233463 0.12089606
-1.7227054 1.5342002 0.12089606
-1.7204471 1.5516827 0.12141941
-1.6811699 1.5355225 0.11932598
-1.6788194 1.5528365 0.11984934
1.0108663 1.629249 0.10048503
1.0264013 1.6313179 0.10100839
1.0366309 1.6248366 0.10100839
1.0522434 1.6266761 0.10153175
1.0624431 1.6200327 0.10153175
1.6532525 1.6230876 0.12141941
1.6777577 1.6265703 0.12246613
1.7167984 1.6436205 0.12455957
1.7343483 1.6396616 0.12508294
1.7373166 1.6219174 0.12455957
1.7695267 1.6312469 0.12612966
1.8020388 1.6401064 0.12769973
4.9798822 1.7022344 0.27581048
5.0663843 1.6958337 0.27999735
5.0675673 1.6604981 0.27947399
5.0120444 1.5383161 0.27476376
5.0216107 1.5067943 0.27476376
5.0405622 1.4780229 0.27528712
5.0401487 1.4435742 0.27476376
5.1741452 1.4468384 0.28156745
5.3276448 1.4537321 0.28941783
7.2787619 1.8881779 0.39408976
7.290482 1.842407 0.39408976
7.2825203 1.7917917 0.39304301
7.2839227 1.7436742 0.39251965
7.0029454 1.6299587 0.37681887
7.2175956 1.6321822 0.38780943
7.2179542 1.5846593 0.38728607
7.2277684 1.5392765 0.38728607
8.1663818 1.6857425 0.43700522
7.6674643 1.5332844 0.40979052
7.2944932 1.4115071 0.3893795
7.3229694 1.3686793 0.39042622
7.3118629 1.3185769 0.3893795
7.3200035 1.2726094 0.3893795
7.475594 1.2513212 0.39722991
7.8185291 1.2582749 0.41502413
17.389542 2.6866057 0.92215955
17.406078 2.5772915 0.92215955
17.412041 2.466475 0.92163616
16.853216 2.2793932 0.89128131
16.87711 2.1747353 0.8918047
16.89044 2.068651 0.8918047
16.903105 1.9624848 0.8918047
16.895248 1.8540627 0.89075798
16.896631 1.7468437 0.89023459
16.907272 1.640645 0.89023459
19.950617 1.8095059 1.0498593
19.971542 1.6849569 1.0503826
19.971779 1.5586624 1.0498593
19.981178 1.4331459 1.0498593
19.999754 1.3082246 1.0503826
19.99761 1.1819479 1.0498593
19.994669 1.05575 1.049336
12.980987 -0.53895652 0.6808908
12.368876 -0.59141368 0.64896584
12.364915 -0.66911757 0.64896584
12.34053 -0.74559051 0.64791912
9.3223381 -0.68090862 0.48986453
9.3278313 -0.74025893 0.49038789
7.8957601 -0.72656047 0.41554749
7.6127658 -0.74878567 0.40089342
7.6079111 -0.79660308 0.40089342
7.6226063 -0.84659266 0.40194014
-1.3815509 -1.5954689 -0.41023934
-1.3915136 -1.5867872 -0.41023934
-1.4078361 -1.5854754 -0.41214743
-1.3914137 -1.5474933 -0.40451506
-1.3945004 -1.5314622 -0.40260696
-1.4040952 -1.5226701 -0.40260696
-1.4136347 -1.5138179 -0.40260696
-1.5090652 -1.4613651 -0.40833125
-1.5465952 -1.478992 -0.41596359
-1.5558574 -1.4692453 -0.41596359
-1.5650902 -1.4594065 -0.41596359
-1.5887991 -1.4627037 -0.41977978
-1.6125487 -1.4658285 -0.42359596
-1.6362091 -1.4689243 -0.42741215
-1.660001 -1.4717468 -0.43122831
-1.6692154 -1.4612877 -0.43122831
-1.6709377 -1.4443516 -0.42932025
-1.709846 -1.4593146 -0.43695259
-1.6889552 -1.4232409 -0.42932025
-1.8901453 -1.4550824 -0.46366584
-1.8601708 -1.413483 -0.4541254
-1.9004273 -1.4253266 -0.46175775
-1.8856758 -1.3958367 -0.4560335
-1.997452 -1.4592395 -0.48083866
-4.7897511 -1.8751553 -0.99983913
-4.8014383 -1.8450235 -0.99983913
-4.7670112 -1.7975019 -0.99029869
-4.7229714 -1.7470809 -0.97885013
-4.679812 -1.6645663 -0.9654935
-4.6994476 -1.6383609 -0.96740156
-4.7189384 -1.6119744 -0.96930969
-4.7289734 -1.5822927 -0.96930969
-4.7294931 -1.5494925 -0.96740156
-4.7204409 -1.5137507 -0.96358544
-4.7204928 -1.4811227 -0.96167731
-4.7203212 -1.4485542 -0.95976925
-4.7664413 -1.3973049 -0.9654935
-4.822432 -1.3804189 -0.97503394
-4.7804823 0.020023355 -0.92923981
-4.8391566 0.050677508 -0.94068831
-4.8583727 0.081409313 -0.9445045
-4.8773923 0.11238717 -0.94832069
-4.8765903 0.14302906 -0.94832069
-4.8854051 0.17401734 -0.95022881
-4.8744078 0.2042973 -0.94832069
-4.8730278 0.23492122 -0.94832069
-4.8714557 0.26553327 -0.94832069
-4.8794889 0.29673329 -0.95022881
-4.8775287 0.32738471 -0.95022881
-4.8851652 0.35874474 -0.95213687
-4.8730297 0.38865018 -0.95022881
-4.870491 0.41926181 -0.95022881
-4.8775353 0.45075759 -0.95213687
-4.8843756 0.48236105 -0.95404494
-4.8812485 0.51303953 -0.95404494
-4.8779287 0.54370034 -0.95404494
-4.8841653 0.57548577 -0.95595306
-4.8901944 0.60737354 -0.95786113
-4.8960152 0.63935721 -0.95976925
-4.9016266 0.67144054 -0.96167731
-4.8875947 0.70083034 -0.95976925
-4.8928022 0.73298162 -0.96167731
-4.897799 0.76522338 -0.96358544
-4.8928943 0.79598325 -0.96358544
-4.907136 0.83009028 -0.96740156
-4.9597573 0.87152636 -0.97885013
-5.0217247 0.91531688 -0.99220675
-4.9579988 0.93592721 -0.98075819
-4.8845806 0.95388925 -0.96740156
-4.7918167 1.06221 -0.95404494
-4.8425651 1.1049826 -0.9654935
-4.8355765 1.1351749 -0.9654935
-4.8187046 1.163654 -0.96358544
-4.8207474 1.1965864 -0.9654935
-4.8131332 1.2268535 -0.9654935
-4.814827 1.259554 -0.96740156
-4.9027019 1.3487031 -0.98839056
-4.9129066 1.385235 -0.99220675
-4.9229059 1.4217364 -0.99602294
-4.9328299 1.4577758 -0.99983913
-2.4342217 0.88905257 -0.50373572
-2.4010489 0.89389521 -0.49801147
-2.3586738 0.8950339 -0.4903791
-2.3163815 0.89567465 -0.48274675
-2.283308 0.89941871 -0.47702247
-2.2411702 0.89912677 -0.46939012
-2.1991272 0.89834261 -0.46175775
-2.1662285 0.90088153 -0.4560335
-2.1333268 0.90318263 -0.45030922
-2.1005049 0.90505457 -0.44458497
-2.0678051 0.9064123 -0.43886068
-2.0351729 0.90739423 -0.4331364
-2.0115507 0.91205698 -0.42932025
-1.9790369 0.91234827 -0.42359596
-1.955488 0.91643417 -0.41977978
-1.9231049 0.9160381 -0.41405553
-1.89964 0.9195497 -0.41023934
-1.8850166 0.92713439 -0.40833125
-1.8615916 0.93018514 -0.40451506
-1.8294302 0.92857462 -0.39879081
-1.8060284 0.93121248 -0.39497462
-1.7826881 0.93355131 -0.39115843
-1.7594526 0.93551731 -0.38734224
-1.7362639 0.93722767 -0.38352609
-1.7389492 0.95283586 -0.38543415
-1.7329283 0.96374267 -0.38543415
-1.7353872 0.97943717 -0.38734224
-1.7291993 0.9903211 -0.38734224
-1.7314299 1.0060986 -0.38925034
-1.7250745 1.0169572 -0.38925034
-1.7355001 1.0378528 -0.39306653
-1.7289451 1.0487362 -0.39306653
-1.7306821 1.0647228 -0.39497462
-1.7239349 1.075613 -0.39497462
-1.7170475 1.0865741 -0.39497462
-1.7183763 1.1027544 -0.39688271
-1.7196412 1.1188834 -0.39879081
-1.7125775 1.1296656 -0.39879081
-1.7217655 1.1513171 -0.40260696
-1.7144979 1.162112 -0.40260696
-1.7169689 1.4356719 -0.4350445
-1.715278 1.4529259 -0.43695259
-1.7209195 1.47657 -0.44076878
-1.7116076 1.4873542 -0.44076878
-1.7022289 1.4980787 -0.44076878
-1.6854541 1.5022136 -0.43886068
-1.3063698 1.5177227 -0.38925034
-1.2840937 1.5109414 -0.38543415
-1.2745421 1.5190072 -0.38543415
-1.0433552 1.534098 -0.36062899
-1.0336952 1.5406235 -0.36062899
-1.0185773 1.538902 -0.3587209
-1.0088876 1.5452719 -0.3587209
1.9203364 1.6811275 -0.49610338
1.9679931 1.7011253 -0.50564384
1.9861094 1.695099 -0.50755191
4.6312051 1.712216 -0.95976925
-1.3908297 -1.6679008 0.18999952
-1.3885697 -1.6437864 0.1882564
-1.4054451 -1.6425147 0.18912795
-15.116403 -6.3535762 1.4345835
-15.432259 -6.372539 1.4607302
-15.730476 -6.3802905 1.4851339
-4.7416172 -1.6509737 0.43926492
-4.7613254 -1.6243653 0.44013649
-4.7714372 -1.5944171 0.44013649
-4.771893 -1.5613081 0.43926492
-4.7721214 -1.5282565 0.43839338
-4.7721233 -1.4952637 0.43752182
-4.7623744 -1.4594126 0.43577871
-4.7899365 -1.4021219 0.43665028
-4.8466635 -1.3852675 0.44100806
-7.870831 -1.3125367 0.69811749
-7.8690858 -1.2614824 0.69724596
-4.9098916 0.11506445 0.42967781
-4.9389443 0.14679837 0.43229249
-4.9180136 0.17711189 0.43054935
-4.9068508 0.20758666 0.42967781
-4.9153996 0.23889796 0.43054935
-4.9138017 0.26977617 0.43054935
-4.9120097 0.30064631 0.43054935
-4.9100237 0.33150199 0.43054935
-4.9078441 0.36234719 0.43054935
-4.9154005 0.39397138 0.43142092
-4.912828 0.42484912 0.43142092
-4.919981 0.45662811 0.43229249
-4.9170146 0.48753342 0.43229249
-4.9237614 0.51946205 0.43316403
-4.9204006 0.55038983 0.43316403
-4.9168453 0.58129334 0.43316403
-4.9229813 0.61340821 0.4340356
-4.9190302 0.64432663 0.4340356
-4.9148846 0.67522222 0.4340356
-4.9204054 0.70750642 0.43490714
-4.925714 0.7398892 0.43577871
-4.9209685 0.77082235 0.43577871
-4.9258599 0.80333108 0.43665028
-4.9305139 0.83606559 0.43752182
-4.9250879 0.86745721 0.43752182
-4.9488864 0.90404791 0.44013649
-5.4511647 1.138218 0.48720059
-5.4048495 1.1645272 0.48371437
-4.8527856 1.0776967 0.43490714
-4.8460145 1.1077441 0.43490714
-4.829299 1.1357315 0.4340356
-4.8413315 1.1711568 0.43577871
-4.8531404 1.2066495 0.43752182
-4.8744197 1.2445132 0.44013649
-4.8665042 1.2751141 0.44013649
-2.4325724 0.8895179 0.22660492
-2.3989863 0.89419973 0.22399026
-2.3840077 0.90571791 0.22311869
-2.3411098 0.90629292 0.21963246
-2.2890322 0.90271169 0.21527468
-2.2555828 0.90593702 0.21266001
-2.2129631 0.90500844 0.20917378
-2.1888146 0.91129756 0.20743066
-2.1462765 0.90967238 0.20394443
-2.1130214 0.91143131 0.20132977
-2.0798857 0.91268134 0.19871509
-2.0559165 0.91761059 0.19697197
-2.0228963 0.91815871 0.19435731
-1.9989973 0.9225018 0.19261418
-1.9661049 0.92235124 0.18999952
-1.9422868 0.92611074 0.1882564
-1.9184995 0.92960876 0.18651329
-1.8858086 0.92844349 0.18389861
-1.844299 0.92244941 0.18041238
-1.8117969 0.92053241 0.1777977
-1.7881913 0.92291749 0.1760546
-1.7734784 0.92961562 0.17518304
-1.7412201 0.92669988 0.17256837
-1.7178345 0.92815059 0.17082526
-1.7119685 0.9389261 0.17082526
-1.7147399 0.9545089 0.17169681
-1.7173821 0.97016436 0.17256837
-1.7112528 0.98093528 0.17256837
-1.7050554 0.99166846 0.17256837
-1.7073709 1.007424 0.17343992
-1.7095549 1.0232484 0.17431149
-1.7116077 1.039139 0.17518304
-1.7135273 1.0550965 0.1760546
-1.7068349 1.0658889 0.1760546
-1.7084262 1.0820706 0.17692615
-1.7099102 1.0982692 0.1777977
-1.7113234 1.1144278 0.17866927
-1.7126014 1.1306465 0.17954083
-1.7137423 1.1469258 0.18041238
-1.7342286 1.4512783 0.19784354
-1.7401463 1.47518 0.19958664
-1.7458699 1.499168 0.20132977
-1.7439324 1.5166458 0.20220132
-1.734369 1.5275728 0.20220132
-1.7321707 1.5450716 0.20307288
-1.7224289 1.5559242 0.20307288
-1.6979178 1.553268 0.20132977
-1.6808174 1.557135 0.2004582
-1.1474128 1.5178381 0.16646747
-1.1318955 1.5170335 0.1655959
-1.1164348 1.5160934 0.16472435
-1.112743 1.5311371 0.1655959
-1.1030585 1.5381287 0.1655959
-1.0817301 1.5288597 0.1638528
-1.0720106 1.5356905 0.1638528
-1.0566894 1.5341918 0.16298124
1.1780437 1.6314466 0.1760546
1.1823885 1.6159729 0.17518304
1.1984514 1.6165144 0.1760546
1.2265339 1.6328478 0.17866927
1.2368134 1.6250753 0.17866927
1.2471406 1.6171634 0.17866927
1.6300327 1.6384469 0.20220132
1.6544354 1.6422089 0.20394443
1.6789495 1.6457282 0.20568755
5.0256648 1.7134157 0.46454009
5.0648265 1.6908286 0.46715477
5.0754495 1.6586673 0.46715477
5.0581827 1.5481306 0.46279699
5.0391779 1.5077527 0.46018231
5.048552 1.476061 0.46018231
5.0481477 1.4415755 0.45931077
5.1722579 1.4419311 0.46976945
5.3157926 1.4460125 0.48197126
7.2914267 1.8853515 0.6588974
7.3031287 1.8395013 0.6588974
7.2855163 1.7864609 0.65628272
7.2772174 1.7360263 0.65453964
7.045372 1.6340009 0.63275069
7.2207112 1.6269259 0.64756715
7.2307906 1.5815259 0.64756715
7.2405849 1.5360625 0.64756715
8.352685 1.7174567 0.74605316
7.8648934 1.5664313 0.70160371
7.3071728 1.4079251 0.65105337
7.3159938 1.3613472 0.65105337
7.324482 1.3149129 0.65105337
7.322783 1.2671676 0.65018183
7.4779983 1.2456859 0.66325521
7.8299599 1.2538055 0.69375968
17.378782 2.6709683 1.5382988
17.414932 2.5646248 1.5400419
17.410973 2.4523768 1.5382988
16.853397 2.2659411 1.4877485
16.877184 2.1612692 1.48862
16.89043 2.0551846 1.48862
16.903009 1.9490188 1.48862
16.895115 1.8406184 1.486877
16.896437 1.7334107 1.4860054
16.897078 1.6262592 1.4851339
19.962915 1.7948128 1.7535735
19.953945 1.6676879 1.7518305
19.9932 1.4182235 1.7535735
19.991774 1.2919327 1.752702
12.938957 -0.5473929 1.1330247
12.35815 -0.60063076 1.0824744
12.354133 -0.67826712 1.0824744
12.369514 -0.75709385 1.0842174
9.3288774 -0.68875355 0.8183924
9.3243656 -0.74735475 0.8183924
9.3095608 -0.80506814 0.81752086
7.8957758 -0.73281699 0.69375968
7.6134424 -0.75488985 0.66935611
7.6184559 -0.80375659 0.67022765
7.6132555 -0.85160863 0.67022765
-1.3485191 -1.7911717 -0.35510623
-1.3118261 -1.7198381 -0.34259146
-1.2923554 -1.6725271 -0.33476976
-1.3635668 -1.7422676 -0.3504132
-1.4139677 -1.530962 -0.33007672
-1.4235591 -1.5220476 -0.33007672
-4.7257147 -1.7438776 -0.79781574
-4.9966259 -1.808261 -0.84161741
-4.710022 -1.6711457 -0.79155838
-4.7297578 -1.644763 -0.79312271
-4.7306499 -1.6118274 -0.79155838
-4.7500529 -1.5851988 -0.79312271
-4.7317538 -1.5461191 -0.78842968
-4.7319674 -1.5133495 -0.78686535
-4.7319565 -1.4806385 -0.78530103
-4.7317214 -1.4479874 -0.78373665
-4.7605991 0.023680232 -0.75401413
-4.8887477 0.05503545 -0.77435058
-4.8685546 0.085405946 -0.77122188
-4.88767 0.11646341 -0.77435058
-4.8967142 0.14746971 -0.77591491
-4.8858204 0.17787297 -0.77435058
-4.8846064 0.20856912 -0.77435058
-4.8930645 0.23973778 -0.77591491
-4.8815999 0.26993293 -0.77435058
-4.8896656 0.3012054 -0.77591491
-4.8876767 0.33192328 -0.77591491
-4.8953447 0.36335656 -0.77747929
-4.8831196 0.39331591 -0.77591491
-4.8805523 0.42398825 -0.77591491
-4.8876262 0.45556307 -0.77747929
-4.8944955 0.48724088 -0.77904361
-4.8913374 0.51798546 -0.77904361
-4.8879867 0.54870695 -0.77904361
-4.8844423 0.57940936 -0.77904361
-4.8905063 0.61131144 -0.78060794
-4.8963614 0.64331508 -0.78217232
-4.8922224 0.67406571 -0.78217232
-4.8976665 0.70620185 -0.78373665
-4.9028993 0.73843038 -0.78530103
-4.9079199 0.77075511 -0.78686535
-4.9127283 0.80316943 -0.78842968
-4.936769 0.83914709 -0.79312271
-4.9702291 0.87744695 -0.79938012
-5.0617223 0.92671663 -0.81502354
-4.9490557 0.93826354 -0.79781574
-4.9333701 0.96744132 -0.79625142
-4.8109341 1.0703573 -0.78060794
-4.8427205 1.1089644 -0.78686535
-4.8549094 1.1437931 -0.78999406
-4.8475242 1.1746994 -0.78999406
-4.839982 1.2053982 -0.78999406
-4.8323131 1.2357835 -0.78999406
-4.8148994 1.2636154 -0.78842968
-4.8831644 1.3143791 -0.80094445
-4.8938079 1.3504492 -0.80407315
-4.9231219 1.3923482 -0.81033051
-4.9427066 1.4316028 -0.81502354
-4.9337416 1.4622008 -0.81502354
-4.9528937 1.5015014 -0.81971657
-4.9433622 1.5325904 -0.81971657
-4.9618807 1.5725733 -0.8244096
-4.9425063 1.6006742 -0.82284528
-4.9511051 1.6379026 -0.82597399
-4.9500742 1.6721385 -0.82753831
-4.9487514 1.7065892 -0.82910264
-4.9657292 1.7479175 -0.83379567
-2.4392838 0.89304304 -0.41142264
-2.4059136 0.89785904 -0.40672961
-2.3632984 0.89891195 -0.40047222
-2.3299754 0.90303582 -0.39577919
-2.2783217 0.89952147 -0.38795745
-2.2451334 0.9027651 -0.38326442
-2.2119956 0.90562642 -0.37857139
-2.169765 0.90437949 -0.37231401
-2.1457748 0.9104684 -0.36918533
-2.1127584 0.91230309 -0.3644923
-2.0708134 0.90966988 -0.35823491
-2.0470214 0.9146055 -0.35510623
-2.0142579 0.91519165 -0.3504132
-1.9905349 0.91954577 -0.3472845
-1.9578977 0.9194389 -0.34259146
-1.9342545 0.92321414 -0.33946279
-1.9017558 0.92241758 -0.33476976
-1.8782034 0.92561662 -0.33164105
-1.8546871 0.92855555 -0.32851237
-1.8311779 0.93129629 -0.32538369
-1.8076582 0.93387568 -0.32225499
-1.7754648 0.93154669 -0.31756195
-1.7521427 0.93339586 -0.31443328
-1.7375554 0.93968844 -0.31286892
-1.7402753 0.95533967 -0.31443328
-1.72561 0.96144843 -0.31286892
-1.7367306 0.98199397 -0.3159976
-1.7390931 0.9978025 -0.31756195
-1.7327896 1.0087093 -0.31756195
-1.7349218 1.0245998 -0.31912631
-1.7369229 1.0405558 -0.32069066
-1.7303504 1.0514491 -0.32069066
-1.7237101 1.0623 -0.32069066
-1.7253418 1.0784005 -0.32225499
-1.7267784 1.0946586 -0.32381934
-1.7198061 1.1055804 -0.32381934
-1.7211004 1.121757 -0.32538369
-1.7222584 1.1379943 -0.32694802
-1.7232807 1.1542891 -0.32851237
-1.7241651 1.1706425 -0.33007672
-1.7415637 1.4585953 -0.35979927
-1.7096417 1.4504913 -0.35510623
-1.7303777 1.4870472 -0.36136362
-1.7210006 1.4978896 -0.36136362
-1.7263734 1.5217359 -0.3644923
-1.7020421 1.5193975 -0.36136362
-1.7144415 1.5499331 -0.36605665
-1.7046696 1.5606742 -0.36605665
-1.6513724 1.5310634 -0.35667059
-1.2271289 1.5227001 -0.30974025
-1.2175378 1.53038 -0.30974025
-1.201798 1.5302317 -0.30817589
-1.180056 1.5221412 -0.30504721
-1.1644669 1.5216817 -0.30348286
-1.1608355 1.5368497 -0.30504721
1.802955 1.6580838 -0.38795745
1.8719807 1.6996795 -0.40047222
1.9415499 1.7405245 -0.41298699
1.9524475 1.7282912 -0.41298699
1.9409583 1.6964896 -0.40829393
1.9665339 1.697167 -0.41142264
1.9771587 1.6847775 -0.41142264
5.0099297 1.7412114 -0.84005308
5.0488763 1.719085 -0.84474611
5.0878344 1.6962584 -0.84943914
5.2713804 1.4673342 -0.86664695
5.3758121 1.4600722 -0.88229036
-4.7442937 -1.647729 0.61665887
-4.7451563 -1.6146899 0.61544019
-4.755208 -1.5848435 0.61544019
-4.7650719 -1.5549345 0.61544019
-4.7747478 -1.5249641 0.61544019
-4.7747617 -1.4919733 0.61422145
-4.7745495 -1.4590425 0.61300278
-4.8020883 -1.4015284 0.61422145
-4.8491011 -1.3817885 0.61909628
-4.8736873 -0.62109327 0.60325325
-4.8577867 -0.58807194 0.60081583
-4.8712463 -0.55867028 0.60203457
-4.8943963 -0.53018904 0.60447192
-4.877882 -0.49741381 0.60203457
-4.8611507 -0.46486449 0.59959716
-4.844203 -0.43254778 0.59715974
-4.8666239 -0.40355566 0.59959716
-4.8493028 -0.37103149 0.59715974
-4.8614559 -0.34101334 0.59837848
-4.891818 0.11848363 0.60081583
-4.8711352 0.14861329 0.59837848
-4.880024 0.17958015 0.59959716
-4.9283805 0.21237645 0.6056906
-4.9170356 0.2428471 0.60447192
-4.9154124 0.27373812 0.60447192
-4.9135957 0.30461571 0.60447192
-4.9016824 0.33480749 0.60325325
-4.90938 0.3663362 0.60447192
-4.906981 0.39717665 0.60447192
-4.9043889 0.42799884 0.60447192
-4.9114852 0.45973173 0.6056906
-4.918376 0.49156806 0.60690933
-4.9250598 0.52351171 0.60812801
-4.9118104 0.55333388 0.60690933
-4.9180927 0.58535898 0.60812801
-4.9143176 0.61624724 0.60812801
-4.9201889 0.64841062 0.60934669
-4.916018 0.6793108 0.60934669
-4.9116526 0.71018684 0.60934669
-4.9169078 0.74251425 0.61056542
-4.9121451 0.77339458 0.61056542
-4.9169841 0.80584705 0.6117841
-4.921576 0.83857954 0.61300278
-4.9259081 0.8716436 0.61422145
-4.9300523 0.90461034 0.61544019
-4.8535547 1.0818124 0.61056542
-4.8467584 1.1118646 0.61056542
-4.8396893 1.1422427 0.61056542
-4.8612509 1.1800737 0.61422145
-4.8536806 1.2108335 0.61422145
-4.8555923 1.2437677 0.61544019
-4.8572807 1.2767761 0.61665887
-7.4010673 2.0963409 0.94448739
-7.43539 2.1567035 0.95058084
-7.4694605 2.2168522 0.95667434
-2.3616064 0.88238043 0.30954814
-2.3745673 0.90426528 0.31198552
-2.3410785 0.90839636 0.30832943
-2.2891724 0.90484434 0.30223596
-2.2466121 0.90438432 0.2973612
-2.2133336 0.90718889 0.29370511
-2.1800745 0.90969616 0.29004905
-2.1376934 0.90804321 0.28517425
-2.1136792 0.9136852 0.28273687
-2.0806396 0.9149608 0.27908078
-2.047668 0.91585886 0.27542472
-2.0147688 0.91637808 0.27176863
-1.9909533 0.92068762 0.26933125
-1.958182 0.92051077 0.26567516
-1.925492 0.91996002 0.2620191
-1.9107453 0.92770445 0.26080039
-1.8781745 0.92651892 0.2571443
-1.8456956 0.9249602 0.25348824
-1.8309666 0.9321059 0.25226954
-1.7897261 0.92551392 0.24739476
-1.7662549 0.92759883 0.24495737
-1.7428757 0.92933768 0.24251999
-1.7195445 0.93082058 0.24008261
-1.7136624 0.94160593 0.24008261
-1.7250491 0.96202356 0.24251999
-1.7189709 0.97284287 0.24251999
-1.7214313 0.98856753 0.24373868
-1.7151862 0.99936354 0.24373868
-1.708873 1.0101211 0.24373868
-1.7110052 1.025942 0.24495737
-1.7130053 1.0418303 0.24617606
-1.7148734 1.0577831 0.24739476
-1.7165666 1.0738671 0.24861346
-1.709691 1.0847802 0.24861346
-1.7111344 1.1009555 0.24983215
-1.7208097 1.1225302 0.25226954
-1.7220012 1.1387956 0.25348824
-1.7148123 1.1495923 0.25348824
-1.7239739 1.1715016 0.25592563
-1.7329278 1.1935701 0.25836301
-1.7383016 1.4950435 0.28151819
-1.7213898 1.4994164 0.28029948
-1.7268207 1.5233352 0.28273687
-1.7246175 1.5407673 0.28395557
-1.7222623 1.5582324 0.28517425
-1.6904837 1.5489068 0.28151819
-1.6734421 1.5527471 0.28029948
1.2723789 1.6257907 0.25348824
1.2949013 1.6333195 0.25592563
1.3175681 1.6406288 0.25836301
5.0556016 1.719129 0.65565705
5.0381989 1.6774817 0.65200096
5.0487204 1.6455446 0.65200096
5.0408669 1.5385022 0.6471262
5.0409226 1.5039616 0.64590752
5.0407438 1.4694818 0.64468884
5.0403314 1.4350631 0.64347011
5.1735673 1.4379182 0.65931314
5.3166122 1.4417521 0.67637485
7.2469721 1.8677862 0.91889483
7.2585649 1.8222154 0.91889483
7.2795124 1.778929 0.9201135
7.2519207 1.7239733 0.91523874
7.0305157 1.6247379 0.88599008
7.2149053 1.6196648 0.90792662
7.2152414 1.5721873 0.90670788
7.2152662 1.5247706 0.90548921
7.9151807 1.5700749 0.99079776
7.3205161 1.4044514 0.91523874
7.300036 1.3523645 0.91158265
7.2986827 1.3043654 0.91036397
7.3165154 1.2601656 0.91158265
7.4907498 1.2417647 0.93230045
7.8512707 1.2508947 0.9761734
12.891136 -0.55551249 1.5843015
12.342155 -0.60956979 1.5172733
12.328172 -0.68655354 1.5160546
9.3040667 -0.69426912 1.1455718
9.3094139 -0.75351506 1.1467905
9.1858416 -0.80163783 1.1321661
7.876164 -0.7372362 0.97129864
7.5948415 -0.7590704 0.93717521
7.599792 -0.80782306 0.93839395
7.6044292 -0.85666889 0.93961263
-1.3893007 -1.6197808 -0.2620191
-1.392942 -1.6035261 -0.26080039
-1.3898082 -1.5798993 -0.25836301
-1.3995706 -1.5712576 -0.25836301
-1.4093468 -1.5624949 -0.25836301
-1.4124428 -1.5462801 -0.2571443
-1.41539 -1.5300893 -0.25592563
-1.4181907 -1.5139219 -0.25470692
-1.5353115 -1.4821149 -0.2620191
-1.5158565 -1.4450454 -0.2571443
-1.5610416 -1.4695084 -0.26323777
-1.5921172 -1.4798752 -0.26689386
-1.5941995 -1.4629916 -0.26567516
-4.7971396 -1.904166 -0.63372058
-4.7997608 -1.8703847 -0.6325019
-4.7345057 -1.6756459 -0.61665887
-4.7261853 -1.6393611 -0.61422145
-4.736393 -1.6096321 -0.61422145
-4.7369947 -1.5767075 -0.61300278
-4.7373714 -1.5438365 -0.6117841
-4.7375216 -1.5110257 -0.61056542
-4.7374477 -1.4782714 -0.60934669
-7.7463822 -2.1515377 -0.98714167
-7.4434333 -2.0178051 -0.94692481
-7.3887086 -1.9535609 -0.93839395
-7.8123937 -1.8554149 -0.98592299
-7.8045554 -1.8018242 -0.98348558
-4.7641425 0.027438294 -0.58497286
-4.8631234 0.058568135 -0.59715974
-4.8924308 0.089667082 -0.60081583
-4.9016933 0.12065075 -0.60203457
-4.8809972 0.15083201 -0.59959716
-4.8799529 0.18149839 -0.59959716
-4.8886323 0.21258622 -0.60081583
-4.8872004 0.24329937 -0.60081583
-4.8855753 0.27400029 -0.60081583
-4.8936634 0.30531105 -0.60203457
-4.8916483 0.33605134 -0.60203457
-4.8894401 0.366781 -0.60203457
-4.8870392 0.39749357 -0.60203457
-4.8943329 0.42905983 -0.60325325
-4.8915405 0.45980191 -0.60325325
-4.8984308 0.49151942 -0.60447192
-4.8952456 0.522286 -0.60447192
-4.9017301 0.55414957 -0.6056906
-4.9080071 0.58611262 -0.60690933
-4.8943796 0.61570126 -0.6056906
-4.8904147 0.64643997 -0.6056906
-4.9059191 0.67988068 -0.60812801
-4.9015508 0.71069062 -0.60812801
-4.9068022 0.74296099 -0.60934669
-4.9020371 0.77377522 -0.60934669
-4.9068727 0.80617064 -0.61056542
-4.9212418 0.84054023 -0.61300278
-4.9548793 0.87880605 -0.61787754
-4.9882674 0.91731638 -0.62275231
-4.9336534 0.93935949 -0.61665887
-4.9179158 0.96842086 -0.61544019
-5.9349432 1.2466305 -0.74462169
-4.8337617 1.0793655 -0.60812801
-4.8269811 1.1092951 -0.60812801
-4.8392344 1.1441681 -0.61056542
-4.8511357 1.1796651 -0.61300278
-4.8435755 1.2103325 -0.61300278
-4.8358746 1.2407429 -0.61300278
-4.8087873 1.2660476 -0.61056542
-4.8869777 1.3195239 -0.62153363
-4.9167948 1.3610067 -0.6264084
-4.9366713 1.4004266 -0.63006449
-4.9373059 1.4341868 -0.63128316
-4.9473538 1.4704039 -0.63372058
-4.9665713 1.5099066 -0.63737667
-4.956986 1.5410838 -0.63737667
-4.956665 1.5752038 -0.63859534
-4.9655499 1.6124485 -0.64103276
-4.9553213 1.6436146 -0.64103276
-4.9542966 1.6779023 -0.64225143
-4.9623437 1.7156991 -0.64468884
-4.9606733 1.7505785 -0.64590752
-2.4133141 0.8856554 -0.31564158
-2.3798525 0.8902626 -0.31198552
-2.3463888 0.89459085 -0.30832943
-2.3129663 0.89853287 -0.30467334
-2.2703583 0.89843971 -0.29979858
-2.2370508 0.90155607 -0.29614249
-2.1946118 0.90052307 -0.29126772
-2.1613953 0.90291172 -0.28761163
-2.1281977 0.90501064 -0.28395557
-2.1042111 0.91057295 -0.28151819
-2.0621114 0.90778053 -0.2766434
-2.0291905 0.9085505 -0.27298734
-2.0053751 0.91305709 -0.27054992
-1.9725773 0.91312999 -0.26689386
-1.9488392 0.91705441 -0.26445648
-1.9161767 0.91643345 -0.26080039
-1.9014535 0.92411691 -0.25958169
-1.868911 0.92286158 -0.25592563
-1.8453319 0.92568564 -0.25348824
-1.8129082 0.9238224 -0.24983215
-1.7981719 0.93078959 -0.24861346
-1.7746761 0.9329105 -0.24617606
-1.7425102 0.93002266 -0.24251999
-1.7279058 0.93622392 -0.2413013
-1.7393829 0.95662886 -0.24373868
-1.7333381 0.96753836 -0.24373868
-1.7272245 0.97841054 -0.24373868
-1.7296484 0.99418938 -0.24495737
-1.7233672 1.0050379 -0.24495737
-1.7170187 1.0158458 -0.24495737
-1.7276227 1.0368296 -0.24739476
-1.7210743 1.0476636 -0.24739476
-1.7144575 1.0584571 -0.24739476
-1.7161392 1.0745499 -0.24861346
-1.7176374 1.0907822 -0.24983215
-1.719047 1.1070008 -0.25105083
-1.7203683 1.1232066 -0.25226954
-1.721554 1.1394715 -0.25348824
-1.7226024 1.1557964 -0.25470692
-1.7489617 1.4671624 -0.28029948
-1.7471426 1.4847021 -0.28151819
-1.7301919 1.4892508 -0.28029948
-1.728282 1.506615 -0.28151819
-1.7336632 1.530582 -0.28395557
-1.7092134 1.5282137 -0.28151819
-1.7216505 1.5589085 -0.28517425
-1.6825593 1.5428631 -0.28029948
-1.4677634 1.507753 -0.25836301
-1.4582605 1.5169458 -0.25836301
-1.0719527 1.5394688 -0.23033306
-1.0622585 1.5461739 -0.23033306
-1.052523 1.5528175 -0.23033306
-1.0372281 1.5511494 -0.22911437
-1.0165315 1.541065 -0.22667697
-1.0068282 1.5474219 -0.22667697
1.0029004 1.6321055 -0.23520783
1.0236341 1.6426193 -0.23764521
1.0392369 1.6445457 -0.23886392
1.0495493 1.6379836 -0.23886392
1.2955426 1.632811 -0.25592563
1.3182122 1.6401113 -0.25836301
4.9796753 1.7263144 -0.6471262
5.0656843 1.7203077 -0.65687573
5.0577035 1.681739 -0.65443838
5.0509648 1.5394162 -0.64834487
5.0320005 1.4991481 -0.64468884
5.0317907 1.4647282 -0.64347011
5.2793355 1.465082 -0.67271876
5.3650808 1.4526341 -0.6824683
7.1686683 1.8927057 -0.91036397
7.2573175 1.8674136 -0.9201135
7.2592797 1.8193649 -0.91889483
7.2705679 1.7737179 -0.91889483
6.8566499 1.6271626 -0.86527234
7.0795102 1.6331322 -0.89208359
7.1961699 1.612491 -0.90548921
7.2255569 1.5714632 -0.90792662
7.2741351 1.5342274 -0.91280138
7.7210579 1.5284599 -0.96642387
7.2820811 1.3940707 -0.91036397
7.3005738 1.349458 -0.91158265
7.3089657 1.3032415 -0.91158265
7.3072276 1.2556115 -0.91036397
7.638124 1.2631137 -0.95058084
7.8165827 -0.73475564 -0.96398652
7.5945425 -0.76205266 -0.93717521
7.6093435 -0.81186032 -0.93961263
7.5745044 -0.85631001 -0.93595654
7.5394082 -0.90035409 -0.93230045
-1.3641442 -1.7166549 0.3472845
-1.3810966 -1.7157438 0.34884885
-1.3731252 -1.6840677 0.34415582
-1.3773898 -1.6677915 0.34259146
-1.3815854 -1.6514606 0.34102714
-1.392078 -1.6426257 0.34102714
-1.3960004 -1.6262988 0.33946279
-1.399711 -1.6100415 0.33789843
-1.6344458 -1.4616362 0.3472845
-1.6657521 -1.4710139 0.35197753
-4.7410254 -1.6424224 0.79468709
-4.7512512 -1.6126015 0.79468709
-4.7519174 -1.5796012 0.79312271
-4.7805324 -1.5558263 0.79625142
-4.7713914 -1.5197636 0.79312271
-4.7619867 -1.4838774 0.78999406
-4.7523203 -1.4481697 0.78686535
-4.7796941 -1.3908634 0.78842968
-4.8264613 -1.3711828 0.79468709
-4.8336482 -1.3083204 0.79312271
-4.8321743 -1.2755888 0.79155838
-4.8576536 -0.55324525 0.77435058
-4.9003153 -0.52693552 0.78060794
-4.8677816 0.12172806 0.77122188
-4.8866649 0.15292989 0.77435058
-4.9152174 0.18474214 0.77904361
-4.9238267 0.21605584 0.78060794
-4.9125075 0.24649248 0.77904361
-4.910862 0.27735496 0.77904361
-4.8991652 0.307585 0.77747929
-4.9069891 0.33904326 0.77904361
-4.9047618 0.36986661 0.77904361
-4.9023409 0.40067801 0.77904361
-4.8997269 0.43147096 0.77904361
-4.9067521 0.46317768 0.78060794
-4.9037452 0.49399713 0.78060794
-4.9103651 0.52585137 0.78217232
-4.8971505 0.55557889 0.78060794
-4.9033694 0.5875138 0.78217232
-4.9093809 0.61954618 0.78373665
-4.9053907 0.65038162 0.78373665
-4.9109907 0.68254846 0.78530103
-4.916379 0.71481395 0.78686535
-4.9117908 0.74568886 0.78686535
-4.9167643 0.77808082 0.78842968
-4.9117785 0.80895692 0.78842968
-4.9162927 0.84171093 0.78999406
-4.9302797 0.87646925 0.79312271
-4.9634938 0.91477793 0.79938012
-4.8482418 1.0845702 0.78686535
-4.8510542 1.1168052 0.78842968
-4.8439288 1.147316 0.78842968
-4.8365216 1.1781497 0.78842968
-4.8577209 1.2158962 0.79312271
-4.8499856 1.2463927 0.79312271
-4.8516088 1.279361 0.79468709
-7.4106865 2.1054373 1.2201889
-7.4352689 2.1629167 1.2264462
-7.4501238 2.217397 1.2311392
-2.4475157 0.89928246 0.41298699
-2.3678563 0.88683623 0.40047222
-2.3714652 0.90521795 0.40203658
-2.3289099 0.90578038 0.39577919
-2.2772603 0.90220511 0.38795745
-2.2532275 0.90910518 0.38482878
-2.210927 0.90823197 0.37857139
-2.1777952 0.91078186 0.37387836
-2.1355984 0.90916133 0.36762097
-2.1026192 0.91086555 0.36292794
-2.0787785 0.91609204 0.35979927
-2.0459423 0.91701663 0.35510623
-2.0131783 0.91756415 0.3504132
-1.9894501 0.92189038 0.3472845
-1.956813 0.921745 0.34259146
-1.9242569 0.92122746 0.33789843
-1.9006677 0.92465752 0.33476976
-1.8682573 0.92345232 0.33007672
-1.8447652 0.92630798 0.32694802
-1.8124672 0.9245075 0.32225499
-1.7890019 0.92694688 0.31912631
-1.7656252 0.92903864 0.3159976
-1.7336185 0.92615145 0.31130457
-1.7190826 0.93231755 0.30974025
-1.713191 0.94309998 0.30974025
-1.7158537 0.95866346 0.31130457
-1.7183886 0.97429651 0.31286892
-1.7207938 0.99000001 0.31443328
-1.7060099 0.99581301 0.31286892
-1.7082176 1.0115454 0.31443328
-1.7018285 1.022258 0.31443328
-1.7038063 1.0380701 0.3159976
-1.7056528 1.0539464 0.31756195
-1.7073138 1.0699711 0.31912631
-1.7087988 1.0861235 0.32069066
-1.7102003 1.1022552 0.32225499
-1.7197776 1.1237841 0.32538369
-1.7126824 1.134568 0.32538369
-1.7137198 1.1508124 0.32694802
-1.7005523 1.3045255 0.33946279
-1.7001206 1.3212458 0.34102714
-1.7361077 1.4955311 0.36292794
-1.7266772 1.5064094 0.36292794
-1.7171777 1.5172291 0.36292794
-1.7076112 1.527988 0.36292794
-1.7199332 1.5585842 0.36762097
-1.6882756 1.5493252 0.36292794
-1.6712723 1.5531791 0.36136362
-1.1066496 1.5277929 0.29878983
-1.0912097 1.5267346 0.29722548
-1.0814618 1.5336549 0.29722548
-1.0661041 1.5323533 0.29566112
1.0445026 1.6063974 0.30348286
1.070883 1.6245421 0.30817589
5.0415726 1.7098808 0.84318173
5.0711098 1.6839548 0.84631044
5.0722604 1.6488115 0.84474611
4.988399 1.5869664 0.82910264
5.036294 1.5327839 0.83379567
5.0363584 1.4982934 0.83223134
5.0361886 1.4638635 0.83066702
5.0452871 1.4321915 0.83066702
5.1874413 1.4373865 0.85256779
5.3393898 1.4434279 0.87603301
7.2202773 1.9032991 1.1826445
7.2607923 1.8652681 1.1873375
7.2723689 1.8196106 1.1873375
7.283658 1.7738812 1.1873375
7.2562165 1.7189747 1.1810802
7.0743737 1.6290218 1.1497933
7.2001343 1.6104102 1.1685654
7.2197628 1.5672342 1.1701298
7.2391324 1.5238758 1.1716942
8.371088 1.7077298 1.3531581
7.838891 1.548632 1.2655548
7.324604 1.3991884 1.1810802
7.3139424 1.3489168 1.1779515
7.3223233 1.3026567 1.1779515
7.3206286 1.2549548 1.1763872
7.5037823 1.2378707 1.2045454
7.8528395 1.2448215 1.2592974
11.955742 -0.59989798 1.8959857
11.162843 -0.63045108 1.7708381
10.448923 -0.65601683 1.6582053
9.238287 -0.69665688 1.4673553
8.7612123 -0.71606928 1.3922668
8.3236322 -0.7329812 1.3234355
7.8862033 -0.74442422 1.2546043
7.6062102 -0.76624042 1.2108028
7.6012459 -0.81401533 1.2108028
7.5959811 -0.86175901 1.2108028
7.6002231 -0.91064376 1.2123671
7.6433473 -0.96456224 1.2201889
-4.8140097 -2.1925397 -0.46279699
-4.8095779 -2.1539476 -0.46105388
-4.7996955 -2.0775113 -0.45756763
-4.8034873 -2.0434134 -0.45669609
-4.8070402 -2.0093501 -0.45582452
-4.8195705 -1.9791071 -0.45582452
-4.8134327 -1.9413337 -0.45408142
-4.8162732 -1.9073837 -0.45320985
-4.8188777 -1.8734748 -0.45233831
-4.8212466 -1.8396088 -0.45146674
-4.7300849 -1.7708588 -0.4418796
-4.7224154 -1.7342358 -0.44013649
-4.7532287 -1.678073 -0.44100806
-4.7448497 -1.6416601 -0.43926492
-4.7645054 -1.6150131 -0.44013649
-4.774559 -1.5850451 -0.44013649
-4.7560015 -1.5457768 -0.43752182
-4.7561264 -1.512844 -0.43665028
-4.7560263 -1.4799707 -0.43577871
-7.8134894 -1.8491917 -0.70247525
-7.7958283 -1.7933639 -0.69986057
-4.7716703 0.031230571 -0.417476
-4.9108357 0.062998839 -0.42967781
-4.9103432 0.093854442 -0.42967781
-4.8996978 0.12445078 -0.42880625
-4.898819 0.15523519 -0.42880625
-4.897747 0.18601085 -0.42880625
-4.8964815 0.21678178 -0.42880625
-4.8950229 0.24754155 -0.42880625
-4.8933706 0.27829415 -0.42880625
-4.8915257 0.30903316 -0.42880625
-4.8994255 0.34045315 -0.42967781
-4.8971896 0.37122896 -0.42967781
-4.9046888 0.40280816 -0.43054935
-4.9020615 0.4336158 -0.43054935
-4.89924 0.46440896 -0.43054935
-4.8962255 0.49518117 -0.43054935
-4.9029222 0.52700108 -0.43142092
-4.9094124 0.55892205 -0.43229249
-4.9058037 0.58975893 -0.43229249
-4.9020014 0.62056988 -0.43229249
-4.9078803 0.65267223 -0.43316403
-4.9135494 0.68487024 -0.4340356
-4.9091487 0.71573061 -0.4340356
-4.9045553 0.7465601 -0.4340356
-4.9096065 0.77892375 -0.43490714
-4.9144444 0.81137764 -0.43577871
-4.9190216 0.84419286 -0.43665028
-4.9135442 0.87551105 -0.43665028
-4.9373055 0.91195542 -0.43926492
-4.9119086 0.93921608 -0.43752182
-4.9059105 0.97006112 -0.43752182
-4.8895731 1.0958043 -0.43839338
-4.8535681 1.1193632 -0.43577871
-4.8464141 1.1499414 -0.43577871
-4.8486681 1.1831551 -0.43665028
-4.860424 1.2186005 -0.43839338
-4.8623195 1.2515973 -0.43926492
-4.8846698 1.3230162 -0.44275117
-4.924181 1.3672737 -0.44710895
-4.9249525 1.4013405 -0.44798052
-4.9352102 1.4377235 -0.44972363
-4.9548478 1.4768113 -0.45233831
-4.9550495 1.5106574 -0.45320985
-4.9644814 1.5476894 -0.45495296
-4.9641504 1.5818775 -0.45582452
-4.9635859 1.6161196 -0.45669609
-4.9627862 1.6504196 -0.45756763
-4.9711847 1.6879736 -0.45931077
-4.9697995 1.7227086 -0.46018231
-4.9681163 1.757655 -0.46105388
-2.4457102 0.88252842 -0.22747648
-2.4027975 0.88390797 -0.22399026
-2.387898 0.89541143 -0.22311869
-2.3729193 0.90684044 -0.22224714
-2.3300424 0.90727401 -0.21876091
-2.2779953 0.90353107 -0.21440312
-2.2353256 0.90290284 -0.21091689
-2.2019689 0.9055624 -0.20830221
-2.1594291 0.90411061 -0.204816
-2.1352968 0.91003799 -0.20307288
-2.0929484 0.90765202 -0.19958664
-2.0689754 0.91274208 -0.19784354
-2.0359325 0.91349006 -0.19522886
-2.0029635 0.91385829 -0.19261418
-1.9791077 0.91804177 -0.19087107
-1.9462693 0.91771215 -0.1882564
-1.9224972 0.92131287 -0.18651329
-1.8987579 0.92465037 -0.18477017
-1.866124 0.92330956 -0.1821555
-1.8424844 0.92606848 -0.18041238
-1.8188335 0.92866695 -0.17866927
-1.7863507 0.92647493 -0.1760546
-1.7628353 0.92845434 -0.17431149
-1.7393974 0.93011659 -0.17256837
-1.7247636 0.93627495 -0.17169681
-1.7362972 0.95670813 -0.17343992
-1.7302516 0.96759915 -0.17343992
-1.7241381 0.97845101 -0.17343992
-1.726589 0.99423635 -0.17431149
-1.7289097 1.01009 -0.17518304
-1.7225288 1.0209335 -0.17518304
-1.7160804 1.0317359 -0.17518304
-1.718069 1.0476849 -0.1760546
-1.7283977 1.0689385 -0.1777977
-1.7215883 1.0798712 -0.1777977
-1.7230791 1.0961642 -0.17866927
-1.7244927 1.1124253 -0.17954083
-1.7174695 1.1232381 -0.17954083
-1.7269833 1.1450173 -0.18128394
-1.7280233 1.1614021 -0.1821555
-1.7206916 1.172237 -0.1821555
-1.7465906 1.4675444 -0.19958664
-1.7599639 1.4980125 -0.20220132
-1.7353772 1.496089 -0.2004582
-1.7259432 1.5069627 -0.2004582
-1.7239031 1.5243767 -0.20132977
-1.7142916 1.5351778 -0.20132977
-1.7119908 1.5526114 -0.20220132
-1.6581796 1.5229058 -0.19697197
-1.4665284 1.5472903 -0.18651329
-1.4295485 1.5273808 -0.18302706
-1.3996385 1.5143855 -0.18041238
-1.3900962 1.5231494 -0.18041238
-1.36716 1.5170534 -0.17866927
-1.3509791 1.5181711 -0.1777977
-1.3348376 1.5191464 -0.17692615
-1.3187382 1.5199784 -0.1760546
-1.2961994 1.5131036 -0.17431149
-1.2802339 1.5136114 -0.17343992
-1.2706153 1.5216949 -0.17343992
-1.2482228 1.5143844 -0.17169681
-1.238634 1.5222372 -0.17169681
-2.3665271 4.3941994 -0.43665028
-2.3668826 4.4617834 -0.4418796
1.1434419 1.6194317 -0.17343992
1.1651884 1.6284186 -0.17518304
1.1812447 1.6291304 -0.1760546
1.1914575 1.6216762 -0.1760546
1.2194691 1.6381308 -0.17866927
1.2297376 1.6304363 -0.17866927
1.2521442 1.6384403 -0.18041238
1.2686555 1.6383069 -0.18128394
1.2851264 1.6380993 -0.1821555
1.3015916 1.6377913 -0.18302706
1.5986677 1.6413647 -0.2004582
1.6159444 1.6383803 -0.20132977
1.6402864 1.6422917 -0.20307288
1.6576567 1.6389573 -0.20394443
4.9710946 1.7189677 -0.46018231
5.0856786 1.7225823 -0.46976945
5.0776377 1.6838783 -0.46802634
4.994369 1.5522267 -0.45756763
5.0421495 1.5324028 -0.46105388
5.0421286 1.4978551 -0.46018231
5.0323062 1.4605922 -0.4584392
5.1084747 1.4479609 -0.46454009
5.2806931 1.4609929 -0.47935659
5.3667102 1.4485525 -0.48632905
7.1387062 1.8787988 -0.64582402
7.2372165 1.8561825 -0.65366805
7.2873964 1.8203301 -0.65715426
7.2793303 1.7697995 -0.65541118
6.8734403 1.625446 -0.61793423
7.116528 1.6357862 -0.63885158
7.2238917 1.6127455 -0.64756715
7.2144098 1.5631059 -0.64582402
7.2240887 1.5177468 -0.64582402
8.1705227 1.6635185 -0.72949356
7.6919832 1.5165148 -0.68591571
7.2806044 1.3877791 -0.64843869
7.2990947 1.3431736 -0.64931029
7.3074322 1.2970474 -0.64931029
7.3448954 1.2561461 -0.65192497
7.7065139 1.2682061 -0.68330103
9.4708977 -0.65811658 -0.83059424
9.3175735 -0.7063157 -0.81752086
9.3228807 -0.76566088 -0.8183924
9.1392679 -0.8084231 -0.80270439
7.7455597 -0.73421681 -0.68068635
7.6020341 -0.76883537 -0.66848451
7.6267681 -0.81977785 -0.67109919
-1.4384785 -1.5710626 0.41405553
-1.4416471 -1.5547953 0.41214743
-1.4513876 -1.5457065 0.41214743
-1.4678351 -1.5436704 0.41405553
-1.4706539 -1.4163549 0.39688271
-1.5435419 -1.4679701 0.41405553
-1.5598904 -1.4649628 0.41596359
-1.5691514 -1.4550389 0.41596359
-4.7317677 -1.6350543 0.97312587
-4.7512455 -1.6084392 0.97503394
-4.7612576 -1.5785546 0.97503394
-4.761745 -1.5455773 0.97312587
-4.7620068 -1.5126561 0.97121775
-4.762043 -1.4797928 0.96930969
-4.7618542 -1.4469889 0.96740156
-4.8268819 -1.4004266 0.97694206
-4.8262606 -1.3669734 0.97503394
-6.2077837 1.0274155 1.2230856
-6.0270076 1.0368119 1.18874
-5.8463397 1.0441197 1.1543944
-5.6851978 1.0524045 1.123865
-5.5435004 1.0622429 1.0971518
-4.8559647 1.0902474 0.96740156
-4.8586807 1.122524 0.96930969
-4.8610444 1.1554587 0.97121775
-4.8631206 1.188732 0.97312587
-4.8460016 1.2170066 0.97121775
-4.8477645 1.2498828 0.97312587
-4.8303261 1.2778056 0.97121775
-7.4201822 2.1145263 1.4997587
-7.4256673 2.1663623 1.5035748
-7.4309144 2.2179458 1.5073911
-7.4346128 2.3723309 1.5169315
-7.4475579 2.4281271 1.5226557
-7.4600959 2.4841754 1.52838
-7.4629269 2.5373209 1.5321962
-2.3802028 0.89359176 0.49419528
-2.3562047 0.90151429 0.4903791
-2.3230565 0.90560412 0.48465484
-2.280827 0.90569192 0.47702247
-2.2477906 0.90896416 0.47129822
-2.2057264 0.90812153 0.46366584
-2.1727624 0.91071051 0.45794159
-2.1398304 0.91297638 0.45221731
-2.1070132 0.91473442 0.44649303
-2.0832648 0.92002434 0.44267687
-2.0416253 0.91700727 0.4350445
-2.0179651 0.92166126 0.43122831
-1.9854248 0.92191923 0.42550406
-1.9529614 0.92180622 0.41977978
-1.9205794 0.92132109 0.41405553
-1.8882812 0.92046696 0.40833125
-1.8736643 0.92795604 0.40642315
-1.8414896 0.92647541 0.40069887
-1.8093538 0.92473453 0.39497462
-1.7860019 0.92719597 0.39115843
-1.7627482 0.92929262 0.38734224
-1.7395651 0.93108582 0.38352609
-1.7164303 0.93262386 0.3797099
-1.7277278 0.9528718 0.38352609
-1.7217069 0.9637081 0.38352609
-1.7156174 0.97450727 0.38352609
-1.7179656 0.99016893 0.38543415
-1.7117101 1.000944 0.38543415
-1.71383 1.0166872 0.38734224
-1.7158188 1.032497 0.38925034
-1.7092979 1.0432569 0.38925034
-1.7194021 1.0643097 0.39306653
-1.7209302 1.0804139 0.39497462
-1.7140127 1.0913547 0.39497462
-1.7153383 1.1074739 0.39688271
-1.7165591 1.1236063 0.39879081
-1.7176449 1.1397966 0.40069887
-1.7185942 1.1560458 0.40260696
-1.6735297 1.2858857 0.41023934
-1.6809099 1.3084342 0.41405553
-1.649531 1.3007356 0.40833125
-1.702684 1.3600858 0.42359596
-1.6864734 1.3645831 0.42168787
-1.6854587 1.3813745 0.42359596
-1.6994044 1.4107476 0.42932025
-1.7354996 1.4594053 0.44076878
-1.7336402 1.4767967 0.44267687
-1.7317185 1.4941202 0.44458497
-1.7222961 1.5049719 0.44458497
-1.6981044 1.5027523 0.44076878
-1.6959385 1.519944 0.44267687
-1.7008929 1.543764 0.44649303
-1.6767049 1.5411353 0.44267687
-1.1793382 1.5077201 0.37207752
-1.169842 1.5151 0.37207752
-1.1602989 1.5224206 0.37207752
5.0253692 1.5251476 1.0208281
5.0160308 1.4879589 1.0170119
5.034709 1.4591455 1.0189201
5.0248871 1.4221371 1.0151038
5.1945753 1.4349715 1.0475414
5.3361826 1.4380648 1.0742546
7.2652359 1.8603284 1.4577807
7.2767811 1.8146431 1.4577807
7.2785001 1.7665708 1.4558727
7.2130265 1.7027615 1.4406079
7.0705004 1.6222835 1.4100784
7.2051101 1.6055825 1.4348836
7.2054615 1.5582051 1.4329755
7.2247171 1.5149158 1.4348836
8.2344522 1.6732141 1.633325
7.753449 1.5255144 1.5360124
7.2904034 1.386639 1.442516
7.299089 1.3401684 1.442516
7.3074002 1.294082 1.442516
7.3153868 1.248143 1.442516
7.526504 1.2355479 1.4825859
7.8637967 1.2402281 1.5474609
9.7923899 -0.68432057 1.9080899
9.2006226 -0.70108408 1.7936045
8.7068853 -0.71851325 1.6982
8.2915335 -0.7367174 1.6180602
7.8665404 -0.74880177 1.5360124
7.5882306 -0.7704497 1.4825859
7.5929999 -0.81916547 1.484494
7.5877032 -0.86685628 1.484494
-1.3836195 -1.6286968 -0.11199895
-1.3743209 -1.5972313 -0.11042886
-1.3646469 -1.5659784 -0.10885879
-1.3875723 -1.5724388 -0.1099055
-1.3906344 -1.5563649 -0.10938215
-1.3936517 -1.5402222 -0.10885879
-1.4033017 -1.5314353 -0.10885879
-1.4128963 -1.5225879 -0.10885879
-1.4155964 -1.5064031 -0.10833543
-1.6542675 -1.4759064 -0.11618582
-1.6859556 -1.4853239 -0.1177559
-1.7027893 -1.4812557 -0.11827926
-1.7120624 -1.470528 -0.11827926
-2.1237764 -1.2544972 -0.12926981
-2.1143565 -1.2310787 -0.12822309
-4.7705097 -2.3154066 -0.27790391
-4.7939749 -2.289691 -0.27842727
-4.7953196 -2.2163849 -0.2768572
-4.8093414 -2.1857913 -0.2768572
-4.8130608 -2.0788097 -0.27476376
-4.8168349 -2.0446255 -0.2742404
-4.8111529 -2.0066321 -0.27319369
