# .PCD v0.7 - Point Cloud Data file format
VERSION 0.7
FIELDS x y z
SIZE 4 4 4
TYPE F F F
COUNT 1 1 1
WIDTH 1483
HEIGHT 1
VIEWPOINT 0 0 0 1 0 0 0
POINTS 1483
DATA ascii
-5.8519688 -0.0012784187 0.3066887
-5.8518615 0.035491992 0.3066887
-5.8415375 0.072134577 0.30616534
-5.8409705 0.10874154 0.30616534
-5.8501678 0.14517827 0.3066887
-5.8391719 0.18120724 0.30616534
-5.8478975 0.218263 0.3066887
-5.826457 0.25413316 0.30564198
-5.8247452 0.29073513 0.30564198
-5.8128328 0.32676822 0.30511862
-5.8106651 0.36328316 0.30511862
-5.8082676 0.39978683 0.30511862
-5.8155994 0.43701994 0.30564198
-5.8127465 0.47345722 0.30564198
-5.8295975 0.51120907 0.3066887
-5.7964821 0.5446105 0.30511862
-5.7929459 0.58101839 0.30511862
-5.7891808 0.61740643 0.30511862
-5.7851872 0.65376699 0.30511862
-5.6818061 0.67826772 0.29988503
-8.7419329 1.5473341 0.46526664
-8.7516823 1.6058373 0.46631336
-8.7316093 1.6589276 0.46579
-8.7112141 1.7118336 0.46526664
-8.7100735 1.7685186 0.46579
-8.7085629 1.8252612 0.46631336
-8.6969233 1.8799402 0.46631336
-8.7044344 1.9388919 0.46736008
-8.448741 1.9377323 0.45427608
-8.0865021 1.9082141 0.43543515
-7.7832108 1.8883467 0.41973436
-7.470809 1.8623347 0.40351021
-7.1880779 1.8398994 0.38885614
-6.9252501 1.8190656 0.37524879
-6.6919065 1.8027934 0.36321154
-6.4783006 1.7889832 0.35222098
-5.6982036 1.6121585 0.31035221
-5.582478 1.61727 0.30459526
-6.4915004 1.9242949 0.35483778
-5.9920316 1.816805 0.32814643
-5.5989671 1.7361122 0.30721205
-5.5974674 1.7742761 0.30773541
-5.5957098 1.8124866 0.30825877
-5.6126533 1.8570216 0.30982885
-5.6103358 1.895445 0.31035221
-5.52279 1.9046137 0.30616534
-2.7174187 1.2131413 0.15596114
-2.6733706 1.213678 0.15386771
-2.6203768 1.2094827 0.15125091
-2.5676279 1.2044897 0.14863411
-2.533052 1.2075263 0.14706403
-2.5254152 1.2234173 0.14706403
-2.5535171 1.2569021 0.14915748
-2.5545015 1.2773871 0.14968084
-2.5375218 1.2888892 0.14915748
-2.5293736 1.3048067 0.14915748
-2.5211251 1.3206741 0.14915748
-2.5127778 1.336488 0.14915748
-2.5219047 1.3617399 0.1502042
-2.5132992 1.3775579 0.1502042
-2.5133207 1.3981776 0.15072756
-2.5044866 1.4139409 0.15072756
-2.5042176 1.4346138 0.15125091
-2.4778895 1.7015722 0.15753123
-2.4917383 1.7342223 0.15910131
-2.4889538 1.7555994 0.15962467
-2.4778733 1.7712039 0.15962467
-2.4666963 1.7867371 0.15962467
-2.4232185 1.7785658 0.15753123
-2.4680891 1.8354707 0.16119474
-2.4485316 1.8449329 0.16067138
-1.1424631 1.6746315 0.10624199
-1.126343 1.6734918 0.10571863
-1.1102818 1.6722167 0.10519527
-1.0997535 1.6791594 0.10519527
-1.0837622 1.6776482 0.10467191
-1.0678343 1.6760021 0.10414855
-1.0572821 1.6826787 0.10414855
-1.0361696 1.6723105 0.10310183
-1.0308477 1.68731 0.10362519
-1.0150735 1.685199 0.10310183
1.376714 1.4744091 0.10571863
1.3859508 1.4657298 0.10571863
1.4158525 1.4786314 0.10728871
1.4251151 1.4697062 0.10728871
1.441318 1.4678484 0.10781207
6.3174601 1.1495011 0.3365202
6.501606 1.1408519 0.34594068
6.5184927 1.1016428 0.34646404
6.5154114 1.0591689 0.34594068
6.5119824 1.0172383 0.34541729
6.4984241 0.97380507 0.34437057
6.178205 0.88616574 0.32709971
6.3320584 0.86766636 0.33495012
6.4364066 0.84079933 0.34018371
6.4415627 0.80034178 0.34018371
6.4464641 0.75985265 0.34018371
7.4336648 0.82889354 0.39199629
6.9520807 0.7310003 0.36635169
6.4993925 0.64213914 0.34227714
6.5132427 0.60220915 0.3428005
6.5168886 0.56138027 0.3428005
6.5003328 0.51940048 0.34175378
6.493475 0.47827563 0.34123042
6.6258802 0.44618919 0.34803411
6.90765 0.42158258 0.36268818
7.1793895 0.39290643 0.37681887
16.677528 0.80791759 0.87505716
16.662258 0.70372635 0.87401044
16.676289 0.60056317 0.87453383
16.679733 0.49577162 0.87453383
16.093489 0.37715852 0.84365559
16.095541 0.27603319 0.84365559
16.106943 0.17500548 0.84417897
16.097738 0.073753849 0.84365559
16.087898 -0.027375193 0.84313226
16.067436 -0.12829792 0.84208554
16.066317 -0.22898644 0.84208554
16.324181 -0.33383667 0.85569286
19.106977 -0.50950915 1.0017102
19.103399 -0.62955117 1.0017102
19.109045 -0.74996001 1.0022335
19.093979 -0.86955595 1.0017102
19.098112 -0.99002618 1.0022335
19.091515 -1.110003 1.0022335
19.064253 -1.2283393 1.0011868
19.066236 -1.3471404 1.0017102
19.057501 -1.4655575 1.0017102
19.057867 -1.586098 1.0022335
19.037579 -1.7049195 1.0017102
19.046373 -1.8264083 1.002757
19.014652 -1.9440097 1.0017102
19.002062 -2.0634432 1.0017102
18.99868 -2.1836247 1.0022335
18.984785 -2.3012974 1.0022335
18.989935 -2.4217165 1.0032803
18.964445 -2.53966 1.002757
18.967937 -2.661231 1.0038036
12.938649 -2.0625918 0.68664771
11.969818 -1.9853457 0.63588184
11.297745 -1.9468896 0.60081679
11.30495 -2.0213521 0.6018635
11.252749 -2.0850651 0.59977007
8.5808716 -1.7017816 0.45846298
8.2569494 -1.6915292 0.44171545
8.255929 -1.7454411 0.44223884
8.2350712 -1.7950181 0.44171545
8.1263533 -1.8241354 0.43648186
6.8013072 -1.571143 0.36582834
6.5289764 -1.5515083 0.35169762
6.5288 -1.59487 0.35222098
6.5283365 -1.6382906 0.35274434
-2.3234267 -1.1255033 -0.50182766
-2.3746834 -1.1321577 -0.5113681
-2.6975706 1.2055507 -0.57433504
-2.6452589 1.2021699 -0.5647946
-2.5931249 1.1981221 -0.55525416
-2.5323389 1.189132 -0.5438056
-2.5071776 1.1963998 -0.53998947
-2.5261083 1.2249793 -0.54571372
-2.5183618 1.2408262 -0.54571372
-2.5105162 1.2566243 -0.54571372
-2.5025713 1.2723728 -0.54571372
-2.5032494 1.2925762 -0.54762179
-2.5037725 1.3128368 -0.54952991
-2.4954739 1.3285432 -0.54952991
-2.4957132 1.348863 -0.55143797
-2.4957948 1.3692396 -0.5533461
-2.495719 1.3896688 -0.55525416
-2.4780102 1.6802619 -0.58196741
-2.483583 1.7069191 -0.5857836
-2.496974 1.7393216 -0.59150785
-2.4699571 1.7436544 -0.58769172
-2.4749203 1.7705613 -0.59150785
-2.471694 1.7918389 -0.59341598
-2.3970976 1.7608421 -0.57815123
-2.4253588 1.805174 -0.58769172
-2.8320827 4.0446324 -0.95976925
-2.8345113 4.1027288 -0.96930969
-2.8307941 4.1529012 -0.97694206
1.0091482 1.5333638 -0.3568128
1.0242106 1.5351586 -0.3587209
1.0393351 1.5368243 -0.36062899
1.0545208 1.5383604 -0.36253709
1.0697666 1.5397658 -0.36444518
4.1373825 1.2736157 -0.84146768
4.2863002 1.29003 -0.87008899
4.2095647 1.2381439 -0.85291618
2.227721 -1.2252061 -0.49419528
2.1942649 -1.2248256 -0.48847103
2.1523614 -1.2192354 -0.48083866
2.1276371 -1.2229514 -0.47702247
2.0944722 -1.22146 -0.47129822
-3.1293585 -0.90487063 0.28499928
-3.211679 -0.90684658 0.29197174
-3.1788979 -0.87606233 0.2884855
-3.1939597 -0.8586579 0.28935707
-6.3987098 -1.1719663 0.56912696
-6.1311722 -1.0837451 0.54472339
-5.8333626 -0.99371135 0.51770508
-5.8493223 -0.9586494 0.51857668
-5.8453889 -0.92033046 0.51770508
-5.8412061 -0.88209575 0.51683354
-5.846633 -0.8453787 0.51683354
-5.8320932 -0.80589789 0.51509041
-5.7481523 -0.75752532 0.50724643
-8.9353132 -0.95003045 0.78614479
-8.9608526 -0.89663208 0.78788787
-8.9365034 -0.8380636 0.78527325
-8.9118204 -0.77929181 0.78265858
-8.9165411 -0.72328442 0.78265858
-8.9109755 -0.66650075 0.78178698
-8.9050484 -0.60982031 0.78091544
-8.8987617 -0.55323595 0.7800439
-8.9050112 -0.44136992 0.7800439
-8.8876925 -0.38479218 0.77830076
-8.8799515 -0.32934681 0.77742922
-8.8718719 -0.27377588 0.77655768
-8.8734169 -0.21802476 0.77655768
-8.8646507 -0.16208765 0.77568609
-5.837564 0.039988536 0.51073265
-5.8471584 0.076798454 0.51160419
-5.8465638 0.11337516 0.51160419
-5.8357902 0.14934385 0.51073265
-5.7966652 0.7706061 0.51160419
-5.7917089 0.80701375 0.51160419
-5.7865467 0.84322929 0.51160419
-5.7713623 0.87756944 0.51073265
-5.7657895 0.91346896 0.51073265
-5.7599363 0.94967675 0.51073265
-5.7636747 0.9875294 0.51160419
-5.7573562 1.0237255 0.51160419
-5.7508101 1.0598781 0.51160419
-5.7538228 1.097859 0.51247573
-5.7565846 1.1359166 0.51334733
-5.7493339 1.1720651 0.51334733
-5.7418561 1.2081645 0.51334733
-5.7438869 1.2463316 0.51421887
-5.7359428 1.2823951 0.51421887
-5.7277718 1.3184111 0.51421887
-5.7290692 1.3566676 0.51509041
-5.7204318 1.392639 0.51509041
-5.7308974 1.4333867 0.51683354
-5.7217779 1.4693681 0.51683354
-5.7124329 1.5052884 0.51683354
-5.7124786 1.5437511 0.51770508
-6.4515018 1.7870352 0.58568656
-5.7022123 1.6181321 0.51857668
-5.5771823 1.6204185 0.50811797
-6.6938105 1.989907 0.61096174
-6.1380258 1.8663342 0.56128299
-5.6124916 1.7451404 0.51421887
-5.6204042 1.7864038 0.515962
-5.6185436 1.824761 0.51683354
-5.5975127 1.856889 0.515962
-5.5951695 1.8952199 0.51683354
-8.0244102 2.9438133 0.74779624
-8.0899134 3.0250967 0.75564027
-2.7189355 1.2163795 0.26059568
-2.6568327 1.2086884 0.25536633
-2.6130528 1.2085577 0.25188008
-2.5604362 1.2035362 0.24752231
-2.5349185 1.2108594 0.24577919
-2.5272601 1.2267635 0.24577919
-2.5373714 1.2514306 0.24752231
-2.547272 1.2762729 0.24926542
-2.5303247 1.2877337 0.24839386
-2.5221832 1.3036073 0.24839386
-2.522764 1.3240577 0.24926542
-2.5143945 1.3398832 0.24926542
-2.5146885 1.3603945 0.25013697
-2.5060909 1.3761685 0.25013697
-2.5060968 1.3967365 0.25100854
-2.4432006 1.4849589 0.25013697
-2.4593947 1.5157487 0.25275165
-2.4787214 1.7050107 0.26321033
-2.4679599 1.7205505 0.26321033
-2.4815085 1.7532691 0.265825
-2.470444 1.7688254 0.265825
-2.4754074 1.7960138 0.26756811
-2.3757851 1.7466228 0.257981
-2.4606321 1.8329291 0.26843968
-1.2313498 1.6912358 0.18302706
-1.2032611 1.6746683 0.18041238
-1.1927147 1.6821959 0.18041238
-1.1764114 1.6814938 0.17954083
-1.1658226 1.6888524 0.17954083
-1.1495811 1.6879102 0.17866927
-1.1333966 1.6868314 0.1777977
1.0234257 1.5326781 0.16123812
1.0330355 1.5262175 0.16123812
1.0482403 1.5279112 0.16210967
1.0578197 1.5212948 0.16210967
4.2621918 1.0230649 0.38348526
4.2588344 0.99400043 0.38261372
6.3225608 1.1452991 0.56215453
6.496459 1.1346903 0.57697099
6.5231085 1.0971543 0.57871413
6.5298443 1.0563252 0.57871413
6.5264201 1.0143164 0.57784259
6.5128999 0.97074509 0.57609946
6.1934199 0.88338447 0.54733807
6.337039 0.86327821 0.55953985
6.4510074 0.83755344 0.56912696
6.4462557 0.7957837 0.56825542
6.4610229 0.75642353 0.56912696
7.6043153 0.84187502 0.66935611
7.2230372 0.75375497 0.63536537
6.523705 0.63936716 0.57348478
6.517673 0.59745574 0.57261324
6.5113573 0.55582315 0.57174164
6.504745 0.5146836 0.5708701
6.4978867 0.47346911 0.56999856
6.6498322 0.44255531 0.58307189
6.9110236 0.41633993 0.60573238
7.1820855 0.3873958 0.62926447
16.70714 0.79638112 1.4633449
16.691847 0.69202638 1.4616017
16.675919 0.5874365 1.4598587
16.679279 0.48264751 1.4598587
16.104338 0.36475611 1.4093083
16.086391 0.26323688 1.4075652
16.107651 0.16235921 1.4093083
16.098391 0.061111338 1.4084368
16.098457 -0.040038541 1.4084368
16.077965 -0.1410121 1.4066937
16.056845 -0.24129143 1.4049505
16.413591 -0.34838217 1.4363266
19.119736 -0.52487892 1.6733903
19.126017 -0.64533675 1.6742618
19.131538 -0.76589417 1.6751333
19.106445 -0.88516343 1.6733903
19.100506 -1.0051947 1.6733903
19.093813 -1.1251863 1.6733903
19.096342 -1.2452607 1.6742618
19.078323 -1.3628442 1.6733903
19.069473 -1.4815466 1.6733903
19.069714 -1.6021678 1.6742618
19.039429 -1.7201589 1.6725187
19.048077 -1.84167 1.6742618
19.026218 -1.9602947 1.6733903
19.013527 -2.0798006 1.6733903
19.01004 -2.199851 1.6742618
19.005934 -2.3187978 1.6751333
18.991135 -2.4370313 1.6751333
18.995193 -2.5589674 1.6768764
18.968948 -2.6763568 1.6760049
12.925155 -2.0708525 1.1452265
11.958728 -1.9931593 1.0606854
11.298118 -1.9560933 1.0031626
11.285604 -2.0270426 1.0031626
11.262852 -2.0960891 1.0022911
8.5781536 -1.7082468 0.76522744
8.2550049 -1.6978883 0.73733759
8.2539186 -1.7517905 0.73820913
8.2427988 -1.8033916 0.73820913
8.1537199 -1.8369124 0.7312367
6.8417187 -1.5861403 0.61444795
6.5506005 -1.5620841 0.58917284
6.5503321 -1.6055824 0.59004438
6.5497751 -1.6491398 0.59091592
-5.928452 -1.276904 -0.96050757
-5.9170213 -1.23559 -0.95737892
-5.9149871 -1.1964314 -0.95581454
-5.9126949 -1.1573441 -0.95425022
-5.8130984 -1.0999727 -0.93704242
-6.1599188 -1.125765 -0.99179447
-5.7971582 -1.0223901 -0.93234938
-5.8228884 -0.98957187 -0.93547809
-5.8289909 -0.95296782 -0.93547809
-5.8153491 -0.91325837 -0.93234938
-5.8112054 -0.87523216 -0.93078506
-5.7970386 -0.83588147 -0.92765635
-5.802176 -0.79944283 -0.92765635
-5.7385354 -0.75396317 -0.91670597
-5.8705673 -0.73381966 -0.93704242
-5.8677249 -0.32548776 -0.93078506
-5.8597894 -0.28813002 -0.92922074
-5.8516078 -0.25107497 -0.92765635
-5.8530512 -0.21481316 -0.92765635
-5.8355327 -0.14109017 -0.92452765
-5.8363042 -0.10442027 -0.92452765
-5.8368449 -0.067749366 -0.92452765
-5.8371553 -0.031072678 -0.92452765
-5.8045969 0.18697999 -0.91983461
-5.8131771 0.22382595 -0.921399
-5.8017888 0.25990614 -0.91983461
-5.6579843 0.68218607 -0.90262687
-5.7417707 0.72891605 -0.91670597
-5.7370772 0.76497966 -0.91670597
-5.7712851 0.80647761 -0.92296332
-5.7661314 0.84253466 -0.92296332
-5.7510366 0.87675732 -0.921399
-5.7454634 0.91256404 -0.921399
-5.7396164 0.9486441 -0.921399
-5.7432775 0.98635858 -0.92296332
-5.7369671 1.0224235 -0.92296332
-5.7401419 1.060245 -0.92452765
-5.733367 1.0962888 -0.92452765
-5.7360549 1.1342082 -0.92609203
-5.7191386 1.1682481 -0.92452765
-5.7213492 1.2061982 -0.92609203
-5.7136583 1.2421211 -0.92609203
-5.7153788 1.2801566 -0.92765635
-5.7168469 1.3182597 -0.92922074
-5.7084508 1.3541551 -0.92922074
-5.7094259 1.392334 -0.93078506
-5.7101455 1.4305816 -0.93234938
-5.7010446 1.4664295 -0.93234938
-5.6917176 1.5022225 -0.93234938
-5.7107687 1.5456947 -0.93704242
-5.729496 1.5894684 -0.94173545
-5.7098956 1.6227347 -0.94017112
-5.576355 1.6225201 -0.91983461
-5.6016092 1.7441684 -0.92922074
-5.6093626 1.7853222 -0.93234938
-5.6074276 1.8235846 -0.93391377
-5.5958586 1.8587824 -0.93391377
-5.5934234 1.8970762 -0.93547809
-5.6529593 1.9968207 -0.94955719
-5.6496601 2.0354626 -0.95112151
-5.6554823 2.07724 -0.95425022
-5.6701832 2.122817 -0.95894325
-2.6952448 1.2070526 -0.46773905
-2.6426644 1.203495 -0.45991731
-2.590276 1.1992412 -0.4520956
-2.5381107 1.1942422 -0.44427386
-2.5217118 1.2057686 -0.44270954
-2.5407374 1.2345381 -0.44740257
-2.5240738 1.2461059 -0.44583821
-2.5161948 1.2619399 -0.44583821
-2.5082164 1.2777239 -0.44583821
-2.5089116 1.2979959 -0.44740257
-2.50945 1.3183284 -0.44896692
-2.5011175 1.3340689 -0.44896692
-2.5013709 1.3544612 -0.45053124
-2.5014672 1.3749077 -0.4520956
-2.5014043 1.3954101 -0.45365995
-2.4650276 1.6970171 -0.47399643
-2.4948161 1.740731 -0.48181814
-2.48383 1.7563713 -0.48181814
-2.4727449 1.7719436 -0.48181814
-2.4615631 1.7874446 -0.48181814
-2.4025505 1.7677554 -0.47243208
-2.4626632 1.8359457 -0.48651117
-2.8172061 4.1399522 -0.79312271
-2.8241711 4.2067728 -0.80250877
-2.8194966 4.2573743 -0.80876619
-1.0913311 1.6937399 -0.31912631
-1.0806681 1.7005631 -0.31912631
-1.0594716 1.6905814 -0.3159976
-1.0436367 1.6888026 -0.31443328
4.296123 1.3187875 -0.71177679
4.2570238 1.2775736 -0.70395505
6.1743479 0.91780496 -0.98866582
6.2288852 0.88594735 -0.9964875
2.2405074 -1.2345316 -0.40516526
2.1982243 -1.2293016 -0.39890787
2.1646869 -1.2284645 -0.39421484
2.131248 -1.2272551 -0.38952181
2.0979106 -1.2256745 -0.38482878
-3.2101789 -0.90370148 0.40948099
-3.1870813 -0.87562507 0.4058249
-3.1925201 -0.85558289 0.4058249
-3.1881979 -0.83311927 0.40460622
-6.5128794 -1.1876647 0.81286854
-6.1779785 -1.0870852 0.77021426
-5.8225598 -0.98716456 0.72512257
-5.818851 -0.94896501 0.72390389
-5.8246989 -0.91238397 0.72390389
-5.8303165 -0.87577003 0.72390389
-5.8357043 -0.83911842 0.72390389
-5.831028 -0.80108589 0.72268522
-5.7473741 -0.75282943 0.71171695
-5.8507361 -0.24876787 0.71902913
-5.8521652 -0.21251152 0.71902913
-5.8335342 -0.17542896 0.71659172
-5.8444438 -0.13901007 0.71781039
-6.5900922 -0.073905177 0.80921245
-6.173562 -0.030439962 0.75802732
-5.8460913 0.0079055149 0.71781039
-5.8459263 0.044638813 0.71781039
-5.8356061 0.081229091 0.71659172
-5.8349848 0.11767129 0.71659172
-5.794456 0.15277658 0.71171695
-5.7735505 0.18824871 0.70927954
-5.772254 0.22451957 0.70927954
-5.7608137 0.26033655 0.70806086
-5.7392397 0.2955052 0.70562351
-5.7372694 0.33156145 0.70562351
-5.7845988 0.37077597 0.71171695
-5.782155 0.40711573 0.71171695
-5.7893791 0.44419563 0.71293563
-5.7864923 0.48034206 0.71293563
-5.7834053 0.51618636 0.71293563
-5.7899551 0.55317336 0.71415436
-5.7764912 0.58853406 0.71293563
-5.7883615 0.66333544 0.71537304
-5.6756892 0.68658125 0.70196742
-5.7453165 0.76837379 0.71171695
-5.7403755 0.80445576 0.71171695
-5.7647014 0.84460568 0.71537304
-5.7691689 0.88180768 0.71659172
-5.7733612 0.91931874 0.71781039
-5.7478876 0.95232928 0.71537304
-5.761354 0.99179155 0.71781039
-5.7452378 1.0262246 0.71659172
-5.7386765 1.0623041 0.71659172
-5.7416368 1.1002065 0.71781039
-5.7346106 1.1362619 0.71781039
-5.737082 1.1742597 0.71902913
-5.7295904 1.2102849 0.71902913
-5.7218733 1.2462595 0.71902913
-5.7236142 1.284361 0.72024781
-5.7154317 1.3202965 0.72024781
-5.7166796 1.3584776 0.72146648
-5.7080317 1.3943681 0.72146648
-5.7087846 1.4326224 0.72268522
-5.6996708 1.4684618 0.72268522
-5.6999269 1.5067829 0.72390389
-5.6999273 1.5451621 0.72512257
-6.4264727 1.7855397 0.81896198
-5.6800609 1.6166657 0.72512257
-5.565033 1.6215634 0.71171695
-6.161552 1.8787771 0.790932
-5.6000447 1.746093 0.72024781
-5.6078763 1.7872739 0.72268522
-5.6059742 1.8255455 0.72390389
-5.5943928 1.8607342 0.72390389
-5.5825915 1.8958465 0.72390389
-8.0300093 2.9529252 1.0505137
-8.0393257 3.0133815 1.0541698
-2.7170815 1.2181128 0.36560804
-2.6551871 1.2104567 0.35829586
-2.6115546 1.2103208 0.35342109
-2.5591085 1.2053328 0.34732762
-2.5425913 1.2169788 0.34610894
-2.5438209 1.2372708 0.34732762
-2.5537927 1.262025 0.349765
-2.5369427 1.2735921 0.34854633
-2.5288908 1.2895063 0.34854633
-2.5207391 1.3053696 0.34854633
-2.5212722 1.3258022 0.349765
-2.5216482 1.3462915 0.35098371
-2.513139 1.3621095 0.35098371
-2.5132277 1.3826567 0.35220239
-2.5218225 1.4080987 0.35463977
-2.5091746 1.7288618 0.37413889
-2.4901242 1.7389112 0.37292019
-2.4872515 1.7602557 0.37413889
-2.4680762 1.7700649 0.37292019
-2.4649355 1.7913717 0.37413889
-2.4056773 1.771512 0.36682671
-2.4501855 1.8281403 0.37535757
-1.2750355 1.6863576 0.25958169
-1.2584789 1.6863806 0.25836301
-1.2419716 1.6862631 0.2571443
-1.2313526 1.6940329 0.2571443
4.2666869 1.0206006 0.53866249
4.2536802 0.98927552 0.53622508
6.2416911 1.1255878 0.77874511
6.4637733 1.1237497 0.80555636
6.5196528 1.0913086 0.8116498
6.5165415 1.048995 0.81043112
6.5131068 1.0070821 0.80921245
6.5094404 0.96500331 0.80799371
6.1812534 0.87669635 0.76655817
6.3341746 0.85782158 0.78483856
6.4280343 0.82943779 0.79580683
6.4232674 0.78782475 0.79458809
6.4280906 0.74745083 0.79458809
7.2662792 0.7524991 0.89695835
6.7769189 0.65881079 0.83602369
6.4843826 0.5892691 0.79946285
6.4879365 0.54876304 0.79946285
6.4813166 0.50777841 0.79824418
6.494256 0.46807742 0.79946285
6.635726 0.4363822 0.81652457
6.9058518 0.41058531 0.84942931
7.1759052 0.38141057 0.88233405
16.065483 0.35125253 1.9730647
16.067373 0.25030366 1.9730647
16.078554 0.14943719 1.9742833
16.0891 0.048440088 1.975502
16.079161 -0.05261869 1.9742833
16.058664 -0.15345582 1.971846
16.057392 -0.25373819 1.971846
12.866393 -2.0718033 1.6001445
11.932943 -1.9984953 1.4855872
11.274762 -1.961171 1.4051535
11.262217 -2.0319734 1.4051535
11.23947 -2.1008718 1.4039348
8.233161 -1.7001359 1.0322334
8.2223158 -1.7518326 1.0322334
8.2015209 -1.8010175 1.0310147
8.0449877 -1.8189657 1.0127342
6.8154178 -1.5856842 0.85917884
6.5253849 -1.5614883 0.82383674
6.5250831 -1.6048279 0.82505542
6.5244942 -1.6482245 0.82627416
2.1912289 -1.2265192 0.30832943
2.1921096 -1.2451651 0.30954814
2.1584444 -1.2440448 0.30589205
2.1077449 -1.2325306 0.29979858
2.0743501 -1.2305572 0.29614249
-3.2993302 -3.9042289 -0.62762713
-3.3302491 -3.8909633 -0.62884581
-3.3676343 -3.8849609 -0.63128316
-3.3896406 -3.8128138 -0.6264084
-3.3600743 -3.7327244 -0.61665887
-5.9213915 -1.309489 -0.74462169
-5.9295025 -1.2722566 -0.74462169
-5.917944 -1.2309346 -0.74218428
-5.9158316 -1.1917652 -0.7409656
-5.9134607 -1.1526742 -0.73974693
-5.8132944 -1.0952798 -0.72634125
-6.2985058 -1.1460526 -0.78605723
-5.8166885 -1.0211903 -0.72512257
-5.8033738 -0.98156834 -0.72268522
-5.8192239 -0.94667763 -0.72390389
-5.8152504 -0.90856528 -0.72268522
-5.8110285 -0.87053716 -0.72146648
-5.8065581 -0.83260113 -0.72024781
-5.7920079 -0.79340559 -0.71781039
-5.7378273 -0.74928802 -0.71049827
-5.8803186 -0.7303471 -0.72755998
-5.751133 -0.42334557 -0.70806086
-5.8626127 -0.39453438 -0.72146648
-5.6458597 0.68522167 -0.69831133
-5.7398973 0.73326081 -0.71049827
-5.7548518 0.77194858 -0.71293563
-5.7793741 0.81223756 -0.71659172
-5.7643738 0.84683788 -0.71537304
-5.7393937 0.87953418 -0.71293563
-5.7337947 0.91532636 -0.71293563
-5.7279305 0.95133311 -0.71293563
-5.7316213 0.98898995 -0.71415436
-5.7252941 1.0249846 -0.71415436
-5.7284999 1.0627463 -0.71537304
-5.7217093 1.0987198 -0.71537304
-5.7146931 1.134647 -0.71537304
-5.7171741 1.1725266 -0.71659172
-5.7194047 1.2104789 -0.71781039
-5.7116857 1.2463925 -0.71781039
-5.7134256 1.2844307 -0.71902913
-5.6955724 1.3180674 -0.71781039
-5.6968346 1.3561245 -0.71902913
-5.6978421 1.3942525 -0.72024781
-5.6985955 1.4324436 -0.72146648
-5.6990929 1.4707021 -0.72268522
-5.6897402 1.5064799 -0.72268522
-5.6993194 1.5474025 -0.72512257
-5.7086091 1.5885017 -0.72755998
-5.6794248 1.6188983 -0.72512257
-5.5644045 1.6237181 -0.71171695
-6.1892924 1.8898915 -0.79458809
-5.6183066 1.7542106 -0.72268522
-5.588263 1.7834398 -0.72024781
-5.5958195 1.824672 -0.72268522
-5.5936618 1.8629302 -0.72390389
-5.5912433 1.9012361 -0.72512257
-5.6324034 1.9945382 -0.73365343
-5.6385202 2.0363841 -0.73609084
-5.6444216 2.0781434 -0.73852819
-5.659224 2.1237814 -0.74218428
-2.7424238 1.2099812 -0.36804542
-2.6894372 1.2069875 -0.36195195
-2.6366518 1.2032588 -0.35585847
-2.5840738 1.1988024 -0.349765
-2.5406861 1.1978582 -0.34489024
-2.5331624 1.2136881 -0.34489024
-2.5344102 1.2339259 -0.34610894
-2.5266078 1.249825 -0.34610894
-2.5187054 1.2656747 -0.34610894
-2.5107036 1.2814745 -0.34610894
-2.5202258 1.3063604 -0.34854633
-2.5119684 1.3221688 -0.34854633
-2.5036111 1.3379265 -0.34854633
-2.5038798 1.358363 -0.349765
-2.5039897 1.3788568 -0.35098371
-2.5039413 1.399404 -0.35220239
-2.4839818 1.7129439 -0.3704828
-2.4894414 1.7398885 -0.37292019
-2.4703603 1.7497594 -0.37170148
-2.4593179 1.7652459 -0.37170148
-2.4562044 1.7865022 -0.37292019
-2.4369416 1.7960105 -0.37170148
-2.4733253 1.8469193 -0.37901366
-1.3365971 1.7015654 -0.26567516
-1.319798 1.7020857 -0.26445648
-2.7966704 4.4085498 -0.64103276
-2.8057656 4.4849358 -0.64956361
-2.8035851 4.544714 -0.65565705
-2.7904496 4.5876789 -0.65931314
1.0118684 1.5322503 -0.22545828
1.0269972 1.5341102 -0.22667697
1.0421892 1.5358403 -0.22789566
1.0574433 1.5374396 -0.22911437
1.0727583 1.5389075 -0.23033306
4.4316611 2.9790757 -0.65565705
4.4172039 2.9292302 -0.65078229
6.4008279 1.1932577 -0.79946285
6.4375048 1.1582897 -0.80311894
6.4935522 1.1263002 -0.80921245
6.4809208 1.0822093 -0.80677503
6.5071473 1.0448971 -0.80921245
6.5036869 1.0030471 -0.80799371
6.067976 0.89712262 -0.75315255
6.2405629 0.88260859 -0.77387029
6.4230371 0.86728764 -0.79580683
6.4283595 0.82691354 -0.79580683
6.4235759 0.7853024 -0.79458809
6.4875402 0.75178176 -0.80190027
7.0051923 0.7671935 -0.86527234
6.4767289 0.66816247 -0.79946285
6.4906788 0.62841147 -0.80068159
6.4846139 0.58672273 -0.79946285
6.4881482 0.5462507 -0.79946285
6.4716177 0.50449723 -0.7970255
6.5538397 0.46978506 -0.80677503
6.824079 0.44607756 -0.83967978
6.9456453 0.41021422 -0.85430408
6.8148923 -1.5436159 -0.85796016
6.6118007 -1.5410475 -0.83358628
6.5344234 -1.5663642 -0.82505542
6.5244527 -1.60739 -0.82505542
2.7473569 -1.3632021 -0.37657627
2.6944213 -1.3581001 -0.3704828
2.2071049 -1.2183874 -0.30954814
2.190747 -1.2273796 -0.30832943
2.165735 -1.2313089 -0.30589205
2.1235662 -1.2250533 -0.30101728
2.0986948 -1.2283446 -0.29857987
-3.0961127 -0.95352465 0.51310503
-3.064213 -0.92266154 0.50684768
-3.0794249 -0.90617865 0.508412
-3.1420126 -0.90318418 0.51779807
-3.1951728 -0.8967694 0.5256198
-3.1912181 -0.87406677 0.52405542
-3.158478 -0.84380162 0.51779807
-5.8338037 -1.0967729 0.94017112
-6.4333267 -1.1680106 1.0355961
-6.1096625 -1.0701869 0.9824084
-5.8240499 -0.98271078 0.93547809
-5.8203602 -0.94451743 0.93391377
-5.8359389 -0.90944785 0.93547809
-5.8513064 -0.87422282 0.93704242
-5.8371291 -0.83464319 0.93391377
-5.8324718 -0.79661608 0.93234938
-5.7492142 -0.74847668 0.91827029
-5.871428 -0.72690254 0.93704242
-6.4094043 0.094252579 1.0152596
-6.5074396 0.13627414 1.0309031
-6.6143689 1.7986325 1.0856552
-6.4221644 1.7897789 1.0559326
-5.6794877 1.6213272 0.93547809
-5.5839467 1.6317673 0.921399
-6.2338219 1.9061677 1.0324675
-5.6184039 1.7566618 0.93234938
-5.6072555 1.7919298 0.93234938
-5.5958862 1.8271242 0.93234938
-5.6124039 1.8716232 0.93704242
-5.600534 1.9068484 0.93704242
-8.0440331 2.9651611 1.3578511
-8.034605 3.0188084 1.3594155
-2.7028301 1.2142748 0.4693034
-2.6502285 1.2107118 0.46148166
-2.5978386 1.2064108 0.45365995
-2.5456531 1.2014067 0.44583821
-2.5291951 1.21301 0.44427386
-2.5392811 1.2375307 0.44740257
-2.5491583 1.2622257 0.45053124
-2.5323539 1.2737787 0.44896692
-2.5243003 1.2896653 0.44896692
-2.5161476 1.3054998 0.44896692
-2.5166333 1.3258878 0.45053124
-2.5082531 1.3416734 0.45053124
-2.5084531 1.3621205 0.4520956
-2.5171456 1.3873893 0.45522428
-2.5083783 1.4031782 0.45522428
-2.5081022 1.4237863 0.45678863
-2.4991064 1.4395177 0.45678863
-2.5241225 1.475125 0.46304601
-2.489316 1.475845 0.45835298
-2.4461377 1.4710947 0.4520956
-2.4284866 1.4811734 0.45053124
-2.5036705 1.7279717 0.48181814
-2.5008566 1.7493304 0.48338249
-2.4817588 1.7592965 0.48181814
-2.4706554 1.7748557 0.48181814
-2.4594555 1.7903435 0.48181814
-2.3527746 1.7354076 0.46304601
-2.4525869 1.8329332 0.48494685
-1.9833524 1.707911 0.41455132
-1.9353641 1.6878793 0.40672961
-1.9247203 1.7000067 0.40672961
-1.9140013 1.7120659 0.40672961
-1.0575135 1.6684659 0.31286892
-1.0470089 1.6750777 0.31286892
-1.0312816 1.6732148 0.31130457
-1.0156183 1.6712213 0.30974025
1.0075146 1.5243555 0.28940377
1.0170726 1.517995 0.28940377
1.0376885 1.527916 0.29253244
1.0416678 1.5132302 0.29096809
4.2658162 1.0168511 0.69456899
4.2432551 0.98333883 0.68987596
6.3481207 1.1396337 1.021517
6.4914074 1.1233026 1.0434178
6.5373077 1.0889864 1.0496752
6.5342169 1.0466485 1.0481108
6.5210524 1.0031395 1.0449822
6.5174184 0.96095562 1.0434178
6.190804 0.87309164 0.99023014
6.3429961 0.85394382 1.0136954
6.4462032 0.82663584 1.0293387
6.4316611 0.78372759 1.0262101
6.44627 0.74443406 1.0277745
7.5995965 0.82927144 1.2108028
7.1821761 0.73808867 1.143536
6.5279756 0.62943512 1.0387248
6.4924531 0.58486181 1.0324675
6.4959731 0.54437631 1.0324675
6.5090685 0.50488108 1.0340317
6.5022426 0.46352017 1.0324675
6.643012 0.43162188 1.0543683
6.9019513 0.40491393 1.0950413
7.1805334 0.37600151 1.1388429
11.911935 -2.0045958 1.9131935
11.130479 -1.9450812 1.7896103
10.42802 -1.8899219 1.6785418
9.7655497 -1.8333066 1.5737307
8.5893879 -1.7245152 1.3875737
8.2205477 -1.7042639 1.329693
7.8040223 -1.6691201 1.2639904
7.4558773 -1.6433312 1.2092384
7.2336478 -1.6414118 1.1748228
6.8096743 -1.5899864 1.107556
6.5402446 -1.5704758 1.0653187
6.5302482 -1.6115382 1.0653187
6.5295682 -1.6549627 1.0668831
2.2140043 -1.2415521 0.40203658
2.1889911 -1.2456686 0.39890787
2.1725678 -1.254459 0.39734355
2.130554 -1.2481149 0.39108616
2.0887074 -1.2412931 0.38482878
-5.9358425 -1.3469571 -0.53252161
-5.9344602 -1.3074898 -0.53165001
-5.9425578 -1.2701783 -0.53165001
-5.930912 -1.2287717 -0.52990693
-5.9189806 -1.1875648 -0.52816379
-5.9165463 -1.1484517 -0.52729225
-5.8061514 -1.0892146 -0.51683354
-6.4009671 -1.1595755 -0.56912696
-6.0940061 -1.0650125 -0.54123718
-5.8156552 -0.97894651 -0.515962
-5.8118572 -0.9407962 -0.51509041
-5.8274975 -0.90578938 -0.515962
-5.842927 -0.87062615 -0.51683354
-5.8186955 -0.82967669 -0.51421887
-5.8139224 -0.79175782 -0.51334733
-5.749629 -0.74623555 -0.50724643
-5.8728476 -0.7247377 -0.51770508
-5.791297 -0.27564433 -0.50724643
-5.852622 -0.2420373 -0.51247573
-5.6660714 0.69219214 -0.4994024
-5.7801785 0.74301922 -0.50986111
-5.7852683 0.78065598 -0.51073265
-5.7703853 0.81559461 -0.50986111
-5.765193 0.85152304 -0.50986111
-5.7598062 0.88722825 -0.50986111
-5.7443123 0.9216308 -0.50898951
-5.7482347 0.95934337 -0.50986111
-5.7420931 0.99544305 -0.50986111
-5.7357259 1.0315003 -0.50986111
-5.7389245 1.0693448 -0.51073265
-5.7320924 1.1053807 -0.51073265
-5.7250338 1.141376 -0.51073265
-5.7275071 1.1793323 -0.51160419
-5.7199836 1.2152973 -0.51160419
-5.7122355 1.2512114 -0.51160419
-5.7139783 1.2892717 -0.51247573
-5.7057652 1.3251466 -0.51247573
-5.7070155 1.3632867 -0.51334733
-5.6983371 1.3991163 -0.51334733
-5.6990929 1.4373299 -0.51421887
-5.699594 1.4756051 -0.51509041
-5.6902094 1.5113889 -0.51509041
-5.6902132 1.5497278 -0.515962
-5.6899586 1.5881294 -0.51683354
-5.67029 1.621109 -0.515962
-5.5835953 1.6340116 -0.50898951
-6.604054 1.977149 -0.6031177
-6.0486202 1.8521338 -0.55343896
-5.5995479 1.7531794 -0.51334733
-5.6168852 1.7974378 -0.515962
-5.5960126 1.8295968 -0.51509041
-5.5844059 1.8647227 -0.51509041
-5.5820088 1.9029866 -0.515962
-5.6327586 1.9996421 -0.52293444
-5.6295605 2.0380814 -0.52380598
-5.6448617 2.0832708 -0.52642065
-5.6503792 2.1255248 -0.52816379
-2.7957773 1.2149495 -0.26669657
-2.7424257 1.2125919 -0.26233879
-2.6892853 1.2094586 -0.257981
-2.6363356 1.2056161 -0.25362322
-2.5926402 1.2052174 -0.25013697
-2.5400858 1.199982 -0.24577919
-2.5415163 1.2201467 -0.24665074
-2.5427535 1.2404585 -0.24752231
-2.5349097 1.2564098 -0.24752231
-2.5269659 1.2723116 -0.24752231
-2.5189214 1.2881644 -0.24752231
-2.519619 1.3085566 -0.24839386
-2.5201588 1.3290094 -0.24926542
-2.5205414 1.3495193 -0.25013697
-2.5120122 1.3653302 -0.25013697
-2.5121069 1.3858981 -0.25100854
-2.5120413 1.4065222 -0.25188008
-2.4972198 1.7482467 -0.26669657
-2.4780617 1.7581376 -0.265825
-2.4669657 1.7736735 -0.265825
-2.4638247 1.7950042 -0.26669657
-2.4444828 1.8045336 -0.265825
-2.4570289 1.8377565 -0.26843968
-1.7454356 1.7059774 -0.21353157
-1.7276024 1.7099023 -0.21266001
-1.3111106 1.6936281 -0.18738484
-1.2943952 1.6939167 -0.18651329
-1.2777274 1.6940631 -0.18564174
-1.2611099 1.6940666 -0.18477017
-1.2504405 1.7019572 -0.18477017
-1.2280271 1.69365 -0.18302706
-1.2115639 1.6932312 -0.1821555
-1.1951557 1.6926721 -0.18128394
-1.173107 1.6838008 -0.17954083
-1.1681479 1.6993475 -0.18041238
-1.1462641 1.6901644 -0.17866927
-2.7245312 5.2752919 -0.51944822
-2.7229402 5.354465 -0.52554911
-2.7204633 5.4338226 -0.53165001
4.0992413 6.2822299 -0.65628272
4.1496248 6.2729669 -0.65802586
1.2605543 1.5041353 -0.17169681
1.2699802 1.4961853 -0.17169681
1.2857684 1.4958007 -0.17256837
1.2950115 1.4878055 -0.17256837
1.3108729 1.4871553 -0.17343992
1.3334594 1.4937527 -0.17518304
1.3494991 1.4927347 -0.1760546
1.7085879 1.4507833 -0.19610041
1.7329378 1.4528195 -0.19784354
1.7420319 1.4419024 -0.19784354
4.2674093 1.043834 -0.38435683
4.2448096 1.0100822 -0.38174215
6.3273487 1.1744183 -0.56302607
6.4228559 1.1504471 -0.5708701
6.4790411 1.1185424 -0.57522792
6.4859414 1.0778124 -0.57522792
6.5023661 1.0389644 -0.57609946
6.4988317 0.99714535 -0.57522792
6.100843 0.89708626 -0.53949404
6.2839265 0.88370818 -0.5551821
6.4572029 0.86673772 -0.56999856
6.4328766 0.82235938 -0.56738389
6.4280272 0.78072327 -0.56651235
6.8781538 0.79157245 -0.60573238
7.1206779 0.77418232 -0.6266498
6.5208821 0.6675421 -0.57348478
6.4951987 0.62370056 -0.5708701
6.4989891 0.58287793 -0.5708701
6.5024939 0.54238641 -0.5708701
6.4957972 0.50132126 -0.56999856
6.5782995 0.46634576 -0.57697099
6.8594546 0.44298008 -0.60137463
7.1505098 0.41667855 -0.6266498
11.242396 -2.0420754 -0.99967635
8.2524967 -1.6602479 -0.73646599
8.2419014 -1.7120669 -0.73646599
8.0264254 -1.7199837 -0.71816331
8.1711979 -1.8043123 -0.73210824
6.819313 -1.5501705 -0.61183327
6.5669875 -1.5360413 -0.59004438
6.5281496 -1.5702829 -0.5874297
6.5374961 -1.6160506 -0.58917284
2.7563808 -1.3703784 -0.26931125
2.6943624 -1.360725 -0.2640819
2.1978319 -1.2336179 -0.22050403
2.1554124 -1.227681 -0.2170178
2.1217809 -1.2262454 -0.21440312
2.0882533 -1.2244362 -0.21178845
-3.0367265 -0.91178453 0.61631304
-3.070653 -0.90097755 0.62203729
-3.1328714 -0.89789337 0.63348585
-3.1857171 -0.89141709 0.64302629
-3.1723158 -0.86621171 0.6392101
-3.16821 -0.84373629 0.63730204
-6.1166263 -1.3451074 1.2173613
-5.875351 -1.2533985 1.1677511
-5.8542714 -1.2104965 1.1620268
-5.8521366 -1.1717606 1.1601187
-5.8497458 -1.1331024 1.1582106
-5.8374529 -1.0927113 1.1543944
-5.8344798 -1.0546194 1.1524863
-5.8409023 -1.0184484 1.1524863
-5.8374782 -0.98026371 1.1505783
-5.824141 -0.94043547 1.146762
-5.8299346 -0.90382445 1.146762
-5.825789 -0.86573178 1.1448539
-5.8311133 -0.82911193 1.1448539
-5.8264809 -0.79113543 1.1429459
-5.7923961 -0.74947423 1.1353135
-6.1282477 -0.75380987 1.2001885
-5.7623558 -0.67207867 1.1276811
-5.8054938 -0.64016175 1.1353135
-5.8288922 -0.60605383 1.1391296
-5.8227654 -0.56897128 1.1372216
-5.8066597 -0.53074753 1.1334054
-5.8196611 -0.49508342 1.1353135
-5.8226566 -0.45850939 1.1353135
-5.8254228 -0.42191413 1.1353135
-5.8279586 -0.38530532 1.1353135
-5.8400636 -0.3492642 1.1372216
-5.8323402 -0.31204042 1.1353135
-5.8537965 -0.27631286 1.1391296
-5.8554025 -0.23988108 1.1391296
-5.8567767 -0.203596 1.1391296
-5.8579354 -0.16695362 1.1391296
-5.8490553 -0.12992446 1.1372216
-5.8497562 -0.093172945 1.1372216
-5.8502259 -0.056414623 1.1372216
-5.8504648 -0.019657195 1.1372216
-5.8504729 0.017104128 1.1372216
-5.8502502 0.053861659 1.1372216
-5.8497963 0.090620175 1.1372216
-5.8491192 0.12701996 1.1372216
-5.838407 0.16298516 1.1353135
-5.847084 0.19984074 1.1372216
-5.8457127 0.23657648 1.1372216
-5.8343053 0.27284122 1.1353135
-5.8324761 0.30949521 1.1353135
-5.8304162 0.34613392 1.1353135
-5.8281264 0.38276204 1.1353135
-5.8256063 0.41937193 1.1353135
-5.8130698 0.45520207 1.1334054
-5.8101249 0.49136627 1.1334054
-6.3544273 0.57707393 1.2402585
-6.2334495 0.60542685 1.2173613
-6.7274933 0.6961084 1.3146739
-5.7862573 0.63548493 1.1314974
-5.7821498 0.67182988 1.1314974
-5.641408 0.69142681 1.104784
-5.7635155 0.74318033 1.1295892
-5.7634406 0.81692392 1.1314974
-5.758245 0.85277539 1.1314974
-5.7863388 1.578351 1.1658429
-5.8708467 1.6411016 1.1849239
-5.6716776 1.6239177 1.146762
-5.5955224 1.6398546 1.1334054
-6.3254671 1.9396226 1.2860526
-5.8541865 1.8354321 1.1925561
-5.5901413 1.791299 1.1410378
-5.5974336 1.8324971 1.1448539
-5.6044292 1.8738544 1.1486701
-5.5925446 1.9090325 1.1486701
-5.6328592 2.0021715 1.1620268
-5.6479764 2.0472226 1.1677511
-5.6167674 2.0753741 1.1639348
-2.7031975 1.2169913 0.57624316
-2.6419442 1.209437 0.5647946
-2.5898671 1.205148 0.55525416
-2.5379798 1.2001895 0.54571372
-2.5392697 1.2202948 0.54762179
-2.5315521 1.2362261 0.54762179
-2.5325284 1.2564698 0.54952991
-2.5333502 1.2767745 0.55143797
-2.5252783 1.2926661 0.55143797
-2.5171061 1.3085079 0.55143797
-2.5175164 1.3288792 0.5533461
-2.5091166 1.3446716 0.5533461
-2.5092416 1.3651006 0.55525416
-2.5178008 1.3903306 0.55907035
-2.4761047 1.7349132 0.58769172
-2.4811621 1.7618039 0.59150785
-2.4620759 1.7716246 0.58959979
-2.4508955 1.7870599 0.58959979
-2.4001431 1.7732579 0.58005935
-2.4361041 1.8235995 0.59150785
6.3003888 1.1259578 1.2440746
6.4814677 1.1163405 1.2784202
6.5174065 1.0804105 1.2841445
6.5240035 1.0398312 1.2841445
6.5109148 0.99641889 1.2803284
6.507308 0.95424378 1.2784202
6.1826563 0.86698997 1.2135452
6.3436537 0.84896052 1.2440746
6.4267631 0.819013 1.2593393
6.4317822 0.77861649 1.2593393
6.4365473 0.73818928 1.2593393
7.5438457 0.81719321 1.4749535
7.0605497 0.71998632 1.379549
6.4884043 0.62047684 1.2669717
6.4823976 0.57882392 1.2650636
6.4858742 0.53847122 1.2650636
6.4890857 0.4982757 1.2650636
6.4920759 0.45767117 1.2650636
6.6613574 0.42756042 1.2975011
6.8991094 0.3993105 1.3432953
9.7524185 -1.8387718 1.9290789
9.1818609 -1.7910098 1.8184097
8.6989145 -1.7536135 1.7249132
8.1975985 -1.7062222 1.6276007
7.802814 -1.6752712 1.5512772
7.4471936 -1.6474669 1.4825859
7.1209927 -1.6216487 1.4196188
6.8048716 -1.5945019 1.35856
6.5275106 -1.5728412 1.3051335
6.5270281 -1.6161828 1.3070416
6.526258 -1.6595805 1.3089497
2.1908896 -1.2308528 0.48847103
2.1745849 -1.2397325 0.48656294
2.1412613 -1.2386258 0.48083866
2.1165047 -1.2421182 0.47702247
2.0749199 -1.2353058 0.46939012
-1.4168175 -1.0734755 -0.093157999
-1.4394586 -1.0766078 -0.094204716
-5.9319286 -1.3411696 -0.31872597
-5.940238 -1.3038734 -0.31872597
-5.9385462 -1.264443 -0.31820261
-5.9365931 -1.2250886 -0.31767926
-5.934381 -1.1858054 -0.3171559
-5.9221044 -1.1447066 -0.31610918
-5.8506479 -1.0928044 -0.31192228
-6.2897496 -1.1343975 -0.33495012
-5.8440857 -1.0166718 -0.31087556
-5.8207893 -0.97511196 -0.30930549
-5.8169422 -0.93693018 -0.30878213
-5.8523211 -0.90494263 -0.31035221
-5.8578916 -0.8681522 -0.31035221
-5.8335681 -0.82712483 -0.30878213
-5.8089623 -0.78643447 -0.30721205
-5.8137884 -0.74992192 -0.30721205
-8.9077215 -1.0353868 -0.46997687
-8.9438305 -0.98266733 -0.47154695
-8.9398346 -0.92601222 -0.47102359
-8.9454002 -0.87060261 -0.47102359
-8.9307852 -0.8127678 -0.46997687
-8.9058638 -0.75410813 -0.4684068
-8.9004707 -0.69735867 -0.46788344
-8.8886013 -0.58414996 -0.46683672
-8.8920965 -0.52828759 -0.46683672
-5.7857165 -0.27082312 -0.30354854
-5.897047 -0.23929989 -0.30930549
-5.7388434 0.70565552 -0.30302519
-5.7937193 0.7493872 -0.30616534
-5.7987919 0.78711689 -0.3066887
-5.7838449 0.82213229 -0.30616534
-5.7786212 0.85807979 -0.30616534
-5.7731934 0.89386809 -0.30616534
-5.7576246 0.92840707 -0.30564198
-5.7615271 0.9662149 -0.30616534
-5.7651806 1.0041083 -0.3066887
-5.7587576 1.0403136 -0.3066887
-5.7521076 1.0764747 -0.3066887
-5.7452302 1.1125964 -0.3066887
-5.7479186 1.1506312 -0.30721205
-5.7405753 1.1867251 -0.30721205
-5.733006 1.222769 -0.30721205
-5.7349629 1.2609122 -0.30773541
-5.7366672 1.2991251 -0.30825877
-5.7283912 1.3351454 -0.30825877
-5.7296004 1.3734378 -0.30878213
-5.7208576 1.409412 -0.30878213
-5.7215705 1.4477775 -0.30930549
-5.7220263 1.4862105 -0.30982885
-5.7222252 1.5247031 -0.31035221
-5.7221651 1.56326 -0.31087556
-5.7218471 1.601873 -0.31139892
-5.6636715 1.6240312 -0.30878213
-5.8930187 1.7295187 -0.32186612
-5.9682698 1.7918428 -0.32657635
-5.594172 1.7177833 -0.3066887
-5.6023235 1.7588825 -0.30773541
-5.5911622 1.7940465 -0.30773541
-5.5987582 1.8353643 -0.30878213
-5.5871162 1.8705045 -0.30878213
-5.6036015 1.9152632 -0.31035221
-5.5820284 1.9471431 -0.30982885
-5.6449494 2.008965 -0.31401575
-5.6605105 2.0542462 -0.31558582
-5.6757712 2.099674 -0.3171559
-5.6812019 2.142216 -0.31820261
-2.7481599 1.2177444 -0.15753123
-2.70401 1.218634 -0.15543778
-2.6509073 1.214799 -0.15282099
-2.5980403 1.2101754 -0.1502042
-2.5453618 1.2048866 -0.14758739
-2.5467672 1.2251287 -0.14811075
-2.5569625 1.249878 -0.14915748
-2.5401151 1.2614766 -0.14863411
-2.5410552 1.2819089 -0.14915748
-2.5329509 1.2978488 -0.14915748
-2.5247459 1.3137387 -0.14915748
-2.5341015 1.3389059 -0.1502042
-2.5344386 1.3595228 -0.15072756
-2.5258467 1.3754196 -0.15072756
-2.5258946 1.3960942 -0.15125091
-2.5257831 1.4168221 -0.15177427
-2.4825575 1.6947542 -0.15753123
-2.5047083 1.7330482 -0.15962467
-2.510123 1.760218 -0.16067138
-2.4990132 1.7759554 -0.16067138
-2.4797022 1.7857856 -0.16014802
-2.4684324 1.8013313 -0.16014802
-2.4650958 1.8227419 -0.16067138
-2.4855626 1.8621455 -0.16276482
-1.2628577 1.6991998 -0.11095223
-1.240344 1.6909959 -0.1099055
-1.2296944 1.6987562 -0.1099055
-1.2131922 1.6983228 -0.10938215
-1.1967435 1.69775 -0.10885879
-1.186053 1.7052355 -0.10885879
-1.1696644 1.7044203 -0.10833543
-1.1533339 1.7034663 -0.10781207
-1.1370609 1.7023753 -0.10728871
-1.1208483 1.7011467 -0.10676535
-1.1046953 1.6997826 -0.10624199
-1.0886048 1.6982824 -0.10571863
-1.072576 1.696648 -0.10519527
-1.061895 1.7033534 -0.10519527
-1.0459415 1.7014847 -0.10467191
-1.0300545 1.6994826 -0.10414855
-1.0142332 1.6973488 -0.10362519
1.0053303 1.5380629 -0.096298158
1.0260067 1.548365 -0.097344875
1.0412834 1.5501776 -0.097868234
1.0566232 1.551859 -0.098391593
1.066353 1.5451895 -0.098391593
1.0817641 1.5466422 -0.098914959
1.0972354 1.5479621 -0.099438317
1.1126645 1.5492209 -0.099961676
1.122242 1.5422972 -0.099961676
1.1319772 1.5351661 -0.099961676
1.1417339 1.5279239 -0.099961676
1.1513447 1.520695 -0.099961676
1.1608768 1.5134308 -0.099961676
1.8055979 1.4357229 -0.12089606
1.8224384 1.4305159 -0.12141941
4.2495532 1.0359293 -0.22923149
4.2462616 1.0069041 -0.22870812
6.4026566 1.1831954 -0.34123042
6.4591208 1.151708 -0.34384722
6.5154395 1.1195575 -0.34646404
6.5420504 1.0818565 -0.34751076
6.5289254 1.0380234 -0.34646404
6.5154881 0.99453688 -0.34541729
6.1263394 0.89592052 -0.32448292
6.2999792 0.88091975 -0.33338004
6.4439697 0.85980999 -0.34070706
6.4096179 0.81427044 -0.33861363
6.4245224 0.77517802 -0.33913699
6.8856645 0.78695792 -0.36321154
6.9103303 0.74582183 -0.36425826
6.4777327 0.65798455 -0.34123042
6.5314455 0.62200469 -0.34384722
6.5053835 0.57830155 -0.34227714
6.4889488 0.53619659 -0.34123042
6.4821892 0.49522135 -0.34070706
6.5847812 0.46160719 -0.34594068
6.8666005 0.43802562 -0.36059472
7.1782823 0.4126395 -0.37681887
16.665285 0.85297376 -0.87453383
16.66029 0.74889004 -0.87401044
16.66461 0.64565182 -0.87401044
16.668325 0.54129672 -0.87401044
16.082409 0.42113313 -0.84313226
16.074753 0.31987786 -0.84260887
16.086432 0.21900734 -0.84313226
16.097475 0.11800269 -0.84365559
16.087914 0.016846975 -0.84313226
16.067728 -0.084131628 -0.84208554
16.066883 -0.18508598 -0.84208554
16.055437 -0.28480342 -0.84156215
13.072529 -2.0471015 -0.6934514
12.103361 -1.9733244 -0.64268553
11.303054 -1.9158257 -0.60081679
11.261288 -1.9816148 -0.59924668
11.258439 -2.0541246 -0.59977007
8.2713566 -1.6708024 -0.44223884
8.2606955 -1.7227397 -0.44223884
7.9177675 -1.7032045 -0.42444459
8.2190151 -1.8215477 -0.44119209
6.844511 -1.5614741 -0.36792177
6.5721045 -1.542684 -0.35379106
6.5428667 -1.5792608 -0.35274434
6.5425076 -1.6227428 -0.3532677
2.2022316 -1.2383633 -0.13240996
2.1683867 -1.2373278 -0.13083988
2.1346428 -1.2359165 -0.12926981
2.1096139 -1.2391883 -0.12822309
-1.8493028 -1.0047816 0.48589426
-1.9071064 -1.0207611 0.49939135
-1.9393402 -1.0223902 0.50613987
-1.9630212 -1.0191643 0.51063889
-1.9867374 -1.0156808 0.51513791
-2.0104866 -1.011939 0.51963693
-2.0342667 -1.0079387 0.52413595
-2.0755188 -1.0123682 0.53313398
-2.1081028 -1.012141 0.53988254
-2.1408341 -1.0113968 0.54663104
-2.1559827 -1.0020323 0.54888058
-2.1888208 -1.0006194 0.55562907
-2.2128386 -0.99483764 0.56012809
-2.2368693 -0.98879325 0.56462711
-2.2519743 -0.97860247 0.56687665
-2.3028817 -0.98356926 0.57812423
-2.3359697 -0.98039269 0.58487272
-2.9266207 -0.95665568 0.71084529
-2.9974523 -0.95929343 0.72659189
-3.0963898 -0.96960795 0.74908698
-3.0744708 -0.94157481 0.74233848
-3.0803261 -0.92223883 0.74233848
-3.0486531 -0.89192259 0.73334044
-3.1197779 -0.89148986 0.74908698
-3.1816297 -0.88757962 0.76258409
-3.1589389 -0.8598938 0.75583553
-3.173697 -0.84252882 0.75808501
-6.5959411 -1.4450818 1.5589107
-5.8996058 -1.2537311 1.392447
-5.8405633 -1.2028782 1.3767004
-5.8480058 -1.1661589 1.3767004
-5.8456502 -1.127545 1.3744509
-5.8526192 -1.0907952 1.3744509
-5.8592825 -1.0544174 1.3744509
-5.8465028 -1.01476 1.3699518
-5.8335266 -0.97488844 1.3654529
-5.829916 -0.93667215 1.3632034
-5.8356867 -0.90002185 1.3632034
-5.8219481 -0.86048979 1.3587043
-5.8175921 -0.82252699 1.3564548
-5.8226452 -0.78595948 1.3564548
-5.7888122 -0.74438697 1.3474568
-5.8223901 -0.71154773 1.3542054
-5.8073883 -0.67270684 1.3497063
-5.8018146 -0.63514602 1.3474568
-5.7959557 -0.5980925 1.3452073
-5.7898521 -0.56122875 1.3429577
-5.7835517 -0.52405399 1.3407083
-5.7867298 -0.48770621 1.3407083
-5.7799659 -0.45057884 1.3384588
-5.7826829 -0.41425508 1.3384588
-5.7754488 -0.37727672 1.3362093
-5.7679782 -0.34040874 1.3339597
-5.7700033 -0.30415937 1.3339597
-5.7620673 -0.26744932 1.3317102
-5.7636175 -0.23164991 1.3317102
-5.7552042 -0.19560272 1.3294607
-5.7563167 -0.15953153 1.3294607
-5.7669473 -0.12357082 1.3317102
-5.7676096 -0.087332226 1.3317102
-5.748558 -0.050920643 1.3272111
-5.7390208 -0.014773947 1.3249617
-5.748744 0.021320106 1.3272111
-5.7387533 0.057344105 1.3249617
-5.7480221 0.093557492 1.3272111
-5.7278476 0.1288245 1.3227122
-5.7366791 0.16459163 1.3249617
-5.7160592 0.19985868 1.3204627
-5.7341619 0.2365714 1.3249617
-5.7130966 0.27167127 1.3204627
-5.711277 0.30756065 1.3204627
-5.7189579 0.344026 1.3227122
-5.7069612 0.37930462 1.3204627
-5.7044654 0.41515636 1.3204627
-5.7017441 0.45098868 1.3204627
-5.6988325 0.4863995 1.3204627
-5.6957097 0.52170056 1.3204627
-5.6923285 0.55738479 1.3204627
-5.6984053 0.59414852 1.3227122
-5.6945591 0.62994224 1.3227122
-5.6808114 0.66457593 1.3204627
-5.6861939 0.70145071 1.3227122
-5.6816745 0.73716259 1.3227122
-5.6865849 0.77416271 1.3249617
-5.6912551 0.81125063 1.3272111
-5.6957426 0.84802729 1.3294607
-5.6903787 0.88330221 1.3294607
-5.684732 0.91894293 1.3294607
-5.6692371 0.95302606 1.3272111
-5.663137 0.9886294 1.3272111
-5.6568141 1.0241908 1.3272111
-5.6598434 1.0615108 1.3294607
-5.6530623 1.0970501 1.3294607
-5.655611 1.1344652 1.3317102
-5.6483717 1.1699765 1.3317102
-5.6409087 1.2054445 1.3317102
-5.6427393 1.2429579 1.3339597
-5.6348181 1.2783891 1.3339597
-5.6456518 1.3181977 1.3384588
-5.6372576 1.3536457 1.3384588
-5.6286416 1.3890373 1.3384588
-5.6292472 1.4267708 1.3407083
-5.620172 1.4621106 1.3407083
-5.6202884 1.4999081 1.3429577
-5.620152 1.5377616 1.3452073
-5.6103783 1.573045 1.3452073
-5.6097498 1.6109527 1.3474568
-5.6089826 1.6485173 1.3497063
-5.6079917 1.6860447 1.3519558
-5.6066284 1.7240201 1.3542054
-5.595686 1.7592119 1.3542054
-5.5937982 1.7973179 1.3564548
-5.5916533 1.8354665 1.3587043
-5.5800099 1.8705649 1.3587043
-5.5773659 1.9087416 1.3609538
-5.5836601 1.9501745 1.3654529
-5.5712972 1.9852175 1.3654529
-5.5771718 2.0264463 1.3699518
-5.5736461 2.064348 1.3722014
-5.5697165 2.1026754 1.3744509
-2.7343662 1.2129358 0.69059974
-2.6911445 1.2141087 0.6816017
-2.6303256 1.2066169 0.66810465
-2.5874548 1.2064642 0.65910655
-2.5359037 1.2016118 0.64785904
-2.5371025 1.2217078 0.65010852
-2.5293765 1.237624 0.65010852
-2.5302758 1.2578287 0.65235806
-2.5223231 1.2737013 0.65235806
-2.5142701 1.289525 0.65235806
-2.5147603 1.3097974 0.65460753
-2.5064807 1.3255728 0.65460753
-2.5066874 1.3459039 0.65685707
-2.5067363 1.366291 0.65910655
-2.5066285 1.3867304 0.66135609
-2.3691602 1.4298729 0.638861
-2.4516487 1.5005153 0.66360557
-2.4257464 1.5054014 0.65910655
-2.4410052 1.5361414 0.66585511
-2.4641612 1.5724132 0.67485315
-2.4460516 1.5825726 0.67260367
-2.4883471 1.7464074 0.70184726
-2.4614453 1.750712 0.69734824
-2.4583008 1.7718409 0.69959778
-1.135087 1.6554271 0.46339917
-1.1246628 1.6625266 0.46339917
1.0016754 1.5103577 0.41840896
6.3889894 1.1366137 1.498174
6.5208516 1.1178513 1.5274177
6.5373602 1.0784436 1.5296671
6.5246868 1.0347592 1.5251682
6.5213399 0.99284625 1.5229186
6.5081506 0.94914669 1.5184196
6.2148247 0.86652464 1.4486848
6.365026 0.84673196 1.4824275
6.4378858 0.81529194 1.498174
6.4428811 0.77482563 1.498174
6.4379416 0.73322612 1.4959245
7.5371485 0.81047833 1.7501192
7.0573816 0.71406251 1.6376437
6.4894185 0.61543018 1.5049225
6.4931574 0.57464403 1.5049225
6.4966021 0.53429627 1.5049225
6.4997878 0.49403346 1.5049225
6.4930358 0.45261347 1.502673
6.6610627 0.42228794 1.5409147
6.9067807 0.39431131 1.5971525
8.2405758 -1.7219218 1.9435771
7.7628694 -1.6730748 1.833351
7.4384284 -1.6515715 1.7591172
7.1145926 -1.6259888 1.6848834
6.8102283 -1.6014012 1.6151485
6.4969664 -1.570882 1.5431643
6.4964247 -1.6140209 1.5454137
6.5144792 -1.6620333 1.5521623
2.224679 -1.252136 0.58937174
2.182924 -1.2467597 0.5803737
2.149756 -1.2457943 0.57362521
2.1166875 -1.2444617 0.56687665
2.0753531 -1.2377725 0.55787861
-3.1743453 -0.86274838 -0.057418417
-3.1797035 -0.84278643 -0.057418417
