# .PCD v0.7 - Point Cloud Data file format
VERSION 0.7
FIELDS x y z
SIZE 4 4 4
TYPE F F F
COUNT 1 1 1
WIDTH 1484
HEIGHT 1
VIEWPOINT 0 0 0 1 0 0 0
POINTS 1484
DATA ascii
-1.0339384 -2.8718746 -0.81786817
-1.0552914 -2.8743889 -0.82045639
-1.0733309 -2.8677015 -0.82045639
-1.0982132 -2.8789508 -0.82563275
-1.1160295 -2.8720913 -0.82563275
-1.1373572 -2.8741031 -0.8282209
-1.148172 -2.8489821 -0.82304454
-1.1697168 -2.8506479 -0.82563275
-1.9436016 -1.5130525 -0.65998858
-1.9683882 -1.5125817 -0.66516495
-1.8987417 -1.2439221 -0.60822475
-1.96331 -1.2686645 -0.62634206
-2.0038249 -1.277069 -0.63669485
-2.4263926 -1.3207157 -0.74022245
-2.4431558 -1.3100086 -0.74281067
-2.4427972 -1.2901212 -0.74022245
-2.4251468 -1.2613758 -0.73245788
-2.3641405 -1.211094 -0.71175236
-2.3629746 -1.1920724 -0.70916414
-3.4958725 1.2682492 -0.99645329
1.6964072 -1.4002602 0.038395293
1.6723484 -1.3979284 0.038046245
1.6482701 -1.3954872 0.037697196
1.6242893 -1.3927991 0.037348147
1.5928588 -1.3833094 0.036824577
1.569128 -1.380075 0.036475528
1.5904138 -1.4163693 0.037173625
1.6038758 -1.4462923 0.037697196
1.5947568 -1.4563411 0.037697196
1.5855749 -1.4663326 0.037697196
1.5909261 -1.4899352 0.038046245
1.5742785 -1.4930215 0.037871722
1.5792897 -1.5167345 0.038220771
1.5840726 -1.5405604 0.038569819
1.1219872 -1.2366064 0.029145518
1.1143036 -1.2435344 0.029145518
1.0999444 -1.2429333 0.028970994
1.0921131 -1.2498199 0.028970994
1.0777072 -1.2490869 0.02879647
1.0698377 -1.2558336 0.02879647
1.0490541 -1.2472274 0.028447421
1.0348092 -1.2461021 0.028272899
1.020627 -1.2448417 0.028098375
1.0066034 -1.2433704 0.02792385
-6.8405724 -0.96960032 0.12059613
-7.3221211 -0.99096477 0.12897328
-6.862133 -0.88484335 0.12077065
-6.8278604 -0.83684289 0.12007255
-6.8627782 -0.79738957 0.12059613
-6.8775921 -0.75534362 0.12077065
-6.8623075 -0.710096 0.1204216
-6.8367209 -0.66466057 0.11989803
-6.9104123 -0.62859452 0.1211197
-9.9728241 -0.84401476 0.17469859
-9.7885389 -0.76650929 0.17138262
-6.9067855 -0.41003576 0.12077065
-6.899241 -0.36610329 0.12059613
-6.861455 -0.32087696 0.11989803
-6.9432564 -0.28103232 0.12129422
-6.8949013 -0.23629373 0.1204216
-6.7873569 -0.1478046 0.11850183
-6.8781276 -0.10651103 0.12007255
-6.7724385 0.7043066 0.11885089
-6.7778797 0.74738395 0.11902541
-6.673738 0.77837449 0.11728017
-6.758029 0.83127552 0.11885089
-6.7427564 0.87243962 0.11867636
-8.6367092 2.0149906 0.15480284
-8.2544231 1.9805671 0.14817093
-7.8923392 1.9462147 0.14188807
-7.5891824 1.9221185 0.13665234
-7.5161252 2.0044508 0.13577972
-7.0886707 1.9382443 0.12827519
-6.585341 1.8451654 0.11937446
-6.6120591 1.8975396 0.12007255
-6.6000171 1.9390098 0.12007255
-6.5783005 1.976989 0.11989803
-6.5563579 2.0148051 0.11972351
-3.6437955 1.2719343 0.067366287
-3.5603795 1.2679694 0.065970093
-3.5523496 1.2902949 0.065970093
-3.553663 1.3157524 0.066144623
-3.5641453 1.3448223 0.066493668
-3.5556247 1.3671908 0.066493668
-3.5469646 1.3895034 0.066493668
-3.5288773 1.4080576 0.066319145
-3.5292242 1.4339651 0.066493668
-3.5293834 1.4599341 0.06666819
-3.5201411 1.4820801 0.06666819
-3.5199497 1.5081069 0.066842712
-3.4809287 1.7574139 0.068064384
-3.5141554 1.8023486 0.068937004
-3.4938931 1.8197752 0.068762481
-3.4647138 1.8323423 0.068413429
-3.4795589 1.8682657 0.068937004
-1.5049505 1.6721489 0.039267913
-1.4811302 1.6666249 0.038918864
-1.464035 1.6683825 0.038744342
-1.4404283 1.6624357 0.038395293
-1.4234551 1.6638554 0.038220771
-1.4000684 1.6574903 0.037871722
5.1548448 1.0424713 0.091799654
5.2298956 1.0239322 0.093021326
5.4621797 1.0338175 0.097035378
5.4784031 1.0012751 0.097209901
5.4747391 0.96509784 0.097035378
5.4708376 0.92900699 0.096860856
5.3285513 0.87043577 0.09424299
5.2845273 0.82918906 0.093370371
5.3983917 0.8123349 0.095290139
5.710175 0.82259482 0.10070039
5.4378886 0.74852455 0.095813707
5.4226575 0.71174031 0.095464662
5.4567866 0.68137145 0.095988236
5.4847331 0.61548382 0.096337281
5.4884477 0.58142978 0.096337281
5.482091 0.5454638 0.096162759
5.4854488 0.51058972 0.096162759
5.4785461 0.47572744 0.095988236
5.481391 0.44174439 0.095988236
5.4541454 0.40507361 0.095464662
5.6461167 0.38367674 0.098780617
5.8579865 0.36111256 0.10244562
6.0897532 0.33700559 0.10645968
15.648808 0.76740891 0.27347919
15.66331 0.66949683 0.27365372
15.657216 0.5707044 0.27347919
15.650498 0.47201505 0.27330467
15.653155 0.37367123 0.27330467
15.635201 0.27496105 0.27295563
15.036749 0.1699378 0.26248419
15.037519 0.075538322 0.26248419
15.037699 -0.01763466 0.26248419
15.057297 -0.11103452 0.26283324
15.056302 -0.20563965 0.26283324
15.024723 -0.29963857 0.26230967
15.022544 -0.39403531 0.26230967
15.009779 -0.48808956 0.26213515
18.08363 -0.70181322 0.31588855
18.078863 -0.81542164 0.31588855
18.073383 -0.92899781 0.31588855
18.067196 -1.0424387 0.31588855
18.060389 -1.154362 0.31588855
18.052883 -1.2663369 0.31588855
18.054541 -1.3805033 0.31606308
18.025581 -1.4922657 0.31571403
18.015848 -1.6054938 0.31571403
18.01536 -1.7196085 0.31588855
18.004198 -1.8327678 0.31588855
17.992329 -1.9458548 0.31588855
17.989679 -2.0600026 0.31606308
17.966467 -2.1716957 0.31588855
17.952667 -2.2829733 0.31588855
17.948074 -2.3955812 0.31606308
17.942572 -2.5096896 0.3162376
17.926449 -2.622376 0.3162376
17.9195 -2.7364683 0.31641212
17.901955 -2.8490028 0.31641212
12.933496 -2.309046 0.22932462
12.014225 -2.2229087 0.2132684
11.243882 -2.1535296 0.19983006
10.563187 -2.0920458 0.18796241
10.22658 -2.0922406 0.18220311
10.917605 -2.3051159 0.19476885
10.180147 -2.2153859 0.18185407
7.9844928 -1.9482551 0.14345878
7.1865325 -1.801424 0.12932234
7.1655498 -1.8434256 0.12914781
6.6416006 -1.7526165 0.11989803
6.8331356 -1.8491601 0.12356304
6.8310165 -1.8947296 0.12373756
5.7514081 -1.6342628 0.10436539
5.6354222 -1.6396409 0.10244562
5.4716864 -1.6293604 0.099653237
5.4709053 -1.6666214 0.099827766
5.908989 -1.8407276 0.10803039
1.5885122 -1.3806288 -0.48589426
1.5798212 -1.3905652 -0.48589426
1.6075447 -1.4327421 -0.49714181
1.6130883 -1.4557482 -0.50164086
1.5967172 -1.4592814 -0.49939135
1.5946679 -1.4759034 -0.50164086
1.585363 -1.4858938 -0.50164086
1.5901301 -1.5092411 -0.50613987
1.5876409 -1.5259542 -0.50838935
1.1821429 -1.2557485 -0.39816335
1.1676913 -1.2559255 -0.39591384
1.1465979 -1.2488827 -0.39141482
1.1321975 -1.248831 -0.38916531
1.1179383 -1.2485632 -0.3869158
1.1037128 -1.2481786 -0.38466629
1.0894401 -1.2477491 -0.38241678
1.0688543 -1.2398099 -0.37791777
1.0547276 -1.2390815 -0.37566826
1.0469214 -1.2456841 -0.37566826
1.0266299 -1.2372407 -0.37116924
1.0188495 -1.2436556 -0.37116924
1.0049964 -1.2423688 -0.36891973
-1.0172842 -2.875114 -0.70409679
-1.0353289 -2.8686655 -0.70409679
-1.0533327 -2.8621037 -0.70409679
-1.0712949 -2.8554289 -0.70409679
-1.0961434 -2.8668556 -0.70859581
-1.1138848 -2.8600092 -0.70859581
-1.1316147 -2.8530405 -0.70859581
-1.9500936 -1.5553467 -0.57587469
-1.952172 -1.5370356 -0.57362521
-1.9771775 -1.5366982 -0.57812423
-2.0022552 -1.5361068 -0.58262324
-4.0506554 -0.86062396 -0.95604199
-4.0655265 -0.83712006 -0.95829147
-4.1089287 -0.81918055 -0.96728951
-4.2001014 -0.80995119 -0.98753512
-3.6424394 1.2730674 -0.89080614
-3.5425918 1.2632018 -0.86831105
-3.507128 1.2754068 -0.86156255
-3.5448391 1.3140464 -0.87281007
-3.5366149 1.3360229 -0.87281007
-3.5372443 1.3617172 -0.8750596
-3.5286181 1.3839164 -0.8750596
-3.5108051 1.4024444 -0.87281007
-3.5199747 1.4318193 -0.87730908
-3.5132945 1.7755113 -0.90880227
-3.4845955 1.7889184 -0.90430325
-3.4732873 1.8107764 -0.90430325
-3.4273946 1.8143302 -0.89530516
-3.476007 1.8681169 -0.91105175
-3.4727538 1.8945876 -0.91330129
-3.4778299 1.9258094 -0.91780031
1.7009534 -1.4062289 0.11566246
1.6768707 -1.4039472 0.11461575
1.6451669 -1.3950795 0.11304566
1.6212174 -1.3923759 0.11199895
1.5973673 -1.3894269 0.11095223
1.5736418 -1.3862078 0.1099055
1.5873801 -1.4158735 0.11147559
1.6007867 -1.4457879 0.11304566
1.5990398 -1.4625572 0.11356902
1.5824925 -1.4657893 0.11304566
1.5805351 -1.4825354 0.11356902
1.5784293 -1.4993144 0.11409238
1.5761753 -1.516125 0.11461575
1.573797 -1.5329404 0.1151391
1.1350861 -1.2218186 0.087401047
1.1476393 -1.2510029 0.088971123
1.1263679 -1.2433681 0.087924406
1.1119838 -1.2428809 0.087401047
1.097629 -1.2422813 0.086877689
1.0832367 -1.2416284 0.086354323
-4.216742 -0.81144345 0.22504461
-4.2217569 -0.7849341 0.22504461
-6.8725514 -0.9686259 0.3637349
-7.3337693 -0.9866786 0.38780943
-6.8841805 -0.8821885 0.3637349
-6.879674 -0.83771151 0.36321154
-6.8848019 -0.79446709 0.36321154
-6.8896575 -0.75119495 0.36321154
-6.874362 -0.70596296 0.36216483
-6.8587241 -0.66143817 0.36111808
-6.9223762 -0.62419969 0.36425826
-9.9712839 -0.83600038 0.52440625
-9.9862967 -0.77410191 0.52492964
-9.9810019 -0.71063465 0.52440625
-6.8229799 0.88826662 0.36059472
-6.8073692 0.92976934 0.36007136
-6.8013935 0.97252095 0.36007136
-6.7951484 1.0152377 0.36007136
-6.7886357 1.0579108 0.36007136
-6.7818542 1.1005459 0.36007136
-6.774806 1.1431338 0.36007136
-6.7674894 1.1856802 0.36007136
-6.7697315 1.2299613 0.36059472
-6.7618694 1.2724741 0.36059472
-6.7537413 1.3149329 0.36059472
-6.7453456 1.3573437 0.36059472
-6.7464619 1.4017286 0.36111808
-6.7472858 1.4461846 0.36164144
-6.7380662 1.4885485 0.36164144
-6.7383175 1.5330727 0.36216483
-6.7285523 1.5753785 0.36216483
-6.7185211 1.6176257 0.36216483
-6.7179189 1.6622041 0.36268818
-7.5300317 1.9134341 0.40717372
-6.5902076 1.7187686 0.35693121
-7.3896284 1.9769356 0.40089342
-6.9244223 1.8991783 0.37629551
-6.6047091 1.8561897 0.359548
-6.5929165 1.8976498 0.359548
-6.6000533 1.9445744 0.36059472
-6.6070008 1.9911946 0.36164144
-6.5467868 2.0174944 0.35902464
-3.7313023 1.2795104 0.20672703
-3.628931 1.2699449 0.20149343
-3.5550463 1.2692161 0.19782992
-3.5657897 1.2983034 0.19887663
-3.5576768 1.3203723 0.19887663
-3.5587466 1.3459802 0.19939999
-3.5595379 1.3719041 0.19992335
-3.5508473 1.3942431 0.19992335
-3.5327451 1.412817 0.19939999
-3.5330467 1.4387532 0.19992335
-3.5331626 1.464747 0.20044671
-3.5238891 1.4869184 0.20044671
-3.5236537 1.5129693 0.20097007
-3.5109329 1.7760718 0.20620367
-3.5084584 1.8029096 0.20672703
-3.4970617 1.8249173 0.20672703
-3.4590538 1.832828 0.20515695
-3.4914427 1.8781793 0.20777375
-1.4951297 1.6638641 0.11723254
-1.4647627 1.6508157 0.11566246
-1.454361 1.6599869 0.11566246
-1.0535209 1.625849 0.10153175
-1.0379064 1.624022 0.10100839
-1.0330071 1.6389593 0.10153175
-1.0068737 1.6199732 0.099961676
1.1628546 1.3968165 0.095251441
1.1780455 1.397117 0.0957748
1.199771 1.4048755 0.096821517
1.2216401 1.4124154 0.097868234
1.2370704 1.4122237 0.098391593
1.2591505 1.4193845 0.099438317
1.2479008 1.3892678 0.097868234
1.2699686 1.3962433 0.098914959
1.2856039 1.3954693 0.099438317
1.3012348 1.3945951 0.099961676
1.3098506 1.3865061 0.099961676
1.3253415 1.3855586 0.10048503
1.3409691 1.3843769 0.10100839
1.3566338 1.3830532 0.10153175
3.1474507 1.1913636 0.17637217
3.1829591 1.1819935 0.17794225
5.1493692 1.0372136 0.27528712
5.4399638 1.0606247 0.29046455
5.4661474 1.0301225 0.29151127
5.482337 0.99754524 0.29203463
5.4786606 0.96135324 0.29151127
5.4747458 0.92524761 0.29098791
5.3424544 0.86839968 0.28366089
5.2491374 0.81941259 0.27842727
5.3726974 0.80415392 0.28470761
5.4369564 0.77887744 0.28784776
5.4120607 0.74063879 0.28627768
5.4265099 0.70791119 0.28680104
5.4506712 0.67626077 0.28784776
6.1292138 0.72147495 0.3234362
5.5082998 0.61380923 0.29046455
5.4822216 0.57635617 0.28889447
5.4857821 0.54141992 0.28889447
5.4990473 0.50756013 0.28941783
5.4821873 0.47176623 0.28837112
5.4651031 0.43611202 0.2873244
5.4577761 0.40103352 0.28680104
5.6694288 0.38078797 0.2977916
5.8810344 0.35789725 0.30878213
6.1125107 0.33344993 0.32081941
15.670238 0.75612384 0.82219785
15.654725 0.65681314 0.82115114
15.668523 0.55879503 0.82167453
15.661742 0.46004304 0.82115114
15.65434 0.36139834 0.82062781
15.646317 0.2628648 0.82010442
15.058501 0.15835579 0.78922623
15.049212 0.063941985 0.78870285
15.069291 -0.029342107 0.78974956
15.058832 -0.12287325 0.78922623
15.057763 -0.2174878 0.78922623
15.036131 -0.31167984 0.78817952
15.033875 -0.40614802 0.78817952
15.011065 -0.49993336 0.78713274
18.07102 -0.71553808 0.94780415
18.086119 -0.82998252 0.94885087
18.080547 -0.94360405 0.94885087
18.084248 -1.0574752 0.94937426
18.067383 -1.1688591 0.94885087
18.059774 -1.2810744 0.94885087
18.041412 -1.3937523 0.94832748
18.032299 -1.5070817 0.94832748
18.022472 -1.6203517 0.94832748
18.011936 -1.7335577 0.94832748
18.000689 -1.8466953 0.94832748
17.988729 -1.95976 0.94832748
17.976061 -2.0727472 0.94832748
17.962719 -2.1853585 0.94832748
17.95874 -2.2978799 0.94885087
17.944118 -2.4093986 0.94885087
17.938515 -2.5234878 0.94937426
17.932184 -2.6376016 0.94989759
17.915258 -2.7502203 0.94989759
17.907486 -2.8643053 0.95042098
12.935582 -2.3199029 0.68874115
12.037112 -2.2369223 0.64163882
11.238297 -2.1616113 0.59977007
10.578056 -2.1036255 0.56522834
10.222258 -2.0997221 0.54691076
10.228437 -2.1678824 0.54795748
10.18554 -2.2248225 0.54638737
10.239722 -2.3033953 0.55005091
10.244505 -2.3721933 0.55109763
7.352447 -1.8001522 0.39670655
7.1957507 -1.8096588 0.38885614
7.1940694 -1.856704 0.3893795
6.7190161 -1.7786907 0.36425826
6.9871955 -1.8967419 0.37943569
6.8308268 -1.9004556 0.37158528
5.7623248 -1.6422569 0.31401575
5.6368546 -1.6448606 0.30773541
5.473309 -1.6345245 0.29936168
5.4820323 -1.6747171 0.30040839
5.4618692 -1.7061509 0.29988503
1.6951979 -1.3849729 -0.42550406
1.6638949 -1.3766767 -0.41977978
1.647779 -1.3806911 -0.41787168
1.6166183 -1.371962 -0.41214743
1.6079662 -1.3820924 -0.41214743
1.5770388 -1.3728325 -0.40642315
1.5684121 -1.3826799 -0.40642315
1.589107 -1.4185193 -0.41405553
1.5948211 -1.441537 -0.41787168
1.5784914 -1.4449011 -0.41596359
1.5765808 -1.4614638 -0.41787168
1.5816809 -1.4847778 -0.42168787
1.5794351 -1.5014497 -0.42359596
1.5699701 -1.511344 -0.42359596
1.1630754 -1.2374126 -0.33009955
1.1553591 -1.2446202 -0.33009955
1.1342502 -1.2373827 -0.32628337
1.1264802 -1.2444602 -0.32628337
1.1187478 -1.2514161 -0.32628337
1.1044487 -1.2509892 -0.32437527
1.0901163 -1.2505045 -0.32246721
1.0758339 -1.2498894 -0.32055911
1.0679594 -1.2566243 -0.32055911
1.053733 -1.25579 -0.31865102
1.0332971 -1.2472675 -0.31483483
1.0254673 -1.2537129 -0.31483483
1.011512 -1.2524058 -0.31292674
-1.0024741 -2.8835747 -0.59341598
-1.0205722 -2.8772192 -0.59341598
-1.0386301 -2.87075 -0.59341598
-1.0634421 -2.8825865 -0.59723216
-1.0815328 -2.8758478 -0.59723216
-1.0995182 -2.8690195 -0.59723216
-1.1208426 -2.8712964 -0.59914023
-1.1386735 -2.8642719 -0.59914023
-1.1603314 -2.8661599 -0.60104835
-1.1745763 -2.8497372 -0.59914023
-1.1962562 -2.8513527 -0.60104835
-4.0291548 -0.82633394 -0.79948968
-4.1112943 -0.81629431 -0.81475437
-4.2127428 -0.80895907 -0.8338353
-3.6037118 1.2627076 -0.74224699
-3.5125153 1.2555887 -0.72507417
-3.532253 1.287642 -0.73079842
-3.5242069 1.3095034 -0.73079842
-3.5251772 1.3348657 -0.73270655
-3.5075622 1.3534557 -0.73079842
-3.5172608 1.3826492 -0.73461461
-3.5085034 1.4047222 -0.73461461
-3.5086985 1.4304439 -0.73652273
-3.5087075 1.4562252 -0.7384308
-3.4994888 1.4782412 -0.7384308
-3.4592185 1.7516422 -0.75369555
-3.4829454 1.7915276 -0.76132786
-3.4890213 1.8224667 -0.76514405
-3.4167976 1.8121562 -0.75178742
-3.4572015 1.8615123 -0.76323599
-3.4712784 1.8973207 -0.76896024
-3.4421206 1.9095707 -0.76514405
-3.9058075 3.0526497 -0.96358544
-3.8942456 3.0832245 -0.9654935
-3.8977702 3.1260555 -0.97121775
3.2975907 1.2704515 -0.68691236
3.1861424 1.2045789 -0.66210723
1.7110651 -1.4168209 0.19435731
1.679315 -1.4082385 0.19174263
1.6552479 -1.4058644 0.18999952
1.6312776 -1.4032438 0.1882564
1.5998949 -1.3938341 0.18564174
1.583674 -1.3972247 0.18477017
1.5824155 -1.4136473 0.18564174
1.6031382 -1.4501995 0.18912795
1.5866492 -1.4535143 0.1882564
1.5847883 -1.4702301 0.18912795
1.5900403 -1.4938005 0.19087107
1.5878406 -1.510628 0.19174263
1.5783181 -1.5205745 0.19174263
1.5830365 -1.5443311 0.19348575
1.1449102 -1.234336 0.14729321
1.137132 -1.2415053 0.14729321
1.1159782 -1.2338183 0.14555009
1.108312 -1.2407093 0.14555009
1.1005694 -1.2475826 0.14555009
1.0927088 -1.254473 0.14555009
-4.2462311 -0.81366146 0.3782559
-4.2218733 -0.78152466 0.37564126
-6.905879 -0.96779424 0.6100902
-7.3462811 -0.98248667 0.64843869
-6.8977308 -0.87842119 0.60834706
-6.863555 -0.83027703 0.60486084
-6.8884301 -0.78940612 0.60660398
-6.8932543 -0.74610764 0.60660398
-6.887876 -0.70196068 0.60573238
-6.8127599 -0.65168077 0.59875995
-7.381711 0.036840089 0.64582402
-6.9131565 0.077523418 0.60486084
-6.892612 0.12061157 0.6031177
-6.8817592 0.16367783 0.60224617
-6.8606801 0.20631669 0.60050309
-6.8592548 0.24923119 0.60050309
-6.8476262 0.29130343 0.59963149
-6.8158307 0.33245254 0.59701681
-6.8136072 0.37527269 0.59701681
-6.8056459 0.8914479 0.60050309
-6.8196492 0.93690109 0.60224617
-6.8037672 0.97831553 0.60137463
-6.7876348 1.0195637 0.60050309
-6.7909365 1.0637348 0.60137463
-6.7841191 1.1063805 0.60137463
-6.7770333 1.1489861 0.60137463
-6.7696805 1.1915429 0.60137463
-6.7718601 1.2358445 0.60224617
-6.7639618 1.2783669 0.60224617
-6.7655725 1.322754 0.6031177
-6.7571282 1.3652353 0.6031177
-6.7484164 1.4076662 0.6031177
-6.739439 1.450038 0.6031177
-6.7399206 1.4945127 0.6039893
-6.7401094 1.539047 0.60486084
-6.7303061 1.5813675 0.60486084
-6.7299209 1.6259615 0.60573238
-6.7195716 1.6682165 0.60573238
-7.5101714 1.9146656 0.67807168
-6.5920653 1.7247854 0.59614527
-7.5240045 2.0192163 0.68155789
-7.0405197 1.9369692 0.63885158
-6.6159148 1.8649446 0.60137463
-6.613637 1.9092413 0.60224617
-6.6111178 1.9533999 0.6031177
-6.5893517 1.9914434 0.60224617
-3.7212007 1.2793146 0.34426519
-3.6190872 1.2696903 0.33554959
-3.5360034 1.2655503 0.32857713
-3.5654497 1.3013078 0.33206338
-3.5666552 1.326848 0.33293495
-3.5676444 1.352548 0.33380648
-3.5590754 1.3749384 0.33380648
-3.5503666 1.3972725 0.33380648
-3.53227 1.4158469 0.33293495
-3.5325279 1.4417763 0.33380648
-3.5073481 1.8058212 0.34513673
-3.4959321 1.8278236 0.34513673
-3.4579823 1.8357389 0.34252205
-3.4902263 1.881062 0.34687984
-1.1661966 1.6399361 0.1760546
-1.1558692 1.6472313 0.1760546
-1.1341554 1.6380802 0.17431149
1.4574378 1.3584883 0.17431149
1.4879336 1.3695439 0.17692615
3.1500287 1.1895114 0.29458642
3.1667821 1.1731565 0.29545796
3.3051741 1.2008623 0.30765978
5.2255201 1.0483418 0.4662832
5.4275293 1.0537758 0.48371437
5.4927897 1.0306762 0.4889437
5.4893546 0.99436891 0.48807216
5.4856811 0.95814478 0.48720059
5.4817686 0.92200613 0.48632905
5.3399415 0.86368638 0.47325566
5.2566671 0.8163588 0.46541166
5.3897862 0.80238372 0.47674191
5.4341712 0.77412277 0.48022813
5.4191856 0.73727787 0.47848502
5.4434695 0.70577556 0.48022813
5.4675708 0.67399704 0.48197126
6.2533488 0.73117656 0.55082428
5.4792194 0.57162964 0.48197126
5.4827495 0.53671265 0.48197126
5.4860301 0.50207341 0.48197126
5.4791098 0.46722695 0.48109969
5.4819112 0.43312085 0.48109969
5.4547172 0.39650193 0.47848502
5.6658421 0.37607673 0.49678773
5.8669739 0.35241625 0.51421887
6.1078143 0.32838196 0.53513622
15.662472 0.74341804 1.3718314
15.676786 0.64540339 1.372703
15.650664 0.54584926 1.3700882
15.653786 0.44750297 1.3700882
15.646329 0.34891689 1.3692167
15.648212 0.25060168 1.3692167
15.051789 0.14646082 1.3169233
15.052411 0.052296102 1.3169233
15.062408 -0.04099381 1.3177948
15.061861 -0.13472992 1.3177948
15.040796 -0.22905986 1.3160517
15.0291 -0.32334271 1.3151802
15.016814 -0.41748965 1.3143085
15.013894 -0.51183438 1.3143085
18.06621 -0.72956121 1.5818768
18.051317 -0.8425951 1.5810051
18.07551 -0.95757872 1.5836198
18.029388 -1.0682809 1.5801336
18.012484 -1.1793162 1.579262
18.034605 -1.2935272 1.5818768
18.01619 -1.4060408 1.5810051
18.016926 -1.5200491 1.5818768
18.007019 -1.6332222 1.5818768
17.946825 -1.74152 1.5775189
17.985075 -1.8593706 1.5818768
17.923525 -1.9669034 1.5775189
17.960289 -2.0852253 1.5818768
17.907341 -2.1926985 1.5783905
17.923054 -2.3074226 1.5810051
17.908346 -2.4189174 1.5810051
17.882931 -2.5299952 1.5801336
17.906101 -2.6481338 1.5836198
17.869417 -2.7575495 1.5818768
17.87141 -2.8729336 1.5836198
12.941438 -2.3314471 1.1504558
12.064764 -2.2518663 1.0737587
11.258104 -2.174593 1.0031626
10.58969 -2.1145875 0.94476825
10.224956 -2.1086481 0.91339219
10.211564 -2.1725726 0.91339219
10.197907 -2.2357998 0.91339219
7.3621302 -1.8086538 0.66325521
7.1961241 -1.8156804 0.64931029
7.1943803 -1.8627282 0.65018183
5.7757215 -1.6509806 0.52554911
5.6696253 -1.6592571 0.51683354
5.4968543 -1.6462599 0.50201708
5.4959273 -1.6836829 0.50288862
5.48524 -1.7181815 0.50288862
1.7045854 -1.3948451 -0.34884885
1.6807005 -1.3927754 -0.34572017
1.6417307 -1.3778191 -0.33946279
1.6255157 -1.3817104 -0.33789843
1.6093168 -1.3854525 -0.33633408
1.5782464 -1.3760642 -0.33164105
1.5918258 -1.4055141 -0.33633408
1.6051766 -1.4350989 -0.34102714
1.5962068 -1.445069 -0.34102714
1.5870957 -1.4550697 -0.34102714
1.5851601 -1.4717332 -0.34259146
1.5830775 -1.4884295 -0.34415582
1.5808474 -1.5051575 -0.34572017
1.5784693 -1.521916 -0.3472845
1.1692923 -1.245959 -0.27063161
1.1682231 -1.2604619 -0.27219597
1.1469438 -1.2532049 -0.26906729
1.1324655 -1.2530221 -0.26750293
1.1246802 -1.2600145 -0.26750293
1.1037482 -1.2521765 -0.26437426
1.0893744 -1.2516366 -0.2628099
1.0814887 -1.2584567 -0.2628099
1.06717 -1.2576959 -0.26124555
1.0529039 -1.2568051 -0.2596812
1.0323962 -1.2481742 -0.25655252
1.018327 -1.2469528 -0.25498816
1.0105816 -1.2532381 -0.25498816
-3.7076061 1.2762685 -0.62104481
-3.6063268 1.2668058 -0.6054014
-3.5239129 1.2627839 -0.59288663
-3.5345051 1.2915649 -0.59601527
-3.5542018 1.3237822 -0.60070831
-3.5366535 1.3423891 -0.59914398
-3.5281496 1.364583 -0.59914398
-3.5195057 1.3867249 -0.59914398
-3.5198901 1.4124886 -0.60070831
-3.5200882 1.4383136 -0.60227269
-3.510982 1.4604015 -0.60227269
-3.5108318 1.4862841 -0.60383701
-3.5104954 1.5122205 -0.6054014
-3.4647391 1.5183907 -0.59914398
-3.4370883 1.5320868 -0.59601527
-3.4703653 1.7607599 -0.61635178
-3.4854748 1.7962929 -0.62104481
-3.4828711 1.822736 -0.62260914
-3.4539053 1.8353152 -0.61948049
-3.4596915 1.8663582 -0.62260914
-3.9119556 3.0624087 -0.78686535
-3.923593 3.1114748 -0.79312271
-3.8542657 3.7435317 -0.85100347
-3.8025007 3.7399724 -0.84474611
-3.8139179 3.7986391 -0.85256779
-3.8317006 3.8646092 -0.86195391
-3.814254 3.8956647 -0.86351824
1.1351007 1.4318841 -0.28940377
1.1378908 1.4170226 -0.28783941
1.1654692 1.4328316 -0.29253244
3.255693 1.2749091 -0.55377799
3.3005164 1.2686024 -0.56003535
3.1790423 1.1990415 -0.53813457
5.3585525 1.1074474 -0.86664695
5.4331036 1.0877988 -0.87759733
5.4785604 1.0614513 -0.88385469
5.4851213 1.0270077 -0.88385469
5.4720273 0.98901021 -0.88072604
5.4878635 0.95630538 -0.88229036
5.4742823 0.9185366 -0.87916166
5.177671 0.83535439 -0.83066702
5.3194642 0.82397205 -0.85256779
5.4222341 0.80503798 -0.86821127
5.4076281 0.76817513 -0.86508256
5.4123478 0.73418301 -0.86508256
5.4462399 0.70396024 -0.86977559
5.8961077 0.68709171 -0.94017112
5.468286 0.60291994 -0.87133998
5.4916019 0.5707106 -0.87446862
5.4951262 0.53571546 -0.87446862
5.4787226 0.49926543 -0.87133998
5.4718695 0.46447536 -0.86977559
5.4549632 0.4288356 -0.86664695
5.634871 0.40737292 -0.89480513
5.7950068 0.3823646 -0.91983461
6.0339189 0.36006635 -0.95737892
5.7835078 -1.6164171 -0.95112151
5.668788 -1.6228218 -0.93391377
5.4878721 -1.6084055 -0.90575552
5.4871182 -1.6456922 -0.9073199
5.4955549 -1.6859298 -0.91044855
1.6960647 -1.4066156 0.27054992
1.672062 -1.4043945 0.26811254
1.640525 -1.3955789 0.26445648
1.6242045 -1.3993804 0.26323777
1.5929441 -1.3899808 0.25958169
1.5619193 -1.3801848 0.25592563
1.5903223 -1.4229269 0.2620191
1.5961316 -1.4461421 0.26445648
1.5870137 -1.4561423 0.26445648
1.5778332 -1.466085 0.26445648
1.5830474 -1.4895732 0.26689386
1.5808426 -1.5063374 0.26811254
1.5713472 -1.5162399 0.26811254
1.568947 -1.5329599 0.26933125
1.5735313 -1.5566121 0.27176863
1.1464949 -1.2379931 0.20717788
1.1319956 -1.2378477 0.20595919
1.1308953 -1.2522593 0.20717788
1.1099018 -1.2444273 0.20474049
1.1021222 -1.2513225 0.20474049
1.0877249 -1.2507331 0.2035218
1.0733787 -1.2500126 0.20230311
-4.1385193 -0.81663513 0.51794469
-4.2410645 -0.80921769 0.53013164
-6.8616805 -0.95610428 0.85064799
-7.3594975 -0.97837353 0.91158265
-6.8928471 -0.87229675 0.8530854
-6.868628 -0.82541978 0.84942931
-6.8934026 -0.78448963 0.85186672
-6.8883266 -0.74010336 0.85064799
-6.8829393 -0.69607216 0.84942931
-6.7981901 -0.64497447 0.83846104
-6.9207196 -0.6130929 0.8530854
-7.7778597 0.2400105 0.95545566
-7.1414165 0.26502162 0.87745923
-7.7530818 1.9312614 0.98104823
-7.0869131 1.8126897 0.89817703
-6.6049719 1.7337041 0.83846104
-7.3480906 2.0277944 0.93595654
-6.8672028 1.9416046 0.87624055
-6.606987 1.9129423 0.84455454
-6.6044283 1.956986 0.84577322
-6.6016746 2.0007486 0.8469919
-3.7159538 1.2807739 0.4826026
-3.6142008 1.2711657 0.47041565
-3.5594311 1.2770885 0.46432218
-3.5607073 1.3027028 0.46554089
-3.5618672 1.3282081 0.46675956
-3.5627964 1.3539124 0.46797827
-3.5449638 1.3726863 0.46675956
-3.5455017 1.3985758 0.46797827
-3.5458546 1.4245242 0.46919698
-3.5460203 1.4505341 0.47041565
-3.493088 1.8019522 0.4826026
-3.4992819 1.8330747 0.48503998
-3.4526424 1.8363825 0.48016521
-3.475971 1.8769022 0.48503998
-1.2474036 1.6450312 0.25348824
-1.2370425 1.6528368 0.25348824
1.2098969 1.3944056 0.22667697
1.2448415 1.4165993 0.23155175
3.1394217 1.1826897 0.41191837
3.1374807 1.1595002 0.41069967
3.2753446 1.1871133 0.42776138
5.2071891 1.0404692 0.65200096
5.4279642 1.0494372 0.67881221
5.4637208 1.0207802 0.6824683
5.4700265 0.98643064 0.6824683
5.4663377 0.95034283 0.68124962
5.4624119 0.9143396 0.68003094
5.3308578 0.85792154 0.66296923
5.2478609 0.81077087 0.65200096
5.3706727 0.79522729 0.66662532
5.4345274 0.76981932 0.67393744
5.4195852 0.73299754 0.67150009
5.4142394 0.69766247 0.67028135
5.4283681 0.66483682 0.67150009
6.1071134 0.6709612 0.75437123
5.4892216 0.56825423 0.67759353
5.482851 0.53231519 0.67637485
5.4959779 0.4986921 0.67759353
5.4692917 0.4621228 0.67393744
5.4621711 0.42724416 0.67271876
5.4548478 0.39220497 0.67150009
5.6453838 0.37026578 0.69465524
5.8457599 0.34653458 0.71902913
6.0856996 0.32239988 0.74827778
15.645344 0.73029047 1.9230982
15.649623 0.63197398 1.9230982
15.643365 0.53329432 1.9218795
15.636486 0.43471828 1.9206609
15.628985 0.33624974 1.9194422
15.620865 0.23789264 1.9182234
15.046398 0.13459039 1.8475392
15.007243 0.040516749 1.8426645
15.027057 -0.052537374 1.8451018
15.046288 -0.14640848 1.8475392
15.045071 -0.24094374 1.8475392
15.013491 -0.33480564 1.8438832
15.001169 -0.42884547 1.8426645
14.988259 -0.52274573 1.8414458
12.950812 -2.3436387 1.6159874
12.048079 -2.2585452 1.5050864
11.254142 -2.1829972 1.4075909
10.568711 -2.1190312 1.323501
10.205293 -2.1129501 1.279628
10.191898 -2.1766403 1.279628
10.158829 -2.2354808 1.2771907
7.3530231 -1.812541 0.9298631
7.1779871 -1.8170182 0.9091453
7.176198 -1.863953 0.91036397
5.772357 -1.6549237 0.73730952
5.657084 -1.6604112 0.72390389
5.4754324 -1.6445311 0.70196742
5.4744792 -1.6818165 0.70318609
5.4827428 -1.7221289 0.70562351
1.7118831 -1.4030317 -0.27176863
1.6802446 -1.3945946 -0.26811254
1.6563151 -1.3922776 -0.26567516
1.6324191 -1.389789 -0.26323777
1.6086212 -1.3870548 -0.26080039
1.5774459 -1.3775491 -0.2571443
1.5836903 -1.4005151 -0.25958169
1.611954 -1.443406 -0.26567516
1.5955633 -1.446769 -0.26445648
1.586442 -1.4567652 -0.26445648
1.5845256 -1.4734637 -0.26567516
1.5824625 -1.4901946 -0.26689386
1.5802512 -1.5069578 -0.26811254
1.5778913 -1.5237519 -0.26933125
1.1537137 -1.2312684 -0.20717788
1.1460085 -1.2384434 -0.20717788
1.1315095 -1.238292 -0.20595919
1.1237608 -1.2453282 -0.20595919
1.1094198 -1.2448571 -0.20474049
1.1016309 -1.251755 -0.20474049
1.0937439 -1.2586523 -0.20474049
1.0793512 -1.2579666 -0.2035218
1.0650097 -1.2571507 -0.20230311
1.0507222 -1.2562038 -0.20108442
1.0364882 -1.2551279 -0.19986571
1.0223647 -1.2538779 -0.19864702
1.0083517 -1.2524571 -0.19742833
-2.705595 -0.95279032 -0.35220239
-2.7209103 -0.9390105 -0.35342109
-4.0558276 -0.82516772 -0.50819516
-4.1291013 -0.81309062 -0.51672602
-6.9574771 -1.0559472 -0.86405361
-6.9443302 -1.0093542 -0.86161625
-7.117662 -0.9889245 -0.88233405
-6.8482318 -0.90766639 -0.84821063
-6.8341045 -0.86213726 -0.84577322
-6.859097 -0.8215394 -0.84821063
-6.844399 -0.77619141 -0.84577322
-6.8392715 -0.73211342 -0.84455454
-6.8239555 -0.68743777 -0.84211713
-6.749032 -0.6376738 -0.8323676
-6.8912988 -0.60776025 -0.84942931
-6.6622748 0.79560667 -0.82383674
-6.7654705 0.85107642 -0.83724236
-6.7698293 0.89487058 -0.83846104
-6.7739048 0.93874949 -0.83967978
-6.75805 0.97987002 -0.83846104
-6.75176 1.0223107 -0.83846104
-6.745203 1.0647147 -0.83846104
-6.7285862 1.105464 -0.83724236
-6.7312913 1.1493913 -0.83846104
-6.723937 1.1916605 -0.83846104
-6.7260785 1.2356797 -0.83967978
-6.7181821 1.2779146 -0.83967978
-6.7100201 1.3201026 -0.83967978
-6.7113199 1.3642119 -0.84089845
-6.7026157 1.406355 -0.84089845
-6.7033482 1.4505383 -0.84211713
-6.7037892 1.4947897 -0.84333587
-6.6942654 1.5368793 -0.84333587
-6.6941357 1.5811936 -0.84455454
-6.6840692 1.6232208 -0.84455454
-6.6833682 1.6675905 -0.84577322
-6.682374 1.7120117 -0.8469919
-6.5562935 1.7236818 -0.8323676
-7.3024082 1.9689726 -0.92864436
-6.8593869 1.8958325 -0.8738032
-6.5894904 1.8658792 -0.84089845
-6.5871692 1.9100111 -0.84211713
-6.5751238 1.9510726 -0.84211713
-6.5629086 1.991775 -0.84211713
-3.6873028 1.2725205 -0.47894651
-3.5949776 1.2659907 -0.46797827
-3.5309057 1.2684208 -0.46066612
-3.5415628 1.2972538 -0.4631035
-3.5427556 1.3226442 -0.46432218
-3.5529878 1.3517814 -0.46675956
-3.5444238 1.3740796 -0.46675956
-3.526489 1.392676 -0.46554089
-3.5176687 1.4148068 -0.46554089
-3.5178952 1.4406415 -0.46675956
-3.5087738 1.4627175 -0.46675956
-3.5086515 1.4886105 -0.46797827
-3.452862 1.7277443 -0.47407174
-3.477176 1.7676985 -0.47894651
-3.483561 1.7987695 -0.48138389
-3.4809804 1.8252318 -0.4826026
-3.4343989 1.8284091 -0.47772783
-3.4665012 1.8735491 -0.48382127
-3.9248888 3.117528 -0.61544019
-3.9206905 3.1545703 -0.61787754
-3.9238749 3.1979527 -0.62153363
-3.7922411 4.1312575 -0.6885618
-3.7995369 4.1917744 -0.69465524
-1.4789064 1.6733639 -0.27420601
-1.4487855 1.6601877 -0.27054992
-1.1233813 1.6486694 -0.24495737
-1.1074634 1.6474576 -0.24373868
-1.0916044 1.6461117 -0.24251999
-1.0812405 1.6529378 -0.24251999
1.0001798 1.4563595 -0.21692742
1.3007499 1.4062812 -0.23520783
1.3163453 1.4053247 -0.23642652
5.259387 1.0827066 -0.65931314
5.4509368 1.0869786 -0.6824683
5.4771047 1.0567069 -0.68490571
5.4641213 1.0186347 -0.6824683
5.4704137 0.98428261 -0.6824683
5.4667106 0.94819623 -0.68124962
5.4334006 0.90729028 -0.67637485
5.193994 0.83380312 -0.64590752
5.3266563 0.82080293 -0.6617505
5.4298983 0.80181789 -0.67393744
5.4250011 0.76629698 -0.67271876
5.4395452 0.73352218 -0.67393744
5.444047 0.69933021 -0.67393744
6.5222363 0.79620832 -0.80677503
6.0439553 0.69957697 -0.74705905
5.4857826 0.60054857 -0.67759353
5.4795742 0.56505054 -0.67637485
5.4830627 0.53013217 -0.67637485
5.4862852 0.4956708 -0.67637485
5.46947 0.46000493 -0.67393744
5.4524426 0.4243291 -0.67150009
5.6332045 0.40280545 -0.69343656
5.8436174 0.38096288 -0.71902913
6.0737867 0.35765851 -0.74705905
7.3732233 -1.7715154 -0.93108177
7.188498 -1.7749796 -0.9091453
7.186904 -1.822237 -0.91036397
7.1178412 -1.8517377 -0.90305179
6.8568101 -1.829583 -0.87136579
5.7724476 -1.6182146 -0.73609084
5.6667662 -1.6270595 -0.72390389
5.4945469 -1.6150488 -0.70318609
5.4747863 -1.6466812 -0.70196742
5.4927917 -1.689803 -0.70562351
1.6866788 -1.4010383 0.3472845
1.6778966 -1.411544 0.3472845
1.6539586 -1.4092473 0.34415582
1.6226386 -1.4002532 0.33946279
1.5989348 -1.3974215 0.33633408
1.5680033 -1.3877248 0.33164105
1.5814418 -1.4171879 0.33633408
1.5871888 -1.4403112 0.33946279
1.5853802 -1.4569385 0.34102714
1.5761948 -1.466871 0.34102714
1.5813228 -1.4902936 0.34415582
1.5647826 -1.4933808 0.34259146
1.5695733 -1.5169104 0.34572017
1.5742046 -1.5404818 0.34884885
1.5646299 -1.5502057 0.34884885
1.1533265 -1.2473335 0.26906729
1.1188277 -1.2253797 0.2628099
1.1177809 -1.2396661 0.26437426
1.1166472 -1.253944 0.26593858
1.1022722 -1.2534761 0.26437426
1.087899 -1.2529193 0.2628099
1.0735767 -1.2522316 0.26124555
1.0656875 -1.2589523 0.26124555
1.0450885 -1.2504662 0.25811687
1.0309249 -1.2493898 0.25655252
-2.7146111 -0.97397685 0.45678863
-2.7579467 -0.97000951 0.46304601
-2.7920003 -0.96231711 0.46773905
-2.8975167 -0.95856035 0.48338249
-2.9410317 -0.95262057 0.48963988
-2.994035 -0.94904488 0.49746159
-3.0471077 -0.94484019 0.5052833
-4.0697374 -0.85299259 0.65858907
-4.0943756 -0.83133459 0.66171777
-4.1673589 -0.81892496 0.67266816
-4.2500486 -0.80747193 0.68518293
-7.7148542 -1.1677933 1.2358322
-7.2724013 -1.0541244 1.1638724
-6.8875437 -0.95419246 1.1012986
-6.8836112 -0.90960604 1.0997343
-6.8891907 -0.86633545 1.0997343
-6.9141121 -0.82537585 1.102863
-6.9093475 -0.78080618 1.1012986
-6.8748322 -0.73319048 1.0950413
-6.8792691 -0.6903193 1.0950413
-6.8244138 -0.64213002 1.0856552
-6.8578076 -0.60209006 1.0903482
-6.8614554 -0.55899131 1.0903482
-6.8648324 -0.51586688 1.0903482
-6.838377 -0.47069106 1.0856552
-6.8510575 -0.42832965 1.0872195
-6.8338909 -0.38416806 1.0840908
-6.8263049 -0.3407279 1.0825264
-6.8381786 -0.29826263 1.0840908
-6.8300352 -0.25525954 1.0825264
-6.8216133 -0.21262754 1.0809622
-6.8129344 -0.16977589 1.0793978
-6.8138666 -0.12696762 1.0793978
-6.7947817 -0.083573855 1.0762691
-6.7951765 -0.040287778 1.0762691
-6.8150492 0.0023407473 1.0793978
-6.7951503 0.044438049 1.0762691
-6.7848644 0.086747117 1.0747048
-6.7841854 0.12937395 1.0747048
-6.7832384 0.17199929 1.0747048
-6.7820239 0.21461423 1.0747048
-6.7706847 0.25651449 1.0731404
-6.7689652 0.29846123 1.0731404
-6.7669692 0.34072807 1.0731404
-6.7646952 0.38323745 1.0731404
-6.7720108 0.42635593 1.0747048
-6.7593451 0.46821275 1.0731404
-6.7562699 0.51067531 1.0731404
-6.7627716 0.55392045 1.0747048
-6.7689962 0.59727097 1.0762691
-6.76511 0.63978803 1.0762691
-6.7708173 0.68293971 1.0778334
-6.795918 0.72803533 1.0825264
-6.7912388 0.7704621 1.0825264
-6.6587763 0.79784018 1.0621901
-6.7614226 0.85326713 1.0793978
-6.755928 0.89573157 1.0793978
-6.7403836 0.93680459 1.0778334
-6.7539129 0.98197734 1.0809622
-6.7573748 1.0258781 1.0825264
-6.760551 1.0698575 1.0840908
-6.7342043 1.1091056 1.0809622
-6.7368383 1.1530603 1.0825264
-6.7294602 1.1953679 1.0825264
-6.721817 1.2376248 1.0825264
-6.7139077 1.2798363 1.0825264
-6.7154245 1.3239042 1.0840908
-6.7263293 1.3700163 1.0872195
-6.7272549 1.4142821 1.0887839
-6.7085829 1.4544317 1.0872195
-6.6993122 1.4965522 1.0872195
-6.6994023 1.5408311 1.0887839
-6.7088122 1.5874408 1.0919125
-6.6795111 1.6248946 1.0887839
-6.6787524 1.669224 1.0903482
-6.6776991 1.7136115 1.0919125
-6.6094928 1.7404424 1.0825264
-7.2724638 2.0130739 1.1951593
-6.6135225 1.8754925 1.0887839
-6.6205783 1.9225161 1.0919125
-6.6084652 1.9637507 1.0919125
-6.6150708 2.0104034 1.0950413
-3.6967645 1.27741 0.61948049
-3.5955169 1.2677695 0.60383701
-3.5688927 1.283649 0.60070831
-3.5608213 1.3058721 0.60070831
-3.5526617 1.3279101 0.60070831
-3.5535293 1.3535867 0.60227269
-3.5541625 1.3794601 0.60383701
-3.5362396 1.3981336 0.60227269
-3.5365474 1.424013 0.60383701
-3.4921303 1.8049332 0.62260914
-3.4982121 1.8360183 0.62573785
-3.4604571 1.8440281 0.62104481
-3.4835517 1.8845317 0.62730217
3.1693659 1.1684556 0.53500587
3.2788177 1.1854596 0.55221367
5.2212515 1.0390747 0.84318173
5.4119153 1.0419258 0.8729043
5.4766169 1.018739 0.88229036
5.4829097 0.98430842 0.88229036
5.488986 0.94983977 0.88229036
5.4753604 0.91208702 0.87916166
5.3541989 0.85736459 0.85882521
5.2618575 0.80870265 0.84318173
5.3645496 0.7900157 0.85882521
5.4183092 0.76318175 0.86664695
5.413209 0.72780651 0.86508256
5.417675 0.69378006 0.86508256
5.4415364 0.6621123 0.86821127
6.5739169 0.75833952 1.0481108
6.0286455 0.65761542 0.96050757
5.4824548 0.56314164 0.8729043
5.4859309 0.52820498 0.8729043
5.4891362 0.49378553 0.8729043
5.472405 0.45811781 0.86977559
5.4554644 0.42240909 0.86664695
5.4481587 0.38742337 0.86508256
5.6377535 0.3653188 0.89480513
5.8469982 0.34200004 0.92765635
6.0857549 0.31761006 0.96520066
12.035874 -2.2660437 1.9397874
11.265214 -2.1943266 1.8177685
10.592786 -2.1325133 1.711393
7.3731441 -1.8236445 1.202981
7.1797457 -1.8233811 1.1732584
7.1874256 -1.8728123 1.1763872
7.0420017 -1.8819597 1.1544863
6.791893 -1.8609189 1.1153777
5.7617946 -1.6567936 0.94955719
5.647047 -1.6622834 0.93234938
5.4662614 -1.6464581 0.9041912
5.4841261 -1.6894947 0.90888423
5.4734025 -1.7239189 0.90888423
1.7016846 -1.3968785 -0.19261418
1.6776758 -1.3946583 -0.19087107
1.6536846 -1.3922851 -0.18912795
1.6297437 -1.3897203 -0.18738484
1.6059008 -1.3869102 -0.18564174
1.5821581 -1.3838558 -0.18389861
1.5958802 -1.413499 -0.18651329
1.6019244 -1.436662 -0.1882564
1.592913 -1.446647 -0.1882564
1.5911244 -1.4633707 -0.18912795
1.5891883 -1.4801286 -0.18999952
1.5871041 -1.4969198 -0.19087107
1.5776678 -1.5068618 -0.19087107
1.58249 -1.5305964 -0.19261418
1.1774145 -1.2585152 -0.15077943
1.1492445 -1.2438987 -0.14816476
1.1414063 -1.2510951 -0.14816476
1.1202552 -1.243378 -0.14642164
1.11253 -1.250295 -0.14642164
1.1046931 -1.2572247 -0.14642164
1.0902436 -1.2566161 -0.14555009
1.0758455 -1.2558761 -0.14467853
1.0615001 -1.2550049 -0.14380698
1.0472083 -1.2540033 -0.14293541
1.0329713 -1.252872 -0.14206386
1.0188584 -1.2515559 -0.1411923
1.0110844 -1.2578446 -0.1411923
-6.9543319 -1.0498811 -0.61531955
-6.8819151 -0.99476576 -0.60834706
-7.3419685 -1.0142107 -0.64843869
-6.8839955 -0.9069075 -0.60747552
-6.8599043 -0.85991734 -0.60486084
-6.8552794 -0.8156234 -0.6039893
-6.8701682 -0.77364743 -0.60486084
-6.8649874 -0.72941512 -0.6039893
-6.8594847 -0.68565118 -0.6031177
-6.7941718 -0.63663042 -0.59701681
-6.9071836 -0.60369283 -0.60660398
-6.6861358 0.80378079 -0.58917284
-6.809433 0.86204165 -0.60050309
-6.8038826 0.90480757 -0.60050309
-6.7881966 0.9461661 -0.59963149
-6.7722602 0.9873597 -0.59875995
-6.7659225 1.0298932 -0.59875995
-6.7593184 1.0723823 -0.59875995
-6.7524467 1.1148329 -0.59875995
-6.7453089 1.1572357 -0.59875995
-6.7379045 1.1995965 -0.59875995
-6.7302346 1.2419063 -0.59875995
-6.7320833 1.2860399 -0.59963149
-6.7238703 1.3283114 -0.59963149
-6.725152 1.3725262 -0.60050309
-6.7163959 1.4147525 -0.60050309
-6.7171087 1.4590411 -0.60137463
-6.707809 1.5012151 -0.60137463
-6.6982436 1.5433334 -0.60137463
-6.6981082 1.587685 -0.60224617
-6.6976786 1.6320992 -0.6031177
-6.6872921 1.6741477 -0.6031177
-6.6959376 1.7210937 -0.60486084
-6.5694013 1.7326431 -0.59440213
-7.2026834 1.9481548 -0.65279651
-6.6143093 1.8336875 -0.60050309
-6.6026568 1.8752118 -0.60050309
-6.6003103 1.9194403 -0.60137463
-6.597775 1.9633548 -0.60224617
-6.5950136 2.007098 -0.6031177
-3.6904387 1.2768462 -0.34165052
-3.5884056 1.2668461 -0.33293495
-3.5522573 1.2792406 -0.33032027
-3.5442204 1.3013413 -0.33032027
-3.5360894 1.3232765 -0.33032027
-3.5463653 1.3524522 -0.33206338
-3.5563691 1.3819232 -0.33380648
-3.5568783 1.4079084 -0.33467805
-3.538723 1.4265037 -0.33380648
-3.494947 1.8081279 -0.34426519
-3.4746988 1.8254175 -0.34339362
-3.4807398 1.8565912 -0.34513673
-3.4777665 1.8831671 -0.3460083
-6.2095695 5.9745617 -0.75389719
-6.2004499 6.0412655 -0.75738341
-6.1836452 6.1010933 -0.75999808
-6.1874738 6.1820703 -0.76522744
-3.8206513 4.0650229 -0.48807216
-3.8221431 4.118154 -0.49155837
-1.4764326 1.6732103 -0.19522886
-1.4528016 1.6674324 -0.19348575
-1.4357998 1.6689754 -0.19261418
-1.4188354 1.6703715 -0.19174263
-1.4019111 1.67162 -0.19087107
-1.3786733 1.6650497 -0.18912795
1.0565076 1.3992362 -0.1533941
1.0955418 1.4321321 -0.15775189
1.1045185 1.4252204 -0.15775189
1.1196033 1.426088 -0.15862344
1.1285416 1.4190252 -0.15862344
1.1499344 1.4274219 -0.16036656
1.1588805 1.4201685 -0.16036656
1.1868205 1.435895 -0.16298124
1.195819 1.4284096 -0.16298124
1.2047703 1.4208679 -0.16298124
1.5299562 1.3676984 -0.17954083
1.545988 1.3646511 -0.18041238
3.1465213 1.2264615 -0.29545796
3.2472086 1.2422621 -0.30417353
3.1989908 1.2008291 -0.29894421
3.309304 1.2185709 -0.30853131
5.1429358 1.054582 -0.45931077
5.4425044 1.0809152 -0.48545748
5.4785032 1.0525147 -0.48807216
5.4850082 1.0180717 -0.48807216
5.4814906 0.98183197 -0.48720059
5.4777346 0.94567752 -0.48632905
5.4246054 0.90144312 -0.48109969
5.2235799 0.83434498 -0.46279699
5.3468823 0.81962115 -0.47325566
5.4406323 0.79903746 -0.48109969
5.4258156 0.76206619 -0.47935659
5.4206228 0.72663635 -0.47848502
5.4547267 0.69634789 -0.48109969
6.1557856 0.70768952 -0.54210871
5.5163164 0.59956831 -0.48545748
5.4902568 0.5617342 -0.4828428
5.4937239 0.52674782 -0.4828428
5.4969144 0.49233881 -0.4828428
5.4998589 0.45827156 -0.4828428
5.4628859 0.42082575 -0.47935659
5.6542277 0.39984563 -0.49591616
5.8554554 0.37711665 -0.51334733
6.0864482 0.35360765 -0.53339314
10.628057 -2.0745485 -0.94738293
10.224204 -2.062489 -0.91252059
10.220796 -2.1287198 -0.91339219
10.158639 -2.1818812 -0.90903437
7.3698745 -1.7768342 -0.66325521
7.2038517 -1.7847745 -0.64931029
7.192595 -1.8296105 -0.64931029
6.7762794 -1.768483 -0.61270487
6.919064 -1.8520161 -0.6266498
6.7439752 -1.8506371 -0.61183327
5.7732096 -1.6233196 -0.52467757
5.6671667 -1.6319933 -0.515962
5.494359 -1.6196826 -0.50114554
5.4840741 -1.6541724 -0.50114554
5.4735723 -1.6885971 -0.50114554
1.6827954 -1.4000164 0.42550406
1.6664976 -1.404191 0.42359596
1.6352414 -1.3955175 0.41787168
1.6190141 -1.3993453 0.41596359
1.5954175 -1.3965591 0.41214743
1.5573123 -1.3804152 0.40451506
1.5706452 -1.4097083 0.41023934
1.5981165 -1.452518 0.41977978
1.5817361 -1.4558827 0.41787168
1.5725573 -1.4657922 0.41787168
1.570455 -1.4823819 0.41977978
1.5682058 -1.4990029 0.42168787
1.5587568 -1.5088263 0.42168787
1.5633579 -1.5322396 0.42550406
1.560802 -1.5488112 0.42741215
1.1452749 -1.2405788 0.32819146
1.1242312 -1.2332416 0.32437527
1.1165347 -1.240214 0.32437527
1.1153514 -1.2544442 0.32628337
1.1010056 -1.2540205 0.32437527
1.0866746 -1.2534964 0.32246721
1.072394 -1.2528419 0.32055911
1.064501 -1.2595552 0.32055911
1.0439879 -1.2511448 0.31674293
1.0298645 -1.2501032 0.31483483
1.0158706 -1.248873 0.31292674
1.0019662 -1.2474899 0.31101865
-1.1558443 -1.1205804 0.31292674
-1.1841342 -1.1336612 0.31865102
-1.2405113 -1.1014748 0.32246721
-1.2990754 -1.1389581 0.33582383
-2.1451507 -1.0205435 0.46175775
-2.1693015 -1.0153676 0.46557394
-2.2202213 -1.0222446 0.47511441
-2.2355425 -1.0123237 0.47702247
-2.2687612 -1.0102365 0.48274675
-2.3200257 -1.0156447 0.49228719
-2.3353782 -1.0049275 0.49419528
-2.3867912 -1.0094937 0.50373572
-2.411129 -1.0022217 0.50755191
-2.426439 -0.99082971 0.50946003
-2.4872823 -0.99748725 0.52090853
-2.5026343 -0.98543608 0.52281666
-2.5545571 -0.9873873 0.5323571
-2.6066015 -0.98872423 0.54189754
-2.640362 -0.98259813 0.54762179
-2.6741474 -0.97608638 0.5533461
-2.7264383 -0.97580409 0.56288654
-2.7603037 -0.96840322 0.56861079
-2.794183 -0.96061492 0.57433504
-2.8466203 -0.95887536 0.58387554
-2.8897946 -0.95352262 0.59150785
-2.9330671 -0.94749618 0.59914023
-4.0891399 -0.82692933 0.81093824
-4.1424232 -0.81064534 0.82047868
-4.2438865 -0.80284953 0.83955956
-7.7266607 -1.1633759 1.5188396
-7.2577415 -1.0461782 1.4253432
-6.865468 -0.94564122 1.3471115
-6.8907399 -0.9050405 1.3509277
-6.8865495 -0.86051178 1.3490195
-6.8820724 -0.81606781 1.3471115
-6.8968191 -0.77390701 1.3490195
-6.8917842 -0.72952282 1.3471115
-6.8864222 -0.68565065 1.3452034
-6.8221216 -0.63658464 1.3318467
-6.865088 -0.59729826 1.3394791
-6.8687053 -0.55415022 1.3394791
-6.8524728 -0.50952822 1.335663
-6.8457456 -0.4657948 1.3337549
-6.8387394 -0.42216972 1.3318467
-6.8314557 -0.37864745 1.3299387
-6.8238955 -0.33523703 1.3280306
-6.8258672 -0.292353 1.3280306
-6.8177447 -0.249513 1.3261225
-6.8093481 -0.20696676 1.3242145
-6.8105097 -0.16436531 1.3242145
-6.811408 -0.12156876 1.3242145
-6.8022265 -0.078248136 1.3223063
-6.8025866 -0.034914751 1.3223063
-6.7928557 0.0075938362 1.3203982
-6.7926784 0.049682707 1.3203982
-6.7922349 0.092174858 1.3203982
-6.7817073 0.13465664 1.3184901
-6.7807274 0.17726268 1.3184901
-6.7696686 0.21954717 1.3165821
-6.7681713 0.26166853 1.3165821
-6.7566137 0.30315959 1.3146739
-6.7643881 0.3459225 1.3165821
-6.7522812 0.38785625 1.3146739
-6.7595072 0.43089691 1.3165821
-6.7468743 0.4726752 1.3146739
-6.7437711 0.51505572 1.3146739
-6.7404017 0.55741954 1.3146739
-6.7367663 0.59975773 1.3146739
-6.7328649 0.64207578 1.3146739
-6.7287393 0.68395996 1.3146739
-6.7243724 0.72563857 1.3146739
-6.7099485 0.76657599 1.3127658
-6.714745 0.80989778 1.3146739
-6.7095237 0.8520698 1.3146739
-6.7040372 0.89421171 1.3146739
-6.7080088 0.93767375 1.3165821
-6.7116976 0.98122448 1.3184901
-6.7054 1.023374 1.3184901
-6.718226 1.0685705 1.3223063
-6.7016954 1.1091565 1.3203982
-6.6945939 1.1512442 1.3203982
-6.6775646 1.1915584 1.3184901
-6.6795983 1.2352779 1.3203982
-6.6813469 1.2790663 1.3223063
-6.6731782 1.3210229 1.3223063
-6.6743636 1.3648903 1.3242145
-6.6656556 1.4068012 1.3242145
-6.6662774 1.4507403 1.3261225
-6.6570301 1.4925988 1.3261225
-6.6475205 1.5343947 1.3261225
-6.6472988 1.5784014 1.3280306
-6.6372509 1.6201345 1.3280306
-6.6364613 1.6641948 1.3299387
-6.6258745 1.7058581 1.3299387
-6.6245155 1.7499647 1.3318467
-6.6228647 1.7941179 1.3337549
-6.6209192 1.8383229 1.335663
-6.6092386 1.8798851 1.335663
-6.6067209 1.9241215 1.337571
-6.6040273 1.9679993 1.3394791
-6.6010966 2.0117421 1.3413873
-3.6823554 1.2756703 0.75751168
-3.5909722 1.2693375 0.74033886
-3.5459881 1.2785578 0.73270655
-3.5563903 1.3073727 0.73652273
-3.5574136 1.3328272 0.7384308
-3.5581768 1.3585567 0.74033886
-3.5404217 1.3773284 0.7384308
-3.5316982 1.3995453 0.7384308
-3.5319376 1.4253825 0.74033886
-3.4569182 1.5752257 0.7384308
-3.4469521 1.5969158 0.7384308
-3.4546125 1.6269058 0.74224699
-3.4954412 1.8101232 0.76514405
-3.4753101 1.8274821 0.76323599
-3.4637597 1.8492811 0.76323599
-3.4693317 1.8803638 0.76705217
-1.1510022 1.6266714 0.38734224
-1.1407584 1.6338716 0.38734224
5.257411 1.0420386 1.0418171
5.4277191 1.0405483 1.0742546
5.4824109 1.0153626 1.0837951
5.4790192 0.97916883 1.081887
5.4753895 0.94305784 1.0799789
5.4715223 0.90703183 1.0780708
5.2929273 0.84329027 1.0418171
5.2399001 0.80111605 1.0303686
5.3710947 0.78667027 1.0551738
5.4050956 0.7569918 1.0608979
5.4000154 0.72171545 1.0589899
5.4044437 0.68777204 1.0589899
5.4281487 0.65615755 1.0628061
6.1050477 0.6994614 1.1944643
5.5041933 0.59609419 1.0761627
5.4687858 0.55733734 1.0685303
5.4624534 0.52155411 1.0666223
5.4656067 0.4874014 1.0666223
5.4685216 0.45352823 1.0666223
5.4614644 0.41855893 1.0647142
5.4444022 0.38285828 1.0608979
5.6426249 0.36118454 1.0990598
5.8407822 0.33703378 1.1372216
6.0878677 0.31292626 1.1849239
9.945591 -2.0754771 1.9748731
9.4238615 -2.0278828 1.8737442
8.9127684 -1.9757597 1.7745236
8.4504375 -1.928812 1.6848434
7.3645806 -1.8276654 1.4749535
7.0011063 -1.7837874 1.4043542
6.7050047 -1.7526553 1.3471115
6.4568729 -1.7310195 1.2994093
6.2092366 -1.7065198 1.251707
6.0661092 -1.7082483 1.2249937
5.7345729 -1.6538441 1.1601187
5.6205077 -1.6592691 1.1391296
5.4502234 -1.6462973 1.1066922
5.4585299 -1.6863043 1.1105083
5.4571872 -1.7235241 1.1124164
1.7124727 -1.4079554 -0.11618582
1.6883675 -1.4057589 -0.1151391
1.6642641 -1.4034272 -0.11409238
1.6250387 -1.3879141 -0.11199895
1.6087334 -1.3915639 -0.11147559
1.5924467 -1.3950639 -0.11095223
1.5837419 -1.4049381 -0.11095223
1.6195821 -1.4547635 -0.11409238
1.6030543 -1.4581561 -0.11356902
1.6012057 -1.4749655 -0.11409238
1.5992091 -1.4918089 -0.11461575
1.6043229 -1.5155429 -0.11566246
1.6019855 -1.5324959 -0.11618582
1.5994976 -1.5494794 -0.11670918
1.1297611 -1.2402859 -0.087924406
1.1220276 -1.2472863 -0.087924406
1.1209104 -1.2616801 -0.088447765
1.106403 -1.2611668 -0.087924406
1.098457 -1.2680936 -0.087924406
