# .PCD v0.7 - Point Cloud Data file format
VERSION 0.7
FIELDS x y z
SIZE 4 4 4
TYPE F F F
COUNT 1 1 1
WIDTH 1481
HEIGHT 1
VIEWPOINT 0 0 0 1 0 0 0
POINTS 1481
DATA ascii
9.1639595 -2.1751361 0.16440167
9.9757586 -2.4341338 0.17923622
9.1697617 -2.3598864 0.16527429
9.1742983 -2.4217601 0.16562334
9.1722536 -2.5441222 0.1661469
9.16572 -2.6043842 0.16632143
6.1332068 -1.8251836 0.1116954
6.1216183 -1.8636835 0.1116954
6.1097775 -1.9021423 0.1116954
5.7831316 -1.8409419 0.1059361
5.6572022 -1.8405925 0.10384182
5.8732443 -1.9517759 0.10803039
4.7125854 -1.6982325 0.087436557
4.6081119 -1.6929443 0.08569131
-1.0132259 -2.9384575 -0.71759385
-1.0316687 -2.9320333 -0.71759385
-1.0467471 -2.9163339 -0.71534437
-1.0681453 -2.9189425 -0.71759385
-1.0896469 -2.9213858 -0.71984339
-1.1114433 -2.9235895 -0.72209287
-1.1297908 -2.9165485 -0.72209287
-1.1516702 -2.9184558 -0.72434241
-1.1699846 -2.9111619 -0.72434241
-1.1956332 -2.9217892 -0.72884142
-1.2139359 -2.9142323 -0.72884142
-1.9816425 -2.8113048 -0.79407722
-2.0160425 -2.8227382 -0.80082572
-2.0337384 -2.8100154 -0.80082572
-2.057116 -2.8050389 -0.80307525
-2.0805116 -2.7998793 -0.80532473
-2.1097827 -2.8023207 -0.80982381
-2.1273487 -2.7890093 -0.80982381
-2.1567461 -2.7910078 -0.81432283
-2.1802461 -2.785074 -0.81657231
-2.2037261 -2.7789788 -0.81882185
-2.2453079 -2.7956586 -0.82781988
-2.268765 -2.7892275 -0.83006936
-2.2986369 -2.7899578 -0.83456838
-2.3286071 -2.790422 -0.8390674
-2.5899277 -2.9124951 -0.89980417
-2.6472666 -2.939636 -0.91330129
-2.6982548 -2.9591773 -0.9245488
-2.7231793 -2.949532 -0.92679834
-1.6745925 -1.175832 -0.47239721
-1.6899565 -1.1708361 -0.47464672
-1.6731478 -1.143699 -0.46789819
-1.6883792 -1.1386118 -0.4701477
-2.8964896 -1.3961664 -0.74233848
-2.949223 -1.3988177 -0.75358599
-2.9579539 -1.3802596 -0.75358599
-2.9577124 -1.3575826 -0.75133651
-2.9217801 -1.3189275 -0.74008894
-2.9478209 -1.3084495 -0.74458796
-2.9113317 -1.2704171 -0.73334044
-2.9192564 -1.2520998 -0.73334044
-2.9180739 -1.2299802 -0.7310909
2.2790291 0.91382551 -0.56687665
2.3210611 0.91358846 -0.57587469
2.354022 0.90952188 -0.58262324
2.3961234 0.90855736 -0.59162128
2.7453423 -1.5783226 -0.7310909
2.7269547 -1.5906316 -0.72884142
2.674979 -1.5829233 -0.71759385
2.6315811 -1.5796117 -0.70859581
2.5884514 -1.5756212 -0.69959778
2.5454564 -1.5711852 -0.69059974
2.5024979 -1.5664682 -0.6816017
2.467927 -1.566496 -0.67485315
2.425262 -1.5608785 -0.66585511
2.3909264 -1.5601121 -0.65910655
2.3485706 -1.5536008 -0.65010852
2.3144848 -1.5520463 -0.64336002
2.272454 -1.5446481 -0.63436198
2.2466567 -1.5478394 -0.62986296
2.2129202 -1.5451901 -0.62311441
2.179307 -1.5421785 -0.61636585
2.1458197 -1.5388062 -0.60961735
2.1124785 -1.5350517 -0.6028688
2.0872335 -1.5365579 -0.59836978
2.054224 -1.5320078 -0.59162128
2.0212357 -1.5272623 -0.58487272
1.9961259 -1.5280863 -0.5803737
-5.2543688 -0.71447581 0.27790391
-5.2586951 -0.68190563 0.27790391
-5.2529187 -0.64800256 0.27738056
-5.2668047 -0.61614662 0.27790391
-5.5087905 -0.60939306 0.29046455
-8.1843395 -0.85335207 0.43124828
-7.9112549 -0.77466023 0.41659421
-7.9358549 -0.72676086 0.41764092
-7.9303145 -0.67603397 0.41711757
-7.9244504 -0.62540966 0.41659421
-7.9083033 -0.57415843 0.41554749
-7.8320394 -0.51917589 0.41136062
-7.8344741 1.00883 0.41397741
-7.8180847 1.0566956 0.41345406
-7.801403 1.1043993 0.4129307
-7.7016954 1.8429703 0.41502413
-8.3881693 2.0630488 0.45270601
-7.9587102 2.010536 0.43020156
-7.6075902 1.9727699 0.41188398
-5.2788944 1.4043572 0.28627768
-5.1061826 1.3928236 0.27738056
-4.8953614 1.3684202 0.26639003
-4.7234573 1.3524227 0.2574929
-4.5807042 1.3427458 0.25016588
-4.562634 1.3685571 0.24964251
-4.5731616 1.4026579 0.25068924
-4.554831 1.4280519 0.25016588
-4.5647888 1.462736 0.2512126
-4.5744886 1.4976038 0.25225931
-4.583931 1.5326484 0.25330603
-4.5553088 1.5549688 0.25225931
-4.5360188 1.5802733 0.25173596
-4.4601326 1.5853317 0.24807243
-4.4594727 1.6167265 0.24859579
-4.5065989 1.8282516 0.25487611
-4.5136156 1.8638345 0.25592282
-4.5110221 1.8960258 0.25644618
-4.5081697 1.9283346 0.25696954
-4.4957943 1.9570136 0.25696954
-1.6554909 1.6208044 0.12141941
-1.6380672 1.6242597 0.12089606
-1.6137362 1.6203678 0.11984934
-1.5895183 1.6162356 0.11880262
-1.0987035 1.5591531 0.099961676
-1.0887491 1.5661204 0.099961676
-1.0787755 1.573007 0.099961676
-1.0576788 1.5632119 0.098914959
-1.0533798 1.5781329 0.099438317
-1.0269682 1.559698 0.097868234
2.3327484 0.91713089 0.13136324
2.3570979 0.90964663 0.13240996
2.3814301 0.90193135 0.13345669
2.4150548 0.897596 0.13502677
2.8739338 0.9467085 0.15857795
2.9273474 0.94395643 0.16119474
4.4044032 1.0324358 0.23708187
4.4107871 1.004814 0.23708187
4.4071774 0.97530806 0.23655851
4.3130279 0.78556001 0.22975485
4.396564 0.77226645 0.23394172
5.4664755 0.78407943 0.28941783
5.1744676 0.70913082 0.27371705
4.4955215 0.58773172 0.23760524
4.4693565 0.55609429 0.23603515
4.4628448 0.52683091 0.23551179
4.4759998 0.49981487 0.23603515
4.4790931 0.47129035 0.23603515
4.9838743 0.30417213 0.26167977
5.1452289 0.28158295 0.27005354
14.672634 0.7107935 0.76986188
14.656801 0.61902636 0.76881516
14.670353 0.52808279 0.76933855
14.663437 0.43432084 0.76881516
14.645933 0.34067625 0.76776844
14.6378 0.24847735 0.76724511
14.629086 0.15639414 0.76672173
14.29025 0.062977903 0.74892753
14.060679 -0.026149966 0.73689026
14.03029 -0.11302722 0.73532015
14.029317 -0.20018376 0.73532015
14.027782 -0.28832817 0.73532015
14.035676 -0.37672916 0.73584354
14.023051 -0.46457937 0.73532015
13.999899 -0.55189246 0.73427343
13.976203 -0.638933 0.73322672
17.053513 -0.8870213 0.89494485
17.027664 -0.99299091 0.89389813
17.031073 -1.1003215 0.89442146
17.033888 -1.2065295 0.89494485
17.016108 -1.3115563 0.89442146
17.007532 -1.4184453 0.89442146
16.998283 -1.5252782 0.89442146
16.988365 -1.632051 0.89442146
16.96784 -1.7377418 0.89389813
16.946659 -1.8432393 0.89337474
16.924822 -1.9485393 0.89285141
16.902332 -2.0536375 0.89232802
16.889095 -2.159797 0.89232802
16.904884 -2.2698581 0.89389813
16.890327 -2.3757527 0.89389813
16.885162 -2.4818106 0.89442146
16.87929 -2.5881701 0.89494485
16.862696 -2.6941741 0.89494485
16.855286 -2.8017094 0.89546818
16.827509 -2.905859 0.89494485
16.818748 -3.0132904 0.89546818
16.81912 -3.1225514 0.89651489
13.866916 -2.6646981 0.74003041
12.870415 -2.5571644 0.68769443
12.003024 -2.46332 0.64216214
11.283897 -2.3897188 0.60448027
10.624737 -2.3199661 0.56993854
10.02538 -2.2551796 0.53853697
9.5051107 -2.2009809 0.51132226
9.1802292 -2.1866155 0.49457479
9.1469097 -2.2395031 0.49352807
9.1036043 -2.2896233 0.49195799
9.1567612 -2.3641033 0.4956215
9.1902056 -2.4335742 0.4982383
6.4423141 -1.8791742 0.35169762
6.1434398 -1.833482 0.33599684
6.1413493 -1.874962 0.3365202
6.1580138 -1.9225398 0.33809027
6.0314808 -1.9252896 0.33180997
5.3584137 -1.8604932 0.29726821
5.1489739 -1.8240106 0.28627768
4.6961365 -1.6964153 0.26167977
4.5730553 -1.6841425 0.25539947
-1.0966359 -2.9330866 -0.60868067
-1.1150434 -2.9261384 -0.60868067
-1.1369597 -2.9282253 -0.61058879
-1.1553358 -2.9210238 -0.61058879
-1.177334 -2.9228125 -0.61249685
-1.1919503 -2.9062753 -0.61058879
-1.2139057 -2.9078138 -0.61249685
-2.1334803 -2.7924974 -0.68309617
-2.1569922 -2.7867999 -0.68500429
-2.1865735 -2.7886417 -0.68882048
-2.2162015 -2.7902696 -0.69263667
-2.5919347 -2.9101462 -0.75751168
-2.642978 -2.9303069 -0.76705217
-2.8640332 -1.2901531 -0.61058879
-2.8361819 -1.2562308 -0.60295641
-2.7810185 -1.2109532 -0.58959979
-4.8492966 1.3575989 -0.97885013
-4.6896954 1.344748 -0.94832069
-4.5492897 1.3354793 -0.92160743
-4.5220361 1.3582886 -0.91779125
-4.5323005 1.3920456 -0.92160743
-4.5422893 1.4260784 -0.92542362
-4.5425858 1.4575906 -0.92733169
-4.5519938 1.492218 -0.93114787
-4.5518365 1.5239069 -0.933056
-4.5328832 1.5493008 -0.93114787
-4.5230589 1.5777522 -0.93114787
-4.4760647 1.5929739 -0.9235155
-4.474649 1.8173081 -0.93878025
-4.4814067 1.8525939 -0.94259644
-4.4696779 1.880716 -0.94259644
-4.4938264 1.924315 -0.95022881
-4.499474 1.9607481 -0.95404494
-4.4743476 2.017427 -0.95404494
-4.470552 2.0494924 -0.95595306
-4.4488697 2.0730069 -0.95404494
2.2785077 0.91151106 -0.47702247
2.3207965 0.91137993 -0.48465484
2.3447957 0.90384126 -0.48847103
2.3871343 0.90303457 -0.49610338
4.4025035 1.0886941 -0.88153756
4.3806252 1.0541214 -0.87581325
4.4062781 1.0310495 -0.87962943
4.4222198 1.0056168 -0.88153756
4.4155521 0.60338348 -0.86627281
4.4192057 0.57601398 -0.86627281
4.4519267 0.55215043 -0.87199712
4.455308 0.52416742 -0.87199712
4.4390121 0.49389532 -0.86818093
2.7390208 -1.5775523 -0.61440498
2.7205794 -1.5897783 -0.61249685
2.6598728 -1.5768063 -0.60104835
2.6247101 -1.5782542 -0.59532404
2.598119 -1.5842651 -0.59150785
2.5381238 -1.5694133 -0.58005935
2.5032635 -1.5696851 -0.57433504
2.4602172 -1.5643142 -0.56670272
2.4255888 -1.5637844 -0.56097841
2.3828487 -1.557511 -0.5533461
2.3402843 -1.550763 -0.54571372
2.3060486 -1.5490161 -0.53998947
2.2719283 -1.5469009 -0.53426516
2.2460058 -1.5499941 -0.53044897
2.2040467 -1.5415709 -0.52281666
2.1783004 -1.5440356 -0.51900047
2.1366653 -1.5347844 -0.5113681
2.103204 -1.5308028 -0.50564384
2.069977 -1.5263275 -0.49991956
2.0447183 -1.527419 -0.49610338
2.0115991 -1.5224642 -0.4903791
1.9864138 -1.5231272 -0.48656294
1.9535481 -1.5175124 -0.48083866
-5.2914691 -0.71534729 0.46715477
-5.2661591 -0.67872703 0.46454009
-5.2702808 -0.64594412 0.46454009
-5.2742352 -0.61281598 0.46454009
-5.5255418 -0.60685533 0.48632905
-8.2542324 -0.85408479 0.72600734
-7.9124007 -0.76850134 0.69550282
-7.9369154 -0.72057062 0.69724596
-7.9412861 -0.67068964 0.69724596
-7.9155483 -0.61845005 0.69463128
-7.899405 -0.56727827 0.69288814
-7.8829322 -0.51632953 0.691145
-10.978755 -0.65015715 0.96219939
-11.002469 -0.58317405 0.96394253
-10.985983 -0.51376694 0.96219939
-7.9087605 0.12734462 0.6920166
-7.9177637 0.17725916 0.69288814
-7.9165001 0.22678703 0.69288814
-7.9049869 0.27548692 0.6920166
-7.8732591 0.32344523 0.68940192
-7.8611207 0.3724384 0.68853039
-7.8586254 0.42182159 0.68853039
-7.8259873 0.469403 0.68591571
-7.8228836 0.51856351 0.68591571
-7.81458 1.0125059 0.68940192
-7.8080635 1.0615882 0.68940192
-7.8111019 1.1120285 0.69027346
-7.8039603 1.1610869 0.69027346
-7.7965117 1.2100954 0.69027346
-7.7985883 1.26065 0.691145
-7.7806897 1.3079714 0.69027346
-7.7821312 1.358548 0.691145
-7.7734418 1.4074155 0.691145
-7.7644453 1.4562315 0.691145
-7.7649221 1.5068837 0.6920166
-7.7553005 1.5556443 0.6920166
-7.7551284 1.6063598 0.69288814
-7.7351398 1.652975 0.6920166
-7.7343302 1.7036844 0.69288814
-7.7331877 1.7544529 0.69375968
-7.652411 1.8375342 0.68853039
-8.4144583 2.0765216 0.75825495
-7.9377275 2.0118706 0.71642017
-7.6260586 1.9839501 0.68940192
-5.2649212 1.4050698 0.47674191
-5.0638142 1.3855389 0.45931077
-4.8919435 1.3716093 0.44449428
-4.7013054 1.3500746 0.42793468
-4.5684819 1.3430614 0.41660443
-4.5599909 1.3716143 0.41660443
-4.5609264 1.4027705 0.417476
-4.5616121 1.4341124 0.41834757
-4.5619955 1.4657941 0.41921911
-4.5810914 1.5037484 0.42183378
-4.5621066 1.5293373 0.42096224
-4.5524082 1.5579703 0.42096224
-4.5425286 1.5865443 0.42096224
-4.4292469 1.5782714 0.41137511
-4.4286056 1.6094737 0.41224664
-4.4941974 1.827275 0.42444846
-4.5195589 1.8704435 0.42793468
-4.4985361 1.8949376 0.42706314
-4.5048008 1.9311385 0.42880625
-7.4804745 3.5459898 0.7242642
-7.5208693 3.623188 0.7303651
-1.6225795 1.6318095 0.20132977
-1.5983357 1.6277555 0.19958664
-1.2327018 1.5779281 0.17518304
-1.2166802 1.5777532 0.17431149
-1.2007096 1.5774394 0.17343992
-1.1788065 1.5690237 0.17169681
2.1276572 1.1958174 0.21353157
2.1438434 1.1872516 0.21440312
2.3277786 0.91306657 0.21876091
2.3613596 0.90916085 0.22137558
2.3949578 0.90493417 0.22399026
2.4191997 0.89700478 0.22573337
2.8960605 0.95147622 0.26669657
2.9399159 0.94546056 0.27018279
2.9838088 0.93893081 0.27366903
3.1252203 0.91906142 0.28499928
3.1788068 0.91315943 0.28935707
4.4138737 1.0309988 0.39655861
4.4202371 1.0033661 0.39655861
4.4360976 0.97810483 0.39743018
4.3031259 0.78026485 0.38261372
4.3962612 0.76865393 0.39045772
5.4833465 0.78210473 0.48458591
5.2907171 0.7208876 0.46715477
4.449007 0.5500139 0.39220083
4.4622693 0.52320933 0.3930724
4.4555807 0.49394295 0.39220083
4.468545 0.46658316 0.3930724
4.9819036 0.3001242 0.43665028
5.1428504 0.27740115 0.45059517
14.677207 0.69962013 1.2855471
14.671307 0.60825694 1.2846756
14.674822 0.51654351 1.2846756
14.677814 0.42304897 1.2846756
14.660284 0.32948837 1.2829325
14.662065 0.23736903 1.2829325
14.643344 0.145043 1.2811894
14.384957 0.05209573 1.2585289
14.305306 -0.037685588 1.2515564
14.025874 -0.12385473 1.2271528
14.044754 -0.21143855 1.2288959
14.053107 -0.29989228 1.2297676
14.03103 -0.38763398 1.2280244
14.008405 -0.47511008 1.2262813
14.005143 -0.56311768 1.2262813
13.991377 -0.65064031 1.2254097
17.041077 -0.89979476 1.4929779
17.054976 -1.0080242 1.4947209
17.018515 -1.1127481 1.4921063
17.031166 -1.2195933 1.4938494
17.033178 -1.326332 1.4947209
17.014582 -1.4324921 1.4938494
17.005245 -1.5393691 1.4938494
17.005154 -1.6471456 1.4947209
16.944921 -1.7488456 1.4903631
16.963306 -1.8585335 1.4929779
16.901815 -1.9593441 1.48862
16.938612 -2.0715487 1.4929779
16.87586 -2.1715786 1.48862
16.930988 -2.2869036 1.4947209
16.857168 -2.3844056 1.4894916
16.901201 -2.4975412 1.4947209
16.855793 -2.5981202 1.4921063
16.848972 -2.7055559 1.4929779
16.861118 -2.8162887 1.4955925
16.794014 -2.9136596 1.4912348
16.824398 -3.0279441 1.4955925
16.80504 -3.1335948 1.4955925
13.870139 -2.6766167 1.2358685
12.895643 -2.5727079 1.1504558
12.030366 -2.4787807 1.0746303
11.273998 -2.3968766 1.008392
10.645665 -2.3332982 0.95348382
10.038035 -2.2663119 0.9003188
9.519022 -2.2120814 0.85499781
9.1851969 -2.1954243 0.82623643
9.1712217 -2.253093 0.82623643
9.118247 -2.3009231 0.82275021
9.1711807 -2.3754051 0.8288511
9.1755428 -2.4372973 0.83059424
6.4538369 -1.8879598 0.58830124
6.1461096 -1.839537 0.56128299
6.1439557 -1.881034 0.56215453
6.1414704 -1.9227433 0.56302607
4.7114749 -1.7060821 0.43839338
4.5886207 -1.6939692 0.42793468
-5.2661371 -0.70984632 -0.84161741
-5.2508416 -0.6746859 -0.8384887
-5.2392488 -0.60666656 -0.83536005
-5.5080509 -0.60274321 -0.87759733
-5.257585 1.4053231 -0.86195391
-5.0676632 1.3887334 -0.83223134
-4.8781652 1.3698118 -0.80250877
-4.7080956 1.3540281 -0.77591491
-4.538424 1.3361607 -0.7493211
-4.5488982 1.3701988 -0.75244975
-4.5497603 1.401265 -0.75401413
-4.5597863 1.4355081 -0.75714278
-4.5600796 1.4671534 -0.75870717
-4.4825644 1.8245683 -0.76652884
-4.480238 1.8562334 -0.76809323
-4.4684868 1.8843455 -0.76809323
-4.4837255 1.924216 -0.77278626
-4.999814 2.4110851 -0.87916166
-5.0023046 2.4511456 -0.88229036
-4.9956474 2.4869277 -0.88385469
-4.9451451 2.9884036 -0.91514158
-4.9431138 3.0297372 -0.91827029
-4.8770323 3.5206597 -0.95268589
-4.8626704 3.5572238 -0.95425022
-4.8498583 3.7870774 -0.97458673
-4.8492055 3.8358591 -0.97927976
-4.8244772 4.0690646 -0.99961621
2.2374141 1.2196246 -0.4036009
2.2711382 1.2195605 -0.40829393
2.3024793 0.9189747 -0.39265051
2.3266499 0.91156977 -0.39577919
2.3599875 0.90756863 -0.40047222
2.3933361 0.90326256 -0.40516526
3.1309495 0.94081914 -0.51779807
3.174706 0.9322598 -0.52405542
3.2279708 0.92591053 -0.53187716
4.3825965 1.0801196 -0.7149055
4.398901 1.054865 -0.71646982
4.415061 1.0294479 -0.71803421
4.4214091 1.001832 -0.71803421
4.443285 0.60366821 -0.71021247
4.4371452 0.57485789 -0.70864809
4.4504423 0.54841709 -0.71021247
4.4636102 0.52158982 -0.71177679
4.4569983 0.49230325 -0.71021247
4.9966574 0.33056352 -0.79312271
5.1268058 0.30683306 -0.81345922
2.913852 -1.6088642 -0.52718413
2.8692205 -1.6078274 -0.52092677
2.8075471 -1.5965294 -0.51154071
2.7546856 -1.589457 -0.50371897
2.727597 -1.5967541 -0.50059026
2.6750495 -1.5886439 -0.49276856
2.6396859 -1.5900441 -0.48807552
2.5876398 -1.5806254 -0.48025379
2.544158 -1.5759083 -0.47399643
2.509115 -1.5761015 -0.4693034
2.4741709 -1.5759172 -0.46461037
2.4227352 -1.5646399 -0.45678863
2.388067 -1.5636004 -0.4520956
2.3535082 -1.5621876 -0.44740257
2.3190627 -1.5604028 -0.44270954
2.2765737 -1.552682 -0.43645215
2.2423992 -1.5501064 -0.43175912
2.2083478 -1.5471634 -0.42706609
2.174423 -1.5438544 -0.42237306
2.1486449 -1.5459491 -0.41924435
2.1070158 -1.536075 -0.41298699
2.0815682 -1.5373645 -0.40985829
2.0482275 -1.5325487 -0.40516526
2.0228159 -1.5334542 -0.40203658
1.9974748 -1.5341015 -0.39890787
1.9644104 -1.5284261 -0.39421484
-5.1894469 -0.7307446 0.64347011
-5.2726398 -0.70864415 0.65321964
-5.2572389 -0.67343867 0.65078229
-5.2711878 -0.64185226 0.65200096
-5.2849765 -0.60985911 0.65321964
-8.3530235 -0.85767931 1.0310147
-7.9136596 -0.76234823 0.9761734
-7.9084077 -0.71172291 0.97495472
-7.9127235 -0.66201699 0.97495472
-7.9068308 -0.61152381 0.97373605
-7.9006166 -0.56112665 0.97251737
-7.9039865 -0.51147687 0.97251737
-8.2533751 2.0987711 1.0456389
-7.6445918 1.9951853 0.97007996
-5.2445378 1.4040418 0.66662532
-5.0537534 1.3870547 0.64347011
-4.8729525 1.370412 0.62153363
-4.6830287 1.3488095 0.59837848
-4.5506978 1.3417157 0.58253545
-4.5517325 1.3729752 0.58375412
-4.5715923 1.4099272 0.58741021
-4.5816464 1.4443672 0.58984762
-4.5819283 1.4761683 0.5910663
-4.7704582 1.9439054 0.6325019
-4.4923725 1.8633275 0.59715974
-4.4622889 1.8837953 0.59472239
-4.5050073 1.935475 0.60203457
-1.3268144 1.5946121 0.25470692
-1.310407 1.5952984 0.25348824
2.1219079 1.2079847 0.29979858
2.129456 1.1946286 0.29979858
2.1195469 1.1716218 0.2973612
2.2140331 1.2057518 0.30954814
2.2652969 1.2152779 0.31564158
2.2816637 1.2056578 0.31686029
2.2829952 0.8934322 0.30101728
2.3348911 0.89686507 0.30711073
2.3683088 0.89276952 0.31076682
2.4110308 0.89185226 0.31564158
2.4445348 0.88696057 0.31929767
2.8767653 0.9426344 0.37170148
2.9298875 0.93969703 0.37779495
2.9641442 0.93018508 0.38145104
4.3985133 1.0237687 0.55450553
4.4048209 0.99628025 0.55450553
4.4206038 0.97109872 0.5557242
4.2977428 0.77580291 0.53622508
4.4003172 0.76580209 0.54841202
5.2673321 0.74707353 0.65321964
5.3702507 0.72748876 0.66540658
4.4528446 0.54693806 0.55084944
4.456193 0.51894939 0.55084944
4.4593844 0.49076974 0.55084944
4.4722929 0.46337476 0.55206811
4.9737988 0.29571569 0.6117841
5.1440535 0.27341446 0.6325019
14.67356 0.68805695 1.8036662
14.667624 0.59672385 1.8024476
14.661159 0.50437403 1.8012289
14.654153 0.4106887 1.8000102
14.646537 0.31767088 1.7987915
14.628395 0.22533242 1.7963541
14.619596 0.13332501 1.7951354
14.491116 0.041099235 1.7792923
14.292582 -0.048721015 1.7549185
13.994255 -0.1344161 1.7183577
14.022918 -0.22212557 1.7220138
14.021246 -0.31022936 1.7220138
14.019019 -0.39832088 1.7220138
14.01624 -0.48639667 1.7220138
13.993073 -0.57364017 1.7195764
13.979279 -0.66108066 1.7183577
12.865861 -2.5772746 1.6111127
12.032961 -2.4891684 1.5087425
11.279363 -2.4072773 1.4161217
10.653315 -2.343745 1.339344
10.038215 -2.2746394 1.2637851
9.5114231 -2.2181904 1.1991943
9.1498356 -2.1945703 1.1553214
9.1551399 -2.256768 1.1577587
6.428741 -1.8860246 0.82261807
6.1221581 -1.8376093 0.78483856
6.1294684 -1.8818649 0.78727597
6.1269197 -1.9235469 0.78849465
4.6929011 -1.7034692 0.61300278
4.5425625 -1.681021 0.59472239
-1.058799 -1.1702551 -0.19377226
-1.0794382 -1.1783102 -0.19620964
-1.1002698 -1.1861053 -0.19864702
-1.0805174 -1.1502323 -0.19377226
-2.9879708 -0.95358407 -0.38510713
-3.0318012 -0.94662338 -0.3899819
-4.9347987 -0.75689381 -0.61300278
-5.0278692 -0.73864233 -0.62397105
-5.2729135 -0.70660245 -0.65321964
-5.2574997 -0.67140287 -0.65078229
-5.2517328 -0.63739133 -0.64956361
-5.2556343 -0.60437989 -0.64956361
-7.8843179 -0.75639808 -0.97251737
-7.8790293 -0.70595688 -0.97129864
-7.8932004 -0.65726352 -0.97251737
-7.8872786 -0.60689276 -0.97129864
-7.8810349 -0.55662662 -0.97007996
-7.8348517 -0.50391048 -0.96398652
-7.9321322 -0.36158612 -0.97495472
-7.9640007 -0.31290707 -0.97861081
-7.9360495 -0.26188192 -0.97495472
-7.9387136 -0.16213636 -0.97495472
-7.9395757 -0.11225089 -0.97495472
-7.9202738 -0.06220929 -0.97251737
-7.9205084 -0.012441646 -0.97251737
-7.9005795 0.03722873 -0.97007996
-7.9101148 0.086979792 -0.97129864
-7.899488 0.13650496 -0.97007996
-7.866117 0.48111171 -0.96764255
-7.8530364 0.52985597 -0.96642387
-7.7279429 0.91192377 -0.95545566
-7.7811575 0.96781415 -0.96276778
-7.7749233 1.0166832 -0.96276778
-7.7978816 1.0695626 -0.96642387
-7.791008 1.1185346 -0.96642387
-7.7838259 1.1674668 -0.96642387
-7.7763371 1.2163485 -0.96642387
-7.7587447 1.2635912 -0.96520519
-7.7506523 1.3123136 -0.96520519
-7.7520289 1.3627067 -0.96642387
-7.7433143 1.4113848 -0.96642387
-7.7440462 1.4618527 -0.96764255
-7.7347088 1.5104787 -0.96764255
-7.7250652 1.5590494 -0.96764255
-7.724834 1.609579 -0.96886128
-7.7145681 1.6580856 -0.96886128
-7.7136889 1.7086692 -0.97007996
-7.7028003 1.7571038 -0.97007996
-7.6916084 1.805465 -0.97007996
-7.6801124 1.8537589 -0.97007996
-7.6081195 1.9378718 -0.96398652
-7.6053967 1.9881448 -0.96520519
-5.2343988 1.4035326 -0.66540658
-5.0340676 1.3837769 -0.64103276
-4.8437524 1.3642548 -0.61787754
-4.6729622 1.3478969 -0.59715974
-4.5501699 1.3435044 -0.58253545
-4.5607023 1.3776077 -0.58497286
-4.5615625 1.4087685 -0.58619153
-4.5432191 1.4342138 -0.58497286
-4.5530095 1.4688271 -0.58741021
-4.4664292 1.822034 -0.59228498
-4.5008073 1.8688971 -0.59837848
-4.4889755 1.8971407 -0.59837848
-4.5042367 1.9372673 -0.60203457
-4.9956894 2.4139354 -0.68124962
-4.9982433 2.4540241 -0.68368703
-4.9331446 2.9864416 -0.70806086
-4.9311991 3.0277665 -0.71049827
-4.9036527 3.0534425 -0.70927954
-4.8741093 3.5243773 -0.73852819
-4.8757329 3.5727429 -0.74218428
-1.1785991 1.5726023 -0.2413013
-1.1687635 1.5799258 -0.2413013
-1.1706592 1.6031682 -0.24373868
1.0670456 1.3453114 -0.21083397
1.0879104 1.3540554 -0.21327135
1.0963967 1.3471932 -0.21327135
2.3053172 0.9179799 -0.30467334
2.3388119 0.9142167 -0.30832943
2.3723104 0.91016954 -0.31198552
2.3965209 0.90234476 -0.31442291
2.9243014 0.95693916 -0.37779495
2.9775183 0.95368433 -0.38388842
3.0308082 0.94979787 -0.3899819
3.0746751 0.9423703 -0.39485666
4.2604184 1.0464594 -0.53866249
4.3344851 1.0358186 -0.54719335
4.3989153 1.0220413 -0.55450553
4.4052067 0.99457455 -0.55450553
4.2930984 0.8011052 -0.53622508
4.3859615 0.78994942 -0.54719335
4.4459352 0.60052192 -0.55084944
4.4594145 0.57423127 -0.55206811
4.4629107 0.54639566 -0.55206811
4.4563966 0.51719946 -0.55084944
4.439847 0.48683056 -0.54841202
4.9917789 0.32630345 -0.61422145
5.1423535 0.30371067 -0.6325019
6.4300475 -1.8459121 -0.82139933
6.1423206 -1.8045799 -0.78605723
6.1214361 -1.8400133 -0.78483856
6.1192417 -1.8813548 -0.78605723
5.8136911 -1.827752 -0.74827778
5.6318402 -1.8100833 -0.72634125
5.8183055 -1.9107111 -0.75193381
4.7120662 -1.6795131 -0.61422145
4.5802989 -1.6646035 -0.59837848
3.0709743 -1.623939 -0.4265427
3.0257306 -1.624423 -0.42166793
2.8200946 -1.6065969 -0.39851275
2.7068272 -1.5646776 -0.38388842
2.7055044 -1.5866752 -0.38510713
2.6698916 -1.5884185 -0.38145104
2.6344342 -1.5896626 -0.37779495
2.5906694 -1.5852327 -0.37292019
2.5385592 -1.5752002 -0.36682671
2.5034096 -1.575261 -0.36317062
2.4683607 -1.5749428 -0.35951456
2.425082 -1.5688558 -0.35463977
2.3902779 -1.5677315 -0.35098371
2.3473196 -1.5607368 -0.34610894
2.3127754 -1.5588124 -0.34245285
2.2783492 -1.5565159 -0.33879676
2.2358837 -1.5481989 -0.333922
2.2098629 -1.5508138 -0.33148462
2.1758099 -1.5474107 -0.32782853
2.1338356 -1.5378385 -0.32295376
2.1081669 -1.539416 -0.32051638
2.07465 -1.53474 -0.31686029
2.0491488 -1.5357498 -0.31442291
2.0236492 -1.53659 -0.31198552
1.9903537 -1.531119 -0.30832943
1.9650364 -1.5313921 -0.30589205
-3.1648955 -0.96503973 0.52405542
-3.2276888 -0.96206295 0.53344154
-4.9402318 -0.75574231 0.79155838
-5.0621891 -0.741624 0.81033051
-5.2330961 -0.73264182 0.83692437
-5.2767477 -0.7050364 0.84318173
-5.2614193 -0.669833 0.84005308
-5.2753053 -0.63814819 0.84161741
-5.4165878 -0.62073469 0.86351824
-8.9023695 -0.90701842 1.4172962
-8.4162874 -0.80409503 1.339079
-7.9096069 -0.70556688 1.2577331
-7.9138842 -0.65585357 1.2577331
-7.9178486 -0.60611856 1.2577331
-7.9116483 -0.55566347 1.2561687
-7.875556 -0.50342423 1.2499113
-7.8785415 -0.45431909 1.2499113
-7.8713412 -0.40498689 1.248347
-7.8638501 -0.35537601 1.2467827
-7.8560586 -0.3055774 1.2452183
-7.8479519 -0.25588658 1.243654
-7.879025 -0.20735323 1.248347
-7.8702974 -0.15764412 1.2467827
-7.8612566 -0.10805706 1.2452183
-7.8420272 -0.058511958 1.2420896
-7.8323631 -0.0092285862 1.2405252
-7.8223896 0.039935205 1.238961
-7.812108 0.088969141 1.2373966
-7.8311458 0.13840321 1.2405252
-7.8202477 0.18736611 1.238961
-7.7893105 0.23521864 1.234268
-7.7975736 0.28383654 1.2358322
-7.7857809 0.3321065 1.234268
-7.7835407 0.38101712 1.234268
-7.7711315 0.42937198 1.2327036
-7.7781386 0.4787955 1.234268
-7.7552681 0.52632183 1.2311392
-7.7616577 0.57576758 1.2327036
-7.7480421 0.62373346 1.2311392
-7.7439699 0.67240119 1.2311392
-7.7395921 0.72104657 1.2311392
-7.7447376 0.77063727 1.2327036
-7.7397828 0.81890213 1.2327036
-7.7247453 0.86574262 1.2311392
-7.6799545 0.90932196 1.2248819
-7.7132931 0.96244806 1.2311392
-7.7364721 1.0147485 1.2358322
-7.7201595 1.0619898 1.234268
-7.7133341 1.1104778 1.234268
-7.7062049 1.1589179 1.234268
-7.718286 1.2103767 1.2373966
-7.7007813 1.2572545 1.2358322
-7.6829915 1.3039643 1.234268
-7.6843743 1.3539237 1.2358322
-7.6757154 1.4021811 1.2358322
-7.6764588 1.4522151 1.2373966
-7.6671824 1.5004208 1.2373966
-7.6576042 1.5485632 1.2373966
-7.6573911 1.5986671 1.238961
-7.6471958 1.6467462 1.238961
-7.6463399 1.6969041 1.2405252
-7.6451564 1.747112 1.2420896
-7.6340275 1.7951152 1.2420896
-7.6225982 1.8430436 1.2420896
-7.6204524 1.8932847 1.243654
-7.6179771 1.9435674 1.2452183
-7.6056147 1.9913961 1.2452183
-5.2082314 1.3987079 0.85413218
-5.0088878 1.3789734 0.82284528
-4.8480301 1.367514 0.79781574
-4.6590524 1.3458688 0.76809323
-4.5368466 1.3415068 0.7493211
-4.5567575 1.3783418 0.75401413
-4.5670013 1.4123857 0.75714278
-4.5675092 1.4438565 0.75870717
-4.5677462 1.4755613 0.76027149
-4.4532213 1.626343 0.75088543
-4.4706826 1.6646316 0.75557846
-4.7547545 1.9418013 0.81345922
-4.4871678 1.8653018 0.76965755
-4.4662638 1.8896089 0.76809323
-4.499567 1.9373833 0.77591491
-7.441895 3.4851975 1.3015348
-7.4378214 3.5400944 1.3046634
-7.4332151 3.5953567 1.3077921
-7.4370699 3.655061 1.3124851
-1.7310268 1.6194409 0.37544271
-1.7208978 1.6302005 0.37544271
2.2290375 1.193572 0.40047222
2.2801743 1.202581 0.40829393
2.3001206 0.89805162 0.39108616
2.3426094 0.8977192 0.39734355
2.3758943 0.89352816 0.40203658
2.4091833 0.88904834 0.40672961
2.8821979 0.94190854 0.48025379
2.9256885 0.93581688 0.48651117
4.4162707 1.0242461 0.71803421
4.4129348 0.99452358 0.71646982
4.4286604 0.96927398 0.71803421
4.2870345 0.77039385 0.68987596
4.3793778 0.75861484 0.70395505
5.1052127 0.71999025 0.81658787
5.2662182 0.709243 0.84161741
4.4510851 0.54317385 0.71021247
4.464222 0.51633108 0.71177679
4.467402 0.48805198 0.71177679
4.4704204 0.45958307 0.71177679
4.9595447 0.2909596 0.78686535
5.1388159 0.26908901 0.81502354
12.039812 -2.5004475 1.9476091
11.309193 -2.4229319 1.8318475
10.647562 -2.351248 1.7270365
10.064352 -2.2888734 1.6347401
9.5496874 -2.2350237 1.5533942
9.1705542 -2.2071576 1.4939492
9.1373301 -2.2599912 1.4908204
6.4621482 -1.9012629 1.0668831
6.1380448 -1.8476341 1.0152596
6.1357546 -1.8890693 1.016824
6.1330905 -1.9308507 1.0183884
4.6964631 -1.7088797 0.79155838
4.5653162 -1.6935188 0.77122188
-1.019819 -1.1989188 -0.13770607
-1.040336 -1.2075822 -0.13944918
-1.0479029 -1.2010218 -0.13944918
-1.0422356 -1.1794838 -0.13770607
-4.9633818 -0.75728989 -0.43926492
-5.1257982 -0.74885988 -0.45320985
-5.2730947 -0.70247006 -0.46541166
-5.2674632 -0.66852981 -0.46454009
-5.2616487 -0.63440055 -0.46366856
-5.3645067 -0.61263287 -0.47238412
-7.8939033 -0.85128027 -0.69463128
-8.3252707 -0.84491879 -0.73210824
-7.9039774 -0.7520178 -0.69463128
-7.908546 -0.70234317 -0.69463128
-7.9028749 -0.65181768 -0.69375968
-7.9068141 -0.60215193 -0.69375968
-7.9005041 -0.55176419 -0.69288814
-7.9137564 -0.50274688 -0.69375968
-7.7160592 0.91666842 -0.67981476
-7.7892261 0.97502822 -0.68678725
-7.8323302 1.0304492 -0.691145
-7.8059645 1.0769155 -0.68940192
-7.7990437 1.1259425 -0.68940192
-7.7819648 1.1734353 -0.68853039
-7.7842789 1.2238568 -0.68940192
-7.7764359 1.2727404 -0.68940192
-7.7682853 1.3215779 -0.68940192
-7.7598286 1.3703591 -0.68940192
-7.7608638 1.4208844 -0.69027346
-7.7517834 1.4696169 -0.69027346
-7.7326207 1.5163785 -0.68940192
-7.7424679 1.5688887 -0.691145
-7.7227058 1.6154672 -0.69027346
-7.7221417 1.6660571 -0.691145
-7.7212453 1.7167078 -0.6920166
-7.7103071 1.7651856 -0.6920166
-7.6990633 1.8135979 -0.6920166
-7.6003785 1.8408294 -0.68417257
-8.1686869 2.0328972 -0.73646599
-7.6249056 1.9485233 -0.68853039
-7.6221476 1.9989225 -0.68940192
-5.2236724 1.4050534 -0.47325566
-5.0130658 1.3822408 -0.45495296
-4.8317208 1.3649614 -0.43926492
-4.6507969 1.3454623 -0.42357689
-4.5467324 1.3463711 -0.41486132
-4.5573263 1.3804405 -0.41660443
-4.5582018 1.4115984 -0.417476
-4.5682845 1.4460742 -0.41921911
-4.5685873 1.4778137 -0.42009068
-4.4906511 1.8359729 -0.42444846
-4.5066795 1.8754879 -0.42706314
-4.5131536 1.9115363 -0.42880625
-4.5100961 1.9440445 -0.42967781
-4.5067425 1.9767393 -0.43054935
-4.8394413 4.0428138 -0.55169582
-4.8215499 4.0795741 -0.55256742
-4.8109498 4.1227541 -0.5543105
-1.5129408 1.6266947 -0.19435731
-1.4892136 1.6214941 -0.19261418
-1.4656997 1.6159804 -0.19087107
-1.4423652 1.6101905 -0.18912795
-1.0774393 1.580355 -0.16733903
-1.0674889 1.5870934 -0.16733903
-1.0464798 1.5771676 -0.1655959
-1.03655 1.5837115 -0.1655959
-1.0211754 1.5818238 -0.16472435
-1.0058665 1.5798054 -0.1638528
2.1148586 1.2183089 -0.21353157
2.1397982 1.2148336 -0.21527468
2.1300011 1.1916374 -0.21353157
2.224689 1.2263217 -0.22224714
2.2586131 1.2265821 -0.22486182
2.2838435 1.2217648 -0.22660492
2.3145242 0.91951162 -0.21788935
2.348129 0.9157334 -0.22050403
2.3817475 0.91164505 -0.22311869
2.4153569 0.90730143 -0.22573337
2.4583209 0.90609992 -0.2292196
2.8541203 0.95137662 -0.26321033
2.9168637 0.95196986 -0.26843968
2.9702353 0.94878018 -0.27279747
4.3803062 1.0431327 -0.39394394
4.4061842 1.0200837 -0.39568707
4.4124527 0.9926191 -0.39568707
4.2997155 0.79884607 -0.38261372
4.3830943 0.78587949 -0.38958615
4.4824901 0.60192448 -0.39568707
4.4663711 0.57161105 -0.39394394
4.4698563 0.54368323 -0.39394394
4.4731841 0.51558775 -0.39394394
4.4664588 0.48614952 -0.3930724
4.9905019 0.32228404 -0.43752182
5.1416044 0.29961446 -0.45059517
10.636165 -2.2831082 -0.95174068
10.028278 -2.2186248 -0.89857566
9.5187759 -2.1687279 -0.85412627
9.1654987 -2.1489041 -0.82362175
9.1518154 -2.2064497 -0.82362175
6.4331012 -1.8521826 -0.58568656
6.1443834 -1.8103571 -0.56041139
6.1329479 -1.8487265 -0.56041139
6.1307311 -1.8901585 -0.56128299
5.7955952 -1.8271352 -0.53165001
5.6510944 -1.8212376 -0.51944822
5.6584034 -1.8631243 -0.52119136
4.7093182 -1.6826458 -0.43752182
4.5864806 -1.6708722 -0.42706314
2.8118899 -1.6048491 -0.28325617
2.7155433 -1.5725623 -0.27454057
2.7056091 -1.5895935 -0.27454057
2.6613386 -1.5861611 -0.27105436
2.6258309 -1.5872468 -0.26843968
2.5819728 -1.582661 -0.26495346
2.5381877 -1.577732 -0.26146722
2.4945147 -1.5724001 -0.257981
2.4594042 -1.5719475 -0.25536633
2.416039 -1.5656986 -0.25188008
2.3811765 -1.5644379 -0.24926542
2.3381348 -1.5572792 -0.24577919
2.3035347 -1.5552166 -0.24316452
2.2690542 -1.552781 -0.24054985
2.2265103 -1.544297 -0.23706362
2.2004635 -1.5467982 -0.23532051
2.1663601 -1.5432535 -0.23270583
2.1404665 -1.545173 -0.23096271
2.1066782 -1.5408323 -0.22834805
2.0810828 -1.5419937 -0.22660492
2.0475032 -1.5370293 -0.22399026
2.0219471 -1.5378025 -0.22224714
1.9885714 -1.5322354 -0.21963246
1.9631993 -1.5324402 -0.21788935
-3.2781951 -4.4371061 1.0723466
-3.3060083 -4.4164219 1.0723466
-1.1670833 -1.178996 0.32246721
-1.1883346 -1.1855379 0.32628337
-1.1957598 -1.1780483 0.32628337
-1.2312815 -1.1978923 0.33391574
-1.2104688 -1.1629293 0.32628337
-1.2462372 -1.1823254 0.33391574
-2.347822 -1.0498629 0.49991956
-2.3903167 -1.0508933 0.50755191
-2.4419265 -1.0553248 0.51709235
-2.4756143 -1.0514735 0.52281666
-2.5092864 -1.0473903 0.52854091
-2.5429738 -1.0429982 0.53426516
-2.5858693 -1.0417421 0.54189754
-2.6014919 -1.0290849 0.5438056
-2.6536591 -1.030486 0.5533461
-2.6875994 -1.0242798 0.55907035
-2.7307601 -1.0211256 0.56670272
-2.7832015 -1.0208491 0.57624316
-2.7987978 -1.0066639 0.57815123
-2.8235829 -0.99558723 0.58196741
-2.8761129 -0.99402887 0.59150785
-2.9194064 -0.98878598 0.59914023
-5.2404504 -0.72941726 1.0284605
-5.2643685 -0.69923306 1.0322766
-5.2491231 -0.66413689 1.0284605
-5.2531748 -0.63128686 1.0284605
-5.3935843 -0.61380583 1.0551738
-8.5596056 -0.91967082 1.6733949
-8.1647892 -0.82538944 1.5951632
-7.896184 -0.74814874 1.5417366
-7.9105072 -0.69938344 1.5436448
-7.9147453 -0.64966881 1.5436448
-7.9088831 -0.59918272 1.5417366
-7.8831134 -0.54744011 1.5360124
-7.8863974 -0.4978964 1.5360124
-7.8795428 -0.44825453 1.5341043
-7.872365 -0.39892691 1.5321962
-7.8550935 -0.34880084 1.52838
-7.8571301 -0.29943711 1.52838
-7.8490448 -0.24975353 1.526472
-7.8504591 -0.20042975 1.526472
-7.8417492 -0.15091336 1.5245638
-7.8425426 -0.10163737 1.5245638
-7.8233943 -0.052230481 1.5207477
-7.8235679 -0.0030717703 1.5207477
-7.8234329 0.046082895 1.5207477
-7.8131733 0.095120408 1.5188396
-7.8026071 0.14402665 1.5169315
-7.801548 0.19305088 1.5169315
-7.7903838 0.24128996 1.5150234
-7.7887392 0.2895551 1.5150234
-7.7867756 0.33827364 1.5150234
-7.7844963 0.38719454 1.5150234
-7.772109 0.43554679 1.5131153
-7.7692189 0.48437363 1.5131153
-7.7562294 0.53250486 1.5112072
-7.7625189 0.58196384 1.5131153
-7.7489252 0.62992805 1.5112072
-7.7448144 0.67860538 1.5112072
-7.7403979 0.72725177 1.5112072
-7.7356753 0.7758736 1.5112072
-7.7306976 0.82399535 1.5112072
-7.7156892 0.87077868 1.5092992
-7.7295856 0.92135257 1.5131153
-7.7333832 0.97112566 1.5150234
-7.7271295 1.0196944 1.5150234
-7.7302933 1.0695726 1.5169315
-7.7234206 1.11812 1.5169315
-7.7065368 1.1651599 1.5150234
-7.6893673 1.2120279 1.5131153
-7.7009735 1.2634981 1.5169315
-7.692883 1.3118575 1.5169315
-7.6844883 1.3601693 1.5169315
-7.6854458 1.4101948 1.5188396
-7.6667895 1.4566256 1.5169315
-7.6671185 1.5066593 1.5188396
-7.66712 1.5567585 1.5207477
-7.6571879 1.6048994 1.5207477
-7.6469522 1.652981 1.5207477
-7.6459975 1.7031276 1.5226557
-7.6351452 1.751137 1.5226557
-7.6335459 1.8013277 1.5245638
-7.6316161 1.8515714 1.526472
-7.6293573 1.9018577 1.52838
-7.6172566 1.9497586 1.52838
-7.6143503 2.0000725 1.5302881
-5.1751761 1.3941907 1.0418171
-4.9865346 1.3770319 1.0055634
-4.7983189 1.3575622 0.96930969
-4.6199813 1.3385129 0.93496406
-4.5456014 1.3479798 0.92160743
-4.5465188 1.379089 0.9235155
-4.5472622 1.4101405 0.92542362
-4.538352 1.4385594 0.92542362
-4.5572391 1.4761219 0.93114787
-4.7422495 1.9409809 0.99602294
-4.4762974 1.864906 0.94259644
-4.4825659 1.9006596 0.94641262
-4.4974585 1.9407222 0.95213687
-4.4939923 1.9732792 0.95404494
-7.4290876 3.4862175 1.5951632
-7.4248538 3.5410748 1.5989794
-1.8628159 1.5976127 0.47702247
-1.8379186 1.5964118 0.47320631
-1.8278524 1.6079278 0.47320631
-1.7957245 1.5997919 0.46748203
-1.7710611 1.5978912 0.46366584
-1.7392454 1.589124 0.45794159
-1.7148166 1.5866866 0.4541254
-1.7263021 1.6175659 0.45984969
-1.5437349 1.5795779 0.42932025
-1.5269625 1.5821834 0.42741215
-1.523764 1.5988519 0.42932025
2.116452 1.1829662 0.47129822
2.1324415 1.1743803 0.47320631
2.1829188 1.184365 0.48274675
2.2509191 1.203015 0.49610338
2.2671196 1.193421 0.49801147
2.2775588 0.88718194 0.47511441
2.3105953 0.88337046 0.48083866
2.3620014 0.88621557 0.4903791
2.413506 0.88852054 0.49991956
2.4374831 0.88007182 0.50373572
2.8652449 0.93387836 0.5857836
2.9178159 0.93077338 0.59532404
4.4186602 1.0211439 0.88153756
4.4153514 0.99147511 0.87962943
4.4310007 0.96619076 0.88153756
4.2903147 0.76750553 0.84719193
4.3627672 0.75220877 0.86054856
4.9772325 0.69795424 0.97694206
5.1468801 0.68911225 1.0093796
4.5083871 0.57521403 0.88344562
4.4534278 0.53991038 0.87199712
4.44698 0.51079798 0.87008899
4.4403715 0.48152131 0.86818093
4.4531145 0.45422024 0.87008899
4.948935 0.28643721 0.96358544
5.1368985 0.26494336 0.99983913
9.5275612 -2.2377391 1.9023657
9.0553007 -2.1869435 1.8107773
8.6221809 -2.1397636 1.7268214
8.2471018 -2.1017764 1.6543139
7.8634806 -2.0562088 1.5798985
6.4398565 -1.9001245 1.3051335
6.1271257 -1.8495965 1.2440746
5.9090362 -1.8243502 1.2020967
5.7475715 -1.8145113 1.1715672
5.642477 -1.8209413 1.1524863
5.6495194 -1.8626583 1.1563025
5.6190982 -1.8918539 1.1524863
5.5978169 -1.9239316 1.1505783
5.5856185 -1.9590657 1.1505783
4.6755476 -1.7053708 0.96740156
4.5635791 -1.6969529 0.94641262
-1.0004355 -1.2201192 -0.082690813
-1.0038263 -1.1782411 -0.081120729
-1.0373052 -1.2021536 -0.083214171
-1.0251242 -1.1730536 -0.081644088
-2.8130431 -0.97101182 -0.15596114
-2.837925 -0.95996386 -0.15700787
-5.0156007 -0.76122558 -0.26586667
-5.1191578 -0.74372685 -0.27110025
-5.2919474 -0.73443598 -0.27999735
-5.2766266 -0.69878203 -0.27895063
-5.2709475 -0.6648246 -0.27842727
-5.2750068 -0.63180989 -0.27842727
-5.4674034 -0.62003279 -0.28837112
-7.9237943 -0.84821093 -0.41764092
-8.2667933 -0.83242297 -0.43543515
-7.9040008 -0.74575889 -0.41607085
-7.9085307 -0.69608003 -0.41607085
-7.9227014 -0.64719093 -0.41659421
-7.9166532 -0.59664601 -0.41607085
-7.9003205 -0.54551893 -0.41502413
-11.007315 -0.62191248 -0.57778895
-11.020931 -0.55419999 -0.57831228
-7.7242789 0.9237954 -0.40769708
-7.8273096 0.98604178 -0.41345406
-7.8407598 1.0378212 -0.41450077
-7.834084 1.0870675 -0.41450077
-7.8270993 1.1362667 -0.41450077
-7.8099318 1.1839285 -0.41397741
-7.8023391 1.2329741 -0.41397741
-7.7944379 1.281975 -0.41397741
-7.7862296 1.3309214 -0.41397741
-7.7777133 1.3798193 -0.41397741
-7.7688904 1.4286585 -0.41397741
-7.7695704 1.4793134 -0.41450077
-7.7601223 1.5280995 -0.41450077
-7.7503676 1.5768294 -0.41450077
-7.7500806 1.6275454 -0.41502413
-7.7397013 1.6762103 -0.41502413
-7.7290168 1.7248049 -0.41502413
-7.7277594 1.7755717 -0.41554749
-7.7261696 1.8263867 -0.41607085
-7.5786877 1.8418803 -0.4087438
-8.0901613 2.0201013 -0.43700522
-7.6226578 1.95433 -0.41240734
-7.6198864 2.0047245 -0.4129307
-5.1967659 1.4021951 -0.28209081
-5.0049791 1.3842402 -0.27214697
-4.8136296 1.3639351 -0.26220313
-4.6515131 1.3496279 -0.25382939
-4.5472102 1.3503993 -0.24859579
-4.5960579 1.3960593 -0.25173596
-4.5777826 1.4215484 -0.2512126
-4.5687923 1.4501823 -0.2512126
-4.5595899 1.4788613 -0.2512126
-4.502275 1.8122981 -0.25435275
-4.5094409 1.8477323 -0.25539947
-4.525434 1.8874623 -0.25696954
-4.5410624 1.9275661 -0.25853962
-4.5287337 1.9563557 -0.25853962
-4.9799666 2.6523569 -0.29569814
-4.9632039 2.683593 -0.29569814
-4.95012 3.0073531 -0.30354854
-4.9566312 3.0541131 -0.30511862
-4.7344255 4.7278175 -0.35065091
-4.7467561 4.800077 -0.35379106
-4.7513895 4.8655286 -0.35640785
-4.7415199 4.916853 -0.35797793
-1.4613237 1.6136653 -0.11409238
-1.4512973 1.6226888 -0.11409238
-1.4080561 1.5943184 -0.11147559
-1.3914472 1.5956079 -0.11095223
-1.3813947 1.6043186 -0.11095223
-1.3518819 1.5901419 -0.10938215
-1.3418645 1.5986042 -0.10938215
-1.3317932 1.6070042 -0.10938215
1.6171184 1.2715758 -0.10781207
1.632937 1.2675489 -0.10833543
1.6487958 1.2633377 -0.10885879
1.6726308 1.2650007 -0.1099055
1.6965511 1.2664138 -0.11095223
2.3209147 0.91991085 -0.13083988
2.3545885 0.91612238 -0.13240996
2.3882859 0.9119975 -0.13398005
2.4219639 0.90764362 -0.13555013
2.4556592 0.90295941 -0.1371202
2.8902733 0.96090579 -0.15962467
2.9247415 0.95199949 -0.16119474
2.9782412 0.94876003 -0.16381153
4.2881794 1.0461384 -0.23132493
4.4501309 1.0560683 -0.23969868
4.4566784 1.0280865 -0.23969868
4.4532404 0.99817193 -0.23917532
4.320672 0.79922903 -0.23027821
4.4239173 0.78961277 -0.23551179
5.325963 0.77887285 -0.28209081
5.0538297 0.70667189 -0.26743674
4.4642167 0.59595132 -0.23603515
4.4777298 0.5695405 -0.23655851
4.4812083 0.54149228 -0.23655851
4.4746003 0.51218981 -0.23603515
4.4777617 0.48377231 -0.23603515
5.0129175 0.31977779 -0.26324984
5.1544056 0.29629809 -0.27057689
14.660664 0.75037187 -0.76933855
14.665046 0.65920264 -0.76933855
14.668849 0.5683282 -0.76933855
14.652188 0.47486261 -0.76829183
14.654917 0.38151306 -0.76829183
14.647046 0.28891137 -0.76776844
14.638587 0.1967418 -0.76724511
14.030386 0.10040232 -0.73532015
14.020753 0.012236541 -0.73479682
14.050517 -0.075101718 -0.73636687
14.049782 -0.16215454 -0.73636687
14.028522 -0.24976783 -0.73532015
14.006709 -0.33742526 -0.73427343
14.004313 -0.4254249 -0.73427343
13.991383 -0.51304185 -0.7337501
13.977906 -0.6005131 -0.73322672
17.006014 -0.83768511 -0.89232802
17.0403 -0.94673359 -0.89442146
17.034014 -1.0537817 -0.89442146
17.037096 -1.1603514 -0.89494485
17.039539 -1.2666279 -0.89546818
17.02132 -1.3724927 -0.89494485
17.002411 -1.4785479 -0.89442146
17.002729 -1.5862752 -0.89494485
16.992428 -1.6930747 -0.89494485
16.981453 -1.7998073 -0.89494485
16.96981 -1.9064689 -0.89494485
16.957497 -2.0130551 -0.89494485
16.964331 -2.122041 -0.89599156
16.940762 -2.2272868 -0.89546818
16.926434 -2.3336844 -0.89546818
16.911596 -2.4388819 -0.89546818
16.89616 -2.5436158 -0.89546818
16.889769 -2.6509068 -0.89599156
16.87278 -2.7569754 -0.89599156
16.864969 -2.8646076 -0.89651489
16.856472 -2.9722502 -0.89703828
16.837463 -3.0781035 -0.89703828
12.896996 -2.5256152 -0.68874115
12.039113 -2.436259 -0.64373225
11.309975 -2.362777 -0.60552698
10.640836 -2.2928557 -0.57046193
10.031541 -2.2276137 -0.53853697
9.5305948 -2.1792972 -0.51236898
9.1764841 -2.1590855 -0.49405143
9.1336184 -2.2096555 -0.49248135
9.0904808 -2.2597725 -0.49091128
9.1438351 -2.3341346 -0.49457479
6.4665732 -1.8672441 -0.35274434
6.1579938 -1.8195513 -0.3365202
6.1464801 -1.8580729 -0.3365202
6.1537657 -1.9025549 -0.33756691
5.7797346 -1.827196 -0.31767926
5.6729531 -1.8332708 -0.31244564
5.9173193 -1.95353 -0.32657635
5.914391 -1.9938611 -0.32709971
2.8088291 -1.606028 -0.16956849
2.7036657 -1.5685209 -0.16381153
2.7023633 -1.5905429 -0.16433489
2.6580193 -1.5870132 -0.16224146
2.6310158 -1.5931643 -0.16119474
2.587054 -1.5885333 -0.15910131
2.5431483 -1.5835863 -0.15700787
2.4993727 -1.5782069 -0.15491442
2.4641769 -1.5777255 -0.15334435
2.4290867 -1.5768648 -0.15177427
2.3857636 -1.5701361 -0.14968084
2.3509297 -1.5684683 -0.14811075
2.3162119 -1.5664252 -0.14654067
2.2898505 -1.5696549 -0.14549395
2.247138 -1.5612196 -0.14340052
2.2209539 -1.5638093 -0.1423538
2.1785684 -1.5545311 -0.14026035
2.1525733 -1.5564858 -0.13921364
2.1186862 -1.5521349 -0.13764356
2.0849714 -1.5473777 -0.13607349
2.0592785 -1.5483992 -0.13502677
2.0336213 -1.5492043 -0.13398005
-3.1790588 -4.4107132 1.2552269
-3.2526836 -4.4535999 1.2732229
-3.2516215 -4.3939133 1.2619754
-3.3200803 -4.4279671 1.277722
-3.3714128 -4.4380546 1.28672
-1.3030212 -1.1884676 0.40716141
-1.3103791 -1.1803499 0.40716141
-1.2812679 -1.1398267 0.39591384
-1.2664245 -1.1124834 0.38916531
-1.9771713 -1.1157845 0.52413595
-2.0011742 -1.1128104 0.52863497
-2.0423076 -1.1189418 0.537633
-2.0577934 -1.1108613 0.53988254
-2.0818419 -1.107241 0.54438156
-2.1146333 -1.1077373 0.55113006
-2.1302109 -1.0988959 0.5533796
-2.154448 -1.0943148 0.55787861
-2.1961408 -1.098188 0.56687665
-2.2117395 -1.0886707 0.56912613
-2.236074 -1.0832486 0.57362521
-2.2604268 -1.0775634 0.57812423
-2.284796 -1.0716145 0.58262324
-2.3091788 -1.0654017 0.58712226
-2.3513188 -1.066977 0.5961203
-2.3935685 -1.0680642 0.60511833
-2.4180777 -1.060833 0.60961735
-2.4515371 -1.057194 0.61636585
-2.485045 -1.053176 0.62311441
-2.5185239 -1.0489566 0.62986296
-2.5520279 -1.0444037 0.63661146
-2.5946856 -1.0429261 0.6456095
-2.6011872 -1.0266026 0.6456095
-2.6530147 -1.0278387 0.65685707
-2.6776354 -1.0180748 0.66135609
-2.7022378 -1.0080417 0.66585511
-2.7542701 -1.0077839 0.67710268
-2.8064041 -1.0069113 0.6883502
-2.8402505 -0.99895692 0.69509876
-2.8740366 -0.99082023 0.70184726
-2.926276 -0.98858714 0.71309483
-5.2408714 -0.7933107 1.2237337
-5.2554498 -0.76138985 1.2259833
-5.2601933 -0.72789598 1.2259833
-5.2646251 -0.69511843 1.2259833
-5.2494955 -0.66005391 1.2214842
-5.2535291 -0.62714285 1.2214842
-5.4219608 -0.61272371 1.2597259
-8.555172 -0.91239619 1.9863178
-7.9499474 -0.79736596 1.8445987
-7.896595 -0.74192858 1.8311015
-7.9205136 -0.6940015 1.8356006
-7.9247179 -0.64421988 1.8356006
-7.9188924 -0.59368861 1.833351
-7.8835831 -0.54124963 1.824353
-7.8771033 -0.49110097 1.8221035
-7.8897305 -0.44270441 1.824353
-7.872859 -0.3928394 1.819854
-7.8751664 -0.34349319 1.819854
-7.8674321 -0.29364422 1.8176045
-7.8399048 -0.24329734 1.810856
-7.8315377 -0.19379425 1.8086065
-7.8423429 -0.1447614 1.810856
-7.8333549 -0.095367365 1.8086065
-7.8337994 -0.046145216 1.8086065
-7.8436785 0.003078405 1.810856
-7.824017 0.052233379 1.8063569
-7.8332777 0.10151604 1.8086065
-7.8130012 0.15035886 1.8041074
-7.8119025 0.1994441 1.8041074
-7.8105125 0.24796818 1.8041074
-7.7990894 0.29598838 1.8018579
-7.7970815 0.34485877 1.8018579
-7.7752986 0.39285678 1.7973589
-7.7726765 0.44170448 1.7973589
-7.7697477 0.49053064 1.7973589
-7.7665124 0.53934157 1.7973589
-7.7629704 0.58812702 1.7973589
-7.7688327 0.63769054 1.7996083
-7.7549667 0.68563056 1.7973589
-7.7505059 0.73434472 1.7973589
-7.745739 0.7830258 1.7973589
-7.7407255 0.83112758 1.7973589
-7.7257457 0.8779735 1.7951094
-7.7491145 0.92985541 1.8018579
-7.7431192 0.97852391 1.8018579
-7.7368183 1.0271579 1.8018579
-7.7302117 1.0757471 1.8018579
-7.7136579 1.1228944 1.7996083
-7.7064505 1.1713363 1.7996083
-7.6989384 1.2197361 1.7996083
-7.691123 1.2680836 1.7996083
-7.6830034 1.3163851 1.7996083
-7.6841741 1.3663363 1.8018579
-7.6754375 1.4145923 1.8018579
-7.6759691 1.4646145 1.8041074
-7.6666145 1.5128169 1.8041074
-7.6569586 1.5609555 1.8041074
-7.6565342 1.611043 1.8063569
-7.6462612 1.6591163 1.8063569
-7.6451941 1.7092541 1.8086065
-7.634304 1.7572542 1.8086065
-7.6420751 1.8096796 1.8131055
-7.6305542 1.8576583 1.8131055
-7.618731 1.9055675 1.8131055
-7.6160455 1.9558212 1.8153549
-7.613028 2.0061202 1.8176045
-5.1358285 1.3879161 1.2282327
-4.9485936 1.3707398 1.185492
-4.7617855 1.3512647 1.1427513
-4.5847807 1.3322197 1.1022601
-4.5296226 1.3471113 1.0910126
-4.5491328 1.3837301 1.0977612
-4.540472 1.4118903 1.0977612
-4.5315347 1.4403173 1.0977612
-4.5409303 1.4747795 1.1022601
-4.4546776 1.6348097 1.0955117
-4.4534431 1.6661824 1.0977612
-4.4519911 1.6976016 1.1000106
-4.4321542 1.722013 1.0977612
-4.4212475 1.7498257 1.0977612
-4.4916296 1.8100343 1.1180067
-4.4803281 1.8378301 1.1180067
-4.495697 1.8771346 1.1247553
-4.4838142 1.9053434 1.1247553
-4.4716167 1.9337963 1.1247553
-4.4770441 1.9700913 1.1292542
-4.4556503 1.9942766 1.1270047
-4.4607692 2.0303044 1.1315038
-7.4508405 3.503469 1.9008363
-7.4551125 3.5626976 1.9075849
-7.4413462 3.6137235 1.9098344
-7.4447064 3.6733437 1.9165829
-7.4389019 3.7287779 1.921082
-7.4413748 3.7887087 1.9278305
-1.7122785 1.6069521 0.54213202
-1.6810731 1.5974222 0.53538352
-1.6500782 1.5875412 0.52863497
-1.6260263 1.5843674 0.52413595
-1.6089653 1.5878493 0.52188641
-1.59893 1.597954 0.52188641
-1.2262578 1.5395491 0.45440114
-1.2105383 1.5395637 0.45215163
-1.2068157 1.5548362 0.45440114
-1.197023 1.5623877 0.45440114
2.29774 0.89296502 0.56912613
2.3215132 0.88545507 0.57362521
2.3634706 0.88467932 0.58262324
2.4054921 0.88345498 0.59162128
2.4384828 0.87826824 0.59836978
2.8725889 0.9337765 0.69734824
2.9062548 0.92457086 0.70409679
4.4057784 1.0145221 1.0437728
4.4310131 0.99138796 1.0482719
4.4370704 0.96391463 1.0482719
4.287972 0.76361096 1.0055312
4.3791151 0.75148582 1.0257767
4.9313283 0.68756849 1.1494999
5.1383333 0.68391764 1.1967396
4.4851637 0.5687207 1.0437728
4.4499445 0.53594166 1.0347748
4.4435434 0.50686711 1.0325253
4.4369864 0.47757989 1.0302758
4.4593272 0.45126638 1.0347748
