# .PCD v0.7 - Point Cloud Data file format
VERSION 0.7
FIELDS x y z
SIZE 4 4 4
TYPE F F F
COUNT 1 1 1
WIDTH 1486
HEIGHT 1
VIEWPOINT 0 0 0 1 0 0 0
POINTS 1486
DATA ascii
-9.4022894 -0.18340556 0.82275021
-8.915163 -0.11787493 0.7800439
-8.9157276 -0.06185488 0.7800439
-8.8661308 -0.0058045271 0.77568609
-8.8560305 0.049849145 0.77481455
-8.8455811 0.10537095 0.77394301
-8.8746252 0.16149312 0.77655768
-8.8734417 0.21700718 0.77655768
-8.8818836 0.27228874 0.77742922
-8.8800173 0.3275528 0.77742922
-8.8777838 0.38334322 0.77742922
-8.8490963 0.54937088 0.77568609
-8.8454695 0.60496265 0.77568609
-8.851428 0.66126794 0.77655768
-8.8669577 0.7184813 0.77830076
-8.8721924 0.77504414 0.7791723
-8.8770657 0.83170581 0.7800439
-8.8617764 0.88623071 0.7791723
-8.8462095 0.9400692 0.77830076
-8.840188 0.99509835 0.77830076
-8.8337612 1.0506253 0.77830076
-8.8368702 1.1073447 0.7791723
-8.8297377 1.1628487 0.7791723
-8.822258 1.218302 0.7791723
-8.8242884 1.2751366 0.7800439
-8.816102 1.3305534 0.7800439
-8.8174086 1.387471 0.78091544
-9.0837831 1.4879313 0.80531907
-9.0546141 1.5416349 0.80357593
-8.7308311 1.5430145 0.77568609
-6.1732664 1.1310577 0.54908115
-5.882174 1.1161354 0.52380598
-5.6207871 1.1036781 0.50114554
-5.6234369 1.1412874 0.50201708
-5.6356554 1.1806847 0.50376016
-5.6476336 1.220124 0.5055033
-5.6399651 1.2550938 0.5055033
-5.6417556 1.2923927 0.50637484
-5.6335235 1.3278167 0.50637484
-5.6541147 1.3702241 0.50898951
-5.500392 1.3696183 0.49591616
-5.5399356 1.4164884 0.50027394
-5.5791044 1.4639119 0.50463176
-5.5313182 1.4885806 0.50114554
-5.5122523 1.5206575 0.50027394
-5.5888672 1.579646 0.50811797
-5.5884004 1.6175017 0.50898951
-5.606782 1.6610703 0.51160419
-5.5962353 1.6962644 0.51160419
-5.5949826 1.734341 0.51247573
-5.5934711 1.7724717 0.51334733
-5.591702 1.8106488 0.51421887
-5.5140085 1.8238493 0.50811797
-8.6617289 3.2308958 0.80880529
-8.7066374 3.3095143 0.81490618
1.0143472 1.3380495 -0.26593858
1.0287504 1.339483 -0.26750293
1.0371463 1.3329928 -0.26750293
1.0516152 1.3342069 -0.26906729
1.0784655 1.3507285 -0.27376032
1.093142 1.3516053 -0.27532464
1.1016127 1.3447104 -0.27532464
1.116347 1.3453631 -0.276889
1.1374874 1.3534447 -0.28001767
1.1459689 1.3462709 -0.28001767
1.1673034 1.3540055 -0.28314638
1.2017721 1.3764044 -0.28940377
1.2017875 1.0563538 -0.25342384
1.2158602 1.0552559 -0.25498816
1.2299664 1.0540226 -0.25655252
1.2516447 1.0590332 -0.2596812
1.2582741 1.0511479 -0.2596812
1.2724733 1.0495057 -0.26124555
1.2943603 1.0539628 -0.26437426
1.300957 1.0458094 -0.26437426
1.3229756 1.0498941 -0.26750293
1.3295462 1.0415609 -0.26750293
1.3516566 1.0453149 -0.27063161
1.3659575 1.0429139 -0.27219597
1.372427 1.0343856 -0.27219597
1.4026732 1.0434272 -0.276889
1.4171971 1.0403923 -0.27845335
1.7067606 1.125615 -0.32381934
1.7220786 1.1202548 -0.32538369
1.7373962 1.1147463 -0.32694802
1.7694048 1.119652 -0.33164105
2.0024858 1.1138827 -0.36292794
2.0267675 1.1107725 -0.36605665
2.0423977 1.1027085 -0.36762097
2.0667267 1.0991293 -0.37074968
2.0910904 1.0952878 -0.37387836
2.124265 1.0957108 -0.37857139
2.1575263 1.0957596 -0.38326442
2.1820366 1.0910161 -0.38639313
2.2154338 1.0903689 -0.39108616
2.248908 1.0893446 -0.39577919
2.2735398 1.0836924 -0.39890787
2.3071311 1.081967 -0.4036009
2.3318207 1.0757244 -0.40672961
2.3565223 1.069214 -0.40985829
2.3992381 1.0705625 -0.41611567
2.4510474 1.0755203 -0.42393738
3.3076963 1.3046039 -0.56316406
3.3250387 1.2873615 -0.56472844
3.2776647 1.2453954 -0.55534232
3.2853849 1.2248844 -0.55534232
3.3114624 1.2112912 -0.55847102
3.3003495 1.1839713 -0.55534232
3.412096 0.84914988 -0.5569067
3.4269633 0.83001941 -0.55847102
3.422497 0.80620623 -0.5569067
3.4178672 0.78248209 -0.55534232
3.4034085 0.75681585 -0.55221367
3.3983779 0.7336303 -0.55064929
3.3932142 0.7104246 -0.54908496
3.3976109 0.68909049 -0.54908496
3.3921816 0.6658268 -0.54752064
5.5399513 -1.5337613 -0.91044855
5.3781719 -1.525418 -0.88541907
5.2072372 -1.5123492 -0.85882521
5.1976318 -1.5450373 -0.85882521
5.2161703 -1.5862855 -0.86351824
3.1722026 -1.5395261 -0.55847102
3.1271172 -1.5417843 -0.55221367
3.0643816 -1.5348626 -0.54282761
3.019465 -1.5361718 -0.53657019
2.9658794 -1.5324439 -0.52874851
2.921258 -1.5325974 -0.5224911
2.8768356 -1.5320967 -0.51623374
2.8237936 -1.5265013 -0.508412
2.7795112 -1.5252078 -0.50215465
2.7353575 -1.5234188 -0.49589723
2.6827393 -1.5162758 -0.48807552
2.6560237 -1.5232743 -0.48494685
2.6122532 -1.5200623 -0.47868946
2.5771346 -1.5213823 -0.47399643
2.5336299 -1.5172472 -0.46773905
2.4987221 -1.5177538 -0.46304601
2.4639087 -1.5178822 -0.45835298
2.4208169 -1.5124005 -0.4520956
2.386236 -1.5117239 -0.44740257
2.3517601 -1.5106729 -0.44270954
2.3173928 -1.509249 -0.4380165
2.291429 -1.5128206 -0.4348878
2.2491772 -1.5050176 -0.42863044
2.2234106 -1.5079104 -0.42550173
2.1894743 -1.5050656 -0.4208087
2.1637666 -1.5075004 -0.41768003
2.1300471 -1.503975 -0.41298699
2.1044905 -1.5058339 -0.40985829
2.0709991 -1.5016335 -0.40516526
2.0376937 -1.4970058 -0.40047222
2.0125327 -1.4978085 -0.39734355
1.9873914 -1.4984226 -0.39421484
1.9622394 -1.498889 -0.39108616
1.9293495 -1.4930542 -0.38639313
1.9043844 -1.4929596 -0.38326442
1.8794972 -1.4926109 -0.38013574
1.8392985 -1.479627 -0.37387836
1.8069956 -1.4724364 -0.36918533
1.8129432 -1.4963353 -0.37231401
1.7883987 -1.4949689 -0.36918533
1.7564862 -1.4868765 -0.3644923
1.7321937 -1.4849315 -0.36136362
1.7079132 -1.4828353 -0.35823491
1.683728 -1.4804931 -0.35510623
1.652264 -1.4713376 -0.3504132
1.6356521 -1.4750752 -0.34884885
1.6117655 -1.4720019 -0.34572017
1.5880308 -1.4686351 -0.34259146
1.5716914 -1.4716952 -0.34102714
1.5481596 -1.4678646 -0.33789843
1.5317816 -1.4707224 -0.33633408
1.5083477 -1.4665475 -0.3332054
1.4920653 -1.4690661 -0.33164105
1.4688168 -1.4644647 -0.32851237
1.4526359 -1.4666471 -0.32694802
1.4364859 -1.4686843 -0.32538369
1.4135062 -1.4634726 -0.32225499
1.3975142 -1.465132 -0.32069066
1.3748642 -1.4593844 -0.31756195
1.3590199 -1.4606884 -0.3159976
1.3364508 -1.454652 -0.31286892
1.3206482 -1.4557053 -0.31130457
1.3048854 -1.4566177 -0.30974025
1.2891635 -1.4573898 -0.30817589
1.2669863 -1.4505833 -0.30504721
1.2513965 -1.4510357 -0.30348286
1.2422547 -1.4588698 -0.30348286
1.2203519 -1.4515263 -0.30035415
1.2048993 -1.4515655 -0.29878983
1.1958026 -1.4590685 -0.29878983
1.1743128 -1.451094 -0.29566112
1.1590865 -1.4506638 -0.2940968
1.1438321 -1.450163 -0.29253244
1.1286775 -1.4494911 -0.29096809
1.1136553 -1.4486259 -0.28940377
1.0986401 -1.4476666 -0.28783941
1.0895225 -1.454541 -0.28783941
1.0686188 -1.4454736 -0.28471074
1.0595155 -1.4521593 -0.28471074
1.0388279 -1.4427571 -0.28158203
1.0297424 -1.4492557 -0.28158203
1.0149461 -1.4476099 -0.28001767
1.0002114 -1.4458358 -0.27845335
-1.0135521 -1.2380987 -0.25342384
-1.0213113 -1.231706 -0.25342384
-1.0353822 -1.232828 -0.25498816
-1.0431077 -1.2262982 -0.25498816
-1.0572388 -1.2272029 -0.25655252
-1.0714221 -1.2279782 -0.25811687
-1.0856566 -1.2286234 -0.2596812
-1.0933148 -1.2218136 -0.2596812
-1.1074957 -1.2223356 -0.26124555
-1.1217647 -1.2226917 -0.2628099
-1.1361477 -1.2228551 -0.26437426
-1.1505767 -1.2228858 -0.26593858
-1.1650507 -1.2227832 -0.26750293
-1.1727107 -1.215439 -0.26750293
-1.1941293 -1.2221758 -0.27063161
-1.2017454 -1.2146878 -0.27063161
-1.2232281 -1.2211751 -0.27376032
-1.2308105 -1.2135323 -0.27376032
-6.2200937 -0.94569761 -0.9964875
-6.225913 -0.90659881 -0.9964875
-6.2119212 -0.86473727 -0.99335885
-6.1298275 1.1255862 -0.98710144
-5.8315063 1.1089252 -0.94017112
-6.0665998 1.1937234 -0.97927976
-5.6233678 1.1435751 -0.90888423
-5.6257381 1.1809126 -0.91044855
-5.6279001 1.218142 -0.91201293
-5.6298847 1.2551388 -0.91357726
-5.6315837 1.2923927 -0.91514158
-5.623353 1.3277497 -0.91514158
-5.6148992 1.3630575 -0.91514158
-5.5399189 1.4188044 -0.90575552
-5.5595527 1.4611145 -0.91044855
-5.4262872 1.4626025 -0.8901121
-5.3408294 1.4756236 -0.87759733
-5.5785422 1.5790961 -0.91827029
-5.568511 1.6141143 -0.91827029
-5.5961347 1.6603091 -0.92452765
-5.5855927 1.6954361 -0.92452765
-5.6125617 1.7422087 -0.93078506
-5.5920906 1.7744501 -0.92922074
-5.5808306 1.8095526 -0.92922074
-5.9162636 1.9594786 -0.98710144
-5.7034822 2.0897863 -0.96207196
1.1670952 1.3526891 0.21936481
1.1755712 1.3453295 0.21936481
1.1905272 1.3453951 0.22058351
1.1997612 1.0404575 0.19499095
1.213814 1.0393542 0.19620964
1.2279001 1.0381153 0.19742833
1.2420182 1.0367401 0.19864702
1.2561673 1.0352283 0.19986571
1.270346 1.0335792 0.20108442
1.2845533 1.0317926 0.20230311
1.2987881 1.0298681 0.2035218
1.3208648 1.0339231 0.20595919
1.3272958 1.0256542 0.20595919
1.3494077 1.0294511 0.20839657
1.3557992 1.0210189 0.20839657
1.3860856 1.0302428 0.21205266
1.3925705 1.0214603 0.21205266
1.4151304 1.024207 0.21449004
1.7226683 1.1196759 0.25226954
1.7380253 1.1141866 0.25348824
1.7617704 1.1138525 0.25592563
1.7855791 1.1132635 0.25836301
1.984939 1.0868349 0.2778621
2.0179355 1.0884778 0.28151819
2.0422649 1.0850915 0.28395557
2.084219 1.0906457 0.28883034
2.1086764 1.0866219 0.29126772
2.1331646 1.0823333 0.29370511
2.1665611 1.0822148 0.2973612
2.2000391 1.0817189 0.30101728
2.2246611 1.0765214 0.30345467
2.2672267 1.0795908 0.30832943
2.2919412 1.0737457 0.31076682
2.3256853 1.0717865 0.31442291
2.3504539 1.0653477 0.31686029
2.3751924 1.0587305 0.31929767
2.4180686 1.0599324 0.32417244
2.4702456 1.0643829 0.33026591
3.1922004 1.2114878 0.41923052
3.2183068 1.1984565 0.42166793
3.2349932 1.1818992 0.42288661
3.2890174 1.1784484 0.42898008
3.2869921 1.1544707 0.42776138
3.3432992 1.0806618 0.43141747
3.179683 1.0057542 0.40948099
3.4827356 0.84207988 0.43994832
3.4299862 0.80654883 0.43263617
3.4253101 0.78277057 0.43141747
3.4204421 0.75921375 0.43019879
3.4347832 0.74009699 0.43141747
3.4296145 0.71663994 0.43019879
3.4243214 0.69310796 0.42898008
3.409128 0.66776294 0.4265427
3.4132564 0.6463297 0.4265427
13.630539 1.7056258 1.6866717
13.63113 1.6187788 1.6854529
13.621305 1.5308833 1.6830156
13.620785 1.4442219 1.6817969
13.62959 1.3586118 1.6817969
13.608211 1.2701809 1.6781409
13.615922 1.1846533 1.6781409
13.593417 1.0966845 1.6744847
13.600039 1.0112551 1.6744847
13.596222 0.92511022 1.6732661
13.581953 0.83844167 1.6708287
13.299556 0.737158 1.6354866
13.006519 0.63896966 1.5989257
13.010257 0.55773228 1.5989257
13.023381 0.47747451 1.6001445
13.016199 0.39547795 1.5989257
13.008532 0.31231371 1.597707
13.000324 0.22975826 1.5964884
13.001512 0.14807068 1.5964884
12.992257 0.066823103 1.5952697
13.151229 -0.013844578 1.6147687
16.128447 -0.11752655 1.9803768
16.117466 -0.21872707 1.979158
16.115772 -0.31999126 1.979158
16.103521 -0.42098132 1.9779394
16.100559 -0.52215391 1.9779394
16.09696 -0.62330592 1.9779394
16.082811 -0.72398698 1.9767207
16.077946 -0.82502347 1.9767207
16.072479 -0.92541313 1.9767207
16.066437 -1.0249795 1.9767207
16.069635 -1.1258117 1.9779394
16.062244 -1.2267575 1.9779394
16.05422 -1.3276548 1.9779394
16.045561 -1.4284998 1.9779394
16.03627 -1.5292883 1.9779394
16.036219 -1.6310208 1.979158
16.035522 -1.732813 1.9803768
16.024319 -1.8335325 1.9803768
16.022409 -1.9347575 1.9815955
16.01996 -2.0352452 1.9828142
16.006962 -2.1350744 1.9828142
16.003059 -2.2369804 1.9840329
15.99851 -2.3389218 1.9852515
13.17731 -2.0111153 1.6367053
12.301817 -1.95667 1.5294602
11.594029 -1.9188589 1.442933
10.916576 -1.8772818 1.3600619
10.32807 -1.8429641 1.2881589
9.8185282 -1.8157686 1.2260056
9.3292522 -1.785979 1.1662896
8.8992434 -1.7613409 1.1138858
8.5089054 -1.7389392 1.0663568
8.2551022 -1.7407515 1.0358894
8.2537012 -1.7946942 1.0371081
5.4994988 -1.5621636 0.70196742
5.3275561 -1.5495626 0.68124962
5.2035599 -1.5490236 0.66662532
5.1937246 -1.5816878 0.66662532
5.2121139 -1.6231431 0.67028135
-1.000155 -1.2207549 0.19377226
-1.0204822 -1.2297227 0.19620964
-1.0281886 -1.2232865 0.19620964
-1.1076258 -1.2063291 0.20108442
-1.1016662 -1.1848084 0.19864702
-1.1090888 -1.1778631 0.19864702
-5.2977204 -1.0431824 0.66296923
-5.3821225 -1.0249918 0.67271876
-5.486073 -1.0091119 0.68490571
-5.6388974 -1.0006337 0.70318609
-6.2351761 -0.98560476 0.77508903
-6.2216191 -0.94343096 0.77265161
-6.2274241 -0.90432256 0.77265161
-6.3214641 -0.87745684 0.78361988
-9.2098503 -1.219453 1.140697
-8.8628178 -1.1168841 1.096824
-8.8598051 -1.059999 1.0956054
-8.876153 -1.0054252 1.096824
-8.8625565 -0.94752723 1.0943867
-8.9078379 -0.89579386 1.0992614
-8.923172 -0.84074026 1.1004802
-8.9282789 -0.78465563 1.1004802
-8.9231396 -0.72773796 1.0992614
-8.7947111 1.4476767 1.0943867
-9.6463766 1.6501822 1.2016317
-9.0787773 1.6118639 1.1321661
-6.1497703 1.1317438 0.76777685
-5.8402438 1.1129947 0.72999734
-5.6188002 1.1079323 0.70318609
-5.6408486 1.149436 0.70684218
-5.6432281 1.186897 0.70806086
-5.6260061 1.2200128 0.70684218
-5.6183386 1.2548485 0.70684218
-5.6200795 1.292075 0.70806086
-5.6215096 1.3296446 0.70927954
-5.6033993 1.3625953 0.70806086
-5.5473776 1.4230353 0.70318609
-5.5575247 1.462914 0.70562351
-5.5194755 1.4900447 0.70196742
-5.5100045 1.5246936 0.70196742
-5.5576105 1.5755278 0.70927954
-5.5857296 1.6214826 0.71415436
-5.59446 1.6622019 0.71659172
-5.5934024 1.700205 0.71781039
-5.5731316 1.732368 0.71659172
-5.5715971 1.7703549 0.71781039
-5.5792437 1.8114587 0.72024781
1.1397885 1.3368814 -0.21570873
1.1676263 1.3522308 -0.21936481
1.1826333 1.3523393 -0.22058351
1.2085316 1.0606004 -0.19742833
1.2226728 1.059486 -0.19864702
1.2368473 1.0582355 -0.19986571
1.2510542 1.0568484 -0.20108442
1.265292 1.0553244 -0.20230311
1.2795597 1.053663 -0.2035218
1.2938564 1.0518637 -0.20474049
1.3081806 1.0499259 -0.20595919
1.3225312 1.0478495 -0.20717788
1.336907 1.045634 -0.20839657
1.3591175 1.0494039 -0.21083397
1.3734871 1.0469798 -0.21205266
1.387924 1.0443574 -0.21327135
1.4103951 1.0474519 -0.21570873
1.4169939 1.0385076 -0.21570873
1.7077529 1.1243458 -0.25105083
1.7231078 1.1189994 -0.25226954
1.7468207 1.1188575 -0.25470692
1.770599 1.1184614 -0.2571443
1.9715613 1.1109178 -0.2778621
1.9871801 1.1033263 -0.27908078
2.0027812 1.0955821 -0.28029948
2.0445752 1.1018112 -0.28517425
2.0602245 1.0935966 -0.28639296
2.0934432 1.0944256 -0.29004905
2.1267524 1.0948799 -0.29370511
2.1601489 1.0949582 -0.2973612
2.1847482 1.0902277 -0.29979858
2.2182813 1.0896069 -0.30345467
2.2429559 1.0842874 -0.30589205
2.2766135 1.0829641 -0.30954814
2.3013523 1.0770528 -0.31198552
2.3351219 1.0750239 -0.31564158
2.3689559 1.0726125 -0.31929767
2.411871 1.0739604 -0.32417244
2.4457548 1.0709395 -0.32782853
3.2603407 1.2829682 -0.43019879
3.2683375 1.2624576 -0.43019879
3.257643 1.234861 -0.42776138
3.2745874 1.2179711 -0.42898008
3.300719 1.2044635 -0.43141747
3.298825 1.1805011 -0.43019879
3.3813794 0.83868605 -0.42776138
3.405879 0.82208145 -0.43019879
3.4303026 0.80520189 -0.43263617
3.4256172 0.78142548 -0.43141747
3.4110453 0.75574219 -0.42898008
3.4059587 0.73250616 -0.42776138
3.4007466 0.70921415 -0.4265427
3.3954065 0.68586749 -0.42532399
3.3899078 0.66261601 -0.42410532
5.5181689 -1.5323976 -0.70318609
5.3652315 -1.5263014 -0.68490571
5.1935353 -1.5127938 -0.66418791
5.2029514 -1.5510669 -0.66662532
5.2120905 -1.5895177 -0.66906267
4.7187657 -1.5368627 -0.60934669
4.840939 -1.6101311 -0.6264084
3.1598272 -1.5365453 -0.43141747
3.1056843 -1.5342504 -0.42532399
3.06937 -1.5403777 -0.42166793
2.997731 -1.5280794 -0.41313708
2.9616275 -1.5331951 -0.40948099
2.9168606 -1.5331724 -0.40460622
2.8635206 -1.527854 -0.39851275
2.8190212 -1.5267836 -0.39363798
2.7745817 -1.5253392 -0.38876319
2.7389402 -1.5282338 -0.38510713
2.6947365 -1.5258502 -0.38023233
2.6506717 -1.5229726 -0.37535757
2.606751 -1.5196024 -0.3704828
2.571522 -1.5207936 -0.36682671
2.5278704 -1.5164967 -0.36195195
2.4928548 -1.5168715 -0.35829586
2.4579353 -1.5168667 -0.35463977
2.4147017 -1.5112181 -0.349765
2.3883982 -1.5157235 -0.34732762
2.3454404 -1.5092168 -0.34245285
2.3109729 -1.5076541 -0.33879676
2.2766845 -1.505619 -0.33514068
2.2508225 -1.508644 -0.33270329
2.2167351 -1.5059261 -0.32904723
2.1908796 -1.5085665 -0.32660982
2.1569395 -1.5052617 -0.32295376
2.1312323 -1.5073216 -0.32051638
2.1055846 -1.5091186 -0.31807899
2.0719686 -1.5048206 -0.31442291
2.0385559 -1.5000714 -0.31076682
2.0133069 -1.5008092 -0.30832943
1.9880623 -1.5013788 -0.30589205
1.9549412 -1.4957467 -0.30223596
1.9298151 -1.4958391 -0.29979858
1.8969591 -1.4895455 -0.29614249
1.8797948 -1.4952562 -0.29492381
1.8394477 -1.482128 -0.29004905
1.8070306 -1.4748287 -0.28639296
1.8053786 -1.4924771 -0.28761163
1.7731999 -1.484598 -0.28395557
1.7488261 -1.4827186 -0.28151819
1.7244798 -1.4806699 -0.27908078
1.7001626 -1.4784503 -0.2766434
1.6759429 -1.4759833 -0.27420601
1.6592283 -1.4798781 -0.27298734
1.6351664 -1.4769677 -0.27054992
1.6112064 -1.4738146 -0.26811254
1.5874162 -1.4703492 -0.26567516
1.5637957 -1.4665773 -0.26323777
1.5474178 -1.4694709 -0.2620191
1.5238454 -1.4654052 -0.25958169
1.5074975 -1.4680258 -0.25836301
1.4911764 -1.4704999 -0.2571443
1.4608382 -1.4587994 -0.25348824
1.444664 -1.4608922 -0.25226954
1.4215877 -1.4557377 -0.24983215
1.4124126 -1.4646413 -0.24983215
1.3895568 -1.4590503 -0.24739476
1.3736893 -1.4604024 -0.24617606
1.3577956 -1.4616727 -0.24495737
1.3418751 -1.4628612 -0.24373868
1.3259944 -1.4639068 -0.24251999
1.3035359 -1.4574136 -0.24008261
1.2877831 -1.4581354 -0.23886392
1.2720722 -1.4587176 -0.23764521
1.2564058 -1.4591597 -0.23642652
1.2407836 -1.4594635 -0.23520783
1.2252082 -1.4596281 -0.23398913
1.2033457 -1.4520134 -0.23155175
1.1879768 -1.4518119 -0.23033306
1.172721 -1.4514241 -0.22911437
1.1574521 -1.4509542 -0.22789566
1.1421723 -1.4503999 -0.22667697
1.1331 -1.4574986 -0.22667697
1.1119617 -1.4487435 -0.22423959
1.0969063 -1.4477425 -0.2230209
1.0818444 -1.4466571 -0.2218022
1.066839 -1.4454403 -0.22058351
1.0577364 -1.4521146 -0.22058351
1.0427979 -1.4506729 -0.21936481
1.0279204 -1.4491004 -0.21814612
1.0131031 -1.4473993 -0.21692742
-1.013221 -1.2357123 -0.19620964
-1.0273062 -1.2369576 -0.19742833
-1.0414475 -1.2380737 -0.19864702
-1.0492057 -1.231506 -0.19864702
-1.056923 -1.224889 -0.19864702
-1.0776606 -1.2331718 -0.20108442
-1.0919659 -1.2338088 -0.20230311
-1.0996426 -1.2269716 -0.20230311
-1.113894 -1.2274848 -0.2035218
-1.1282465 -1.2278196 -0.20474049
-1.1359392 -1.2207061 -0.20474049
-1.1572005 -1.2279921 -0.20717788
-1.1648936 -1.2206966 -0.20717788
-1.1794374 -1.2204909 -0.20839657
-1.194025 -1.2201499 -0.20961526
-1.208601 -1.2197264 -0.21083397
-1.2231647 -1.2192218 -0.21205266
-1.2378218 -1.2185289 -0.21327135
-5.3825245 -1.0228789 -0.67271876
-5.4962316 -1.0087471 -0.68612438
-5.6392894 -0.99842012 -0.70318609
-6.0333734 -0.99016672 -0.75071514
-6.2159543 -0.98006207 -0.77265161
-6.2121754 -0.93950438 -0.77143294
-6.2179561 -0.90045208 -0.77143294
-6.2333226 -0.86272836 -0.77265161
-6.1005206 1.1251599 -0.7616834
-5.8300505 1.1134593 -0.72877866
-5.6086211 1.1082467 -0.70196742
-5.6403966 1.1516503 -0.70684218
-5.633049 1.1870685 -0.70684218
-5.6158333 1.2200869 -0.70562351
-5.6081662 1.2548567 -0.70562351
-5.6098995 1.2920535 -0.70684218
-5.6016703 1.3272773 -0.70684218
-5.6028638 1.3647949 -0.70806086
-5.5275922 1.4202727 -0.70074874
-5.5569491 1.4650985 -0.70562351
-5.4518204 1.4740767 -0.69343656
-5.5569916 1.5777092 -0.70927954
-5.5564995 1.6153657 -0.71049827
-5.5747805 1.6587366 -0.71415436
-5.5832391 1.6995102 -0.71659172
-5.6103592 1.7463553 -0.72146648
-5.580359 1.7755542 -0.71902913
-5.5879712 1.8167175 -0.72146648
-6.122787 2.0332189 -0.79215074
-6.1061335 2.1132438 -0.79336941
-6.0885768 2.2791533 -0.79824418
-6.1206064 2.3347845 -0.80433768
-6.0907841 2.4115121 -0.80433768
-6.1215377 2.4682941 -0.81043112
-6.0599999 2.487859 -0.80433768
-6.0757957 2.6292303 -0.81286854
-6.1045775 2.6873469 -0.81896198
-6.0883927 2.7720711 -0.82139933
-6.0798616 2.8144417 -0.82261807
-6.0412707 3.3708189 -0.84942931
-6.0458837 3.4233806 -0.8530854
-6.0672841 3.4860256 -0.85917884
-1.0803291 1.447789 -0.2218022
-1.0653248 1.4465566 -0.22058351
-1.0562153 1.4532213 -0.22058351
1.1495239 1.33021 0.27845335
1.1643639 1.3303936 0.28001767
1.1947019 1.0344272 0.25029513
1.2161925 1.0397365 0.25342384
1.2302489 1.0384454 0.25498816
1.2443367 1.0370183 0.25655252
1.2584548 1.035455 0.25811687
1.2726022 1.0337549 0.2596812
1.2867776 1.0319177 0.26124555
1.3009799 1.029943 0.2628099
1.3152077 1.0278302 0.26437426
1.3294098 1.0256443 0.26593858
1.3435963 1.0233724 0.26750293
1.3578556 1.0208973 0.26906729
1.3801064 1.0241169 0.27219597
1.3945326 1.0211927 0.27376032
1.4170212 1.0238571 0.276889
1.7233971 1.1182253 0.32538369
1.7387083 1.1126988 0.32694802
1.7623701 1.1122953 0.33007672
1.7860949 1.1116381 0.3332054
1.8182983 1.1158924 0.33789843
1.8421744 1.1146721 0.34102714
1.8576241 1.1081353 0.34259146
1.8815778 1.106455 0.34572017
1.9055831 1.1045169 0.34884885
1.9296377 1.1023204 0.35197753
1.9451324 1.0950197 0.35354188
1.9692483 1.0923587 0.35667059
1.9934068 1.0894374 0.35979927
2.0176058 1.0862553 0.36292794
2.0505686 1.0874391 0.36762097
2.0836246 1.088251 0.37231401
2.1079876 1.0841727 0.37544271
2.1411927 1.0842929 0.38013574
2.1744812 1.084038 0.38482878
2.1989832 1.079056 0.38795745
2.2324016 1.078104 0.39265051
2.2569733 1.0725348 0.39577919
2.2905095 1.0708821 0.40047222
2.3151395 1.064723 0.4036009
2.3487811 1.0623667 0.40829393
2.3824315 1.0597463 0.41298699
2.4160991 1.0568391 0.41768003
2.4680719 1.0611169 0.42550173
3.2237074 1.2205496 0.54595625
3.2497711 1.2073085 0.54908496
3.2850282 1.1972965 0.55377799
3.2924414 1.1767584 0.55377799
3.2997701 1.1560482 0.55377799
3.4234445 0.80217379 0.5569067
3.4380474 0.78284079 0.55847102
3.433217 0.75925994 0.5569067
3.4185417 0.73382747 0.55377799
3.413388 0.71045196 0.55221367
3.4081025 0.68703926 0.55064929
3.4123518 0.6656121 0.55064929
3.4067609 0.64232862 0.54908496
12.347359 -1.9738574 1.9804603
11.59424 -1.9282501 1.8615701
10.939539 -1.8900772 1.7583233
10.363575 -1.8576992 1.6675913
9.8273163 -1.825377 1.5831168
9.3597879 -1.799446 1.5095925
8.9318275 -1.7749791 1.4423257
8.5529957 -1.7548513 1.3828807
8.2616501 -1.7489103 1.3375146
8.260148 -1.8028911 1.339079
5.5378523 -1.5777594 0.91201293
5.3761225 -1.5682689 0.88698339
5.1958084 -1.5511593 0.85882521
5.195406 -1.5866596 0.86038953
5.2136178 -1.6281042 0.86508256
3.6170394 -1.4620897 0.61791611
3.4800355 -1.4318583 0.59601527
-1.001001 -1.2355824 0.25185949
-1.0150101 -1.2369037 0.25342384
-1.0227617 -1.2305019 0.25342384
-1.0368339 -1.2316073 0.25498816
-1.0445518 -1.2250683 0.25498816
-1.0651393 -1.2334318 0.25811687
-1.0728681 -1.226715 0.25811687
-1.0805546 -1.2199498 0.25811687
-1.0947337 -1.2205424 0.2596812
-1.1089152 -1.2210479 0.26124555
-1.1232045 -1.2213691 0.2628099
-1.1375877 -1.2215157 0.26437426
-1.1520168 -1.2215294 0.26593858
-1.159669 -1.214267 0.26593858
-1.1741419 -1.2140564 0.26750293
-1.1886576 -1.2137116 0.26906729
-1.2031556 -1.2132909 0.27063161
-1.2176479 -1.2127832 0.27219597
-3.0046458 -1.184622 0.51154071
-3.0672963 -1.1871094 0.52092677
-4.9143977 -1.0596116 0.79625142
-5.0273051 -1.0509455 0.81345922
-5.1692834 -1.0470358 0.83536005
-5.2822866 -1.0358945 0.85256779
-5.3759885 -1.0194474 0.86664695
-5.5474477 -1.0158962 0.89324081
-6.0627141 -0.99253476 0.97302234
-6.2444558 -0.9820438 1.0011805
-6.2309704 -0.93984169 0.99805188
-6.236752 -0.90067464 0.99805188
-6.4184031 -0.88577348 1.0262101
-9.6651402 -1.2720112 1.5440081
-9.2613268 -1.159713 1.4783057
-8.8368845 -1.0502154 1.4094745
-8.8825693 -0.99908465 1.4157319
-8.8690271 -0.94117218 1.4126031
-8.8551102 -0.88346469 1.4094745
-8.8506517 -0.82689285 1.4079101
-8.8458328 -0.7704072 1.4063458
-8.8406544 -0.71401948 1.4047815
-8.8449335 -0.65889394 1.4047815
-8.8389921 -0.60340482 1.4032171
-8.8327303 -0.54758173 1.4016528
-8.8359966 -0.49207586 1.4016528
-8.8290491 -0.43605867 1.4000884
-8.8217468 -0.38015291 1.398524
-8.8140907 -0.32435143 1.3969598
-8.8159552 -0.26896709 1.3969598
-8.8174706 -0.21356742 1.3969598
-8.8087635 -0.15798691 1.3953954
-8.7997055 -0.10251956 1.393831
-8.8100529 -0.047282975 1.3953954
-8.8002996 0.0080661774 1.393831
-8.8000746 0.063357316 1.393831
-8.7995033 0.11865064 1.393831
-8.7887087 0.17373937 1.3922668
-8.7874556 0.22852382 1.3922668
-8.7759991 0.28264919 1.3907024
-8.7740622 0.33745041 1.3907024
-8.7717695 0.39257023 1.3907024
-8.7691298 0.44767919 1.3907024
-8.7661438 0.50276583 1.3907024
-8.7726688 0.55846477 1.3922668
-8.7788391 0.61426079 1.393831
-8.7846546 0.67016113 1.3953954
-8.7704277 0.72452778 1.393831
-8.7755394 0.78049672 1.3953954
-8.770463 0.83561707 1.3953954
-8.7552567 0.8892768 1.393831
-8.7495785 0.94350797 1.393831
-8.743516 0.99813128 1.393831
-8.7468777 1.0542279 1.3953954
-8.7400808 1.1091675 1.3953954
-8.7329397 1.1640586 1.3953954
-8.7352352 1.2202748 1.3969598
-8.727396 1.2751333 1.3969598
-8.7192116 1.3299459 1.3969598
-8.720438 1.3862522 1.398524
-8.7213001 1.4426309 1.4000884
-8.7120638 1.4973973 1.4000884
-6.0896478 1.1256264 0.98084408
-5.8010745 1.110321 0.93547809
-5.6291747 1.1146386 0.90888423
-5.6413693 1.1541591 0.91201293
-5.6436706 1.1916208 0.91357726
-5.6264811 1.224682 0.91201293
-5.6187844 1.2595205 0.91201293
-5.6204333 1.2968062 0.91357726
-5.6121745 1.3320932 0.91357726
-5.603694 1.3673306 0.91357726
-5.4800267 1.3736923 0.89480513
-5.5286784 1.4228687 0.9041912
-5.5578275 1.4676638 0.91044855
-5.5389624 1.4999752 0.90888423
-5.5103946 1.5294632 0.90575552
-5.5861783 1.5883689 0.91983461
-5.5760884 1.6234349 0.91983461
-5.5941753 1.6668981 0.92452765
-5.6024876 1.7077726 0.92765635
-5.5916462 1.7429417 0.92765635
-5.580585 1.778039 0.92765635
-5.5786948 1.8161265 0.92922074
-8.6319313 2.8702035 1.4407614
-8.632431 2.9307353 1.4438901
-8.6418447 2.9946158 1.4485831
-8.6118298 3.1667774 1.4532762
-8.6105404 3.2270086 1.4564048
-8.6086731 3.2877667 1.4595336
-8.6034069 3.4102423 1.4657909
-8.6001282 3.4716237 1.4689196
-1.8724537 1.4536023 0.37544271
-1.8710469 1.4714446 0.37700707
1.1709082 1.3711996 -0.15775189
1.186017 1.3713505 -0.15862344
1.19461 1.3638715 -0.15862344
1.1988246 1.0504159 -0.13944918
1.2204684 1.0558985 -0.1411923
1.2346532 1.0546798 -0.14206386
1.2488706 1.0533241 -0.14293541
1.2631193 1.0518312 -0.14380698
1.2773985 1.0502007 -0.14467853
1.2917064 1.048432 -0.14555009
1.3060426 1.0465245 -0.14642164
1.3282183 1.0506586 -0.14816476
1.3347936 1.0422924 -0.14816476
1.3491495 1.0400404 -0.14903632
1.3714221 1.0437275 -0.15077943
1.3858838 1.0411186 -0.151651
1.4004003 1.0383236 -0.15252255
1.7065914 1.1216608 -0.17866927
1.7303234 1.1217542 -0.18041238
1.7541232 1.121593 -0.1821555
1.7864152 1.1264904 -0.18477017
1.8019176 1.1205044 -0.18564174
1.9866407 1.1009865 -0.19871509
2.0110061 1.0980304 -0.2004582
2.0354121 1.0948113 -0.20220132
2.0686593 1.0959923 -0.204816
2.0931687 1.0921898 -0.20655911
2.1265719 1.092675 -0.20917378
2.1600628 1.092783 -0.21178845
2.1847208 1.0880716 -0.21353157
2.218349 1.0874783 -0.21614625
2.2430825 1.0821761 -0.21788935
2.2768357 1.0808779 -0.22050403
2.3016341 1.074982 -0.22224714
2.3264477 1.068817 -0.22399026
2.360352 1.066484 -0.22660492
2.4033637 1.0679424 -0.23009115
2.4647055 1.0769637 -0.23532051
3.2069809 1.2358639 -0.30068731
3.2333188 1.2227371 -0.30243042
3.2595515 1.2095053 -0.30417353
3.2763436 1.1926942 -0.3050451
3.2931166 1.1755416 -0.30591664
3.2910347 1.1515372 -0.3050451
3.3241322 1.1164342 -0.30678821
3.3405447 1.0986384 -0.30765978
3.1766937 1.0226778 -0.29197174
3.4234817 0.84627521 -0.30853131
3.4287314 0.82474822 -0.30853131
3.4338458 0.80318868 -0.30853131
3.4388244 0.78159744 -0.30853131
3.4241705 0.7558682 -0.30678821
3.4093063 0.7304641 -0.3050451
3.4138055 0.7091403 -0.3050451
3.4084275 0.68571204 -0.30417353
3.4028902 0.66237944 -0.30330199
10.926876 -1.8216698 -0.96917182
10.345896 -1.791695 -0.91862154
9.8147707 -1.7633028 -0.87242895
9.3236065 -1.7356031 -0.82972264
8.9114532 -1.7168815 -0.79398882
8.5195513 -1.6964802 -0.75999808
8.2551718 -1.697077 -0.73733759
8.2444029 -1.7486421 -0.73733759
8.2137899 -1.7961521 -0.73559445
5.527647 -1.5397068 -0.50201708
5.383749 -1.5361407 -0.48981526
5.2114325 -1.5224481 -0.4749988
5.2113085 -1.5580157 -0.47587034
5.220469 -1.5965552 -0.47761345
5.2008266 -1.6263516 -0.47674191
5.0386806 -1.6104707 -0.46279699
4.8858318 -1.6292671 -0.45059517
4.856782 -1.6530877 -0.44885206
3.1069622 -1.5379184 -0.30330199
3.0527375 -1.5350331 -0.29894421
2.9986732 -1.5315279 -0.29458642
2.9536185 -1.5319915 -0.29110017
2.8999469 -1.52715 -0.28674239
2.8640728 -1.5309993 -0.28412771
2.8106675 -1.5251153 -0.27976993
2.7661257 -1.5235208 -0.27628371
2.7130208 -1.5165668 -0.27192593
2.6861088 -1.5237521 -0.27018279
2.6246791 -1.5107813 -0.26495346
2.59793 -1.517195 -0.26321033
2.5712044 -1.5233327 -0.26146722
2.5188894 -1.5138003 -0.25710943
2.4838095 -1.5140418 -0.25449476
2.4488273 -1.5139028 -0.25188008
2.4139457 -1.5133846 -0.24926542
2.3791683 -1.5124885 -0.24665074
2.3444986 -1.5112157 -0.24403608
2.3099396 -1.5095676 -0.2414214
2.2838821 -1.5129231 -0.23967829
2.2496521 -1.510386 -0.23706362
2.223696 -1.5132087 -0.23532051
2.1895428 -1.5101823 -0.23270583
2.1555164 -1.5067872 -0.23009115
2.1216202 -1.5030245 -0.22747648
2.0959496 -1.5047059 -0.22573337
2.0622864 -1.5002642 -0.22311869
2.0368636 -1.5012594 -0.22137558
2.0115581 -1.5019306 -0.21963246
1.9862412 -1.5024546 -0.21788935
1.9609478 -1.5027856 -0.21614625
1.9278603 -1.4967495 -0.21353157
1.902757 -1.4965163 -0.21178845
1.8777342 -1.4960264 -0.21004534
1.8372884 -1.4827694 -0.20655911
1.81251 -1.4816741 -0.204816
1.8031646 -1.4930331 -0.204816
1.7785635 -1.4914333 -0.20307288
1.7465082 -1.4830798 -0.2004582
1.7220978 -1.4809766 -0.19871509
1.6977344 -1.4786819 -0.19697197
1.6734684 -1.47614 -0.19522886
1.649302 -1.4733521 -0.19348575
1.6326246 -1.4770025 -0.19261418
1.6086216 -1.4737723 -0.19087107
1.5848044 -1.4702128 -0.18912795
1.5684037 -1.4731834 -0.1882564
1.5447284 -1.4692267 -0.18651329
1.5211164 -1.4650819 -0.18477017
1.497618 -1.460699 -0.18302706
1.4813229 -1.4630796 -0.1821555
1.4580139 -1.4582685 -0.18041238
1.4418234 -1.4603118 -0.17954083
1.4256651 -1.4622093 -0.17866927
1.4095402 -1.463962 -0.1777977
1.3866651 -1.4582746 -0.1760546
1.3707834 -1.4595765 -0.17518304
1.3548595 -1.4608119 -0.17431149
1.338926 -1.4619493 -0.17343992
1.3163499 -1.4555559 -0.17169681
1.3005431 -1.4563676 -0.17082526
1.2847781 -1.4570384 -0.16995369
1.2690564 -1.4575689 -0.16908213
1.2533791 -1.4579595 -0.16821058
1.2377472 -1.4582111 -0.16733903
1.2221618 -1.4583241 -0.16646747
1.2002735 -1.4506238 -0.16472435
1.1849122 -1.450357 -0.1638528
1.1759033 -1.4576706 -0.1638528
1.1543565 -1.4494072 -0.16210967
1.1390698 -1.4488003 -0.16123812
1.1239154 -1.4479975 -0.16036656
1.108863 -1.4470259 -0.15949501
1.0997969 -1.4539285 -0.15949501
1.0846802 -1.4528275 -0.15862344
1.0637114 -1.4435743 -0.15688033
1.0546201 -1.4502293 -0.15688033
1.0396791 -1.4487334 -0.15600878
1.0247986 -1.4471076 -0.15513723
1.00998 -1.4453521 -0.15426566
-1.0038375 -1.238089 -0.13944918
-1.0179193 -1.2394557 -0.14032075
-1.0256869 -1.2330354 -0.14032075
-1.0398327 -1.234185 -0.1411923
-1.0540332 -1.2352052 -0.14206386
-1.0682874 -1.2360953 -0.14293541
-1.0760329 -1.2293587 -0.14293541
-1.090344 -1.2300283 -0.14380698
-1.1046386 -1.2306266 -0.14467853
-1.1122421 -1.2237588 -0.14467853
-1.1266155 -1.224113 -0.14555009
-1.1410767 -1.2242975 -0.14642164
-1.1555845 -1.2243485 -0.14729321
-1.1632544 -1.2170637 -0.14729321
-1.1778067 -1.2168889 -0.14816476
-1.1924025 -1.216579 -0.14903632
-1.2069741 -1.2161994 -0.14990787
-1.2215474 -1.2157252 -0.15077943
-5.8633895 -0.99540418 -0.52031976
-6.0464993 -0.98744321 -0.53600782
-6.2297325 -0.97722256 -0.55169582
-6.2061968 -0.93361342 -0.54908115
-6.2217999 -0.8960222 -0.54995275
-6.4049482 -0.88135463 -0.56564075
-9.1858768 -1.205268 -0.81054837
-8.8571711 -1.1055731 -0.78091544
-8.8639421 -1.0499026 -0.78091544
-8.8703642 -0.99418598 -0.78091544
-8.8665285 -0.93738747 -0.7800439
-8.8480005 0.56674778 -0.77568609
-8.8542023 0.62302685 -0.77655768
-8.8600454 0.67941087 -0.77742922
-8.8556023 0.73506415 -0.77742922
-8.8508081 0.7906931 -0.77742922
-8.8357487 0.84533739 -0.77655768
-8.8402233 0.90136552 -0.77742922
-8.8344688 0.95612288 -0.77742922
-8.8283195 1.0113231 -0.77742922
-8.8217916 1.0667706 -0.77742922
-8.8149147 1.1221805 -0.77742922
-8.8076897 1.1775415 -0.77742922
-8.8099823 1.2342428 -0.77830076
-8.8020544 1.2895706 -0.77830076
-8.8036251 1.3463581 -0.7791723
-8.7949924 1.4016436 -0.7791723
-8.7860117 1.4568787 -0.7791723
-8.7177801 1.5019034 -0.77394301
-6.0632858 1.1232152 -0.53949404
-5.801672 1.1128285 -0.51683354
-5.6283507 1.1168027 -0.50201708
-5.6504617 1.1583303 -0.50463176
-5.6430726 1.1938087 -0.50463176
-5.6257935 1.2268143 -0.50376016
-5.618084 1.2616485 -0.50376016
-5.6100883 1.2967391 -0.50376016
-5.6115222 1.3342655 -0.50463176
-5.5933509 1.3671334 -0.50376016
-5.5556645 1.3949708 -0.50114554
-5.5371432 1.4273651 -0.50027394
-5.5569582 1.4697679 -0.50288862
-5.4706969 1.4837939 -0.49591616
-5.5378489 1.5769768 -0.50376016
-5.5947776 1.6312587 -0.50986111
-5.5939641 1.6692264 -0.51073265
-5.5928941 1.7072481 -0.51160419
-5.5820565 1.7423569 -0.51160419
-5.5709991 1.7773939 -0.51160419
-5.5786638 1.8185388 -0.51334733
-1.2615025 1.4509364 -0.16821058
-1.2523615 1.4588337 -0.16821058
-1.2367291 1.4590746 -0.16733903
1.0890691 1.3411751 0.33582383
1.0974745 1.3343059 0.33582383
1.0932702 1.3123 0.33200765
1.1141548 1.3204095 0.33582383
1.135184 1.3283079 0.33963999
1.1499317 1.3285714 0.34154809
1.1776687 1.343465 0.34727237
1.2030298 1.0399857 0.30911058
1.2170067 1.0387791 0.31101865
1.2310157 1.0374379 0.31292674
1.2375097 1.0296828 0.31292674
1.2591251 1.0343491 0.31674293
1.2732233 1.0326006 0.31865102
1.287349 1.0307156 0.32055911
1.3015009 1.0286936 0.32246721
1.3156779 1.0265342 0.32437527
1.337594 1.0303069 0.32819146
1.3517658 1.0279415 0.33009955
1.3660207 1.0253577 0.33200765
1.3803238 1.0225979 0.33391574
1.394707 1.0196151 0.33582383
1.4091352 1.0164522 0.33773193
1.7054546 1.1046808 0.39497462
1.7371787 1.1097976 0.40069887
1.760728 1.1093261 0.40451506
1.7843393 1.1086022 0.40833125
1.8080105 1.1076248 0.41214743
1.8317391 1.1063933 0.41596359
1.9580157 1.0841177 0.4350445
1.9820237 1.0811954 0.43886068
2.0147185 1.0826606 0.44458497
2.0388329 1.0791647 0.44840112
2.071687 1.079946 0.4541254
2.1046302 1.0803565 0.45984969
2.1376593 1.080395 0.46557394
2.1619825 1.0756878 0.46939012
2.1951461 1.0750349 0.47511441
2.2283857 1.0740072 0.48083866
2.2528286 1.0683973 0.48465484
2.2772884 1.0625222 0.48847103
2.3106842 1.0604762 0.49419528
2.3351958 1.0540136 0.49801147
2.3686264 1.0514085 0.50373572
2.4110813 1.0524206 0.5113681
2.4627862 1.0565217 0.52090853
2.4694669 1.0408111 0.52090853
3.1956933 1.2070743 0.66401529
3.2307565 1.1973975 0.66973954
3.2565641 1.1840659 0.67355573
3.2639079 1.1636702 0.67355573
3.2896883 1.1496162 0.67737192
3.3362298 1.0725918 0.68118811
3.1649897 0.99564064 0.64493442
3.2180939 0.99016881 0.65447485
3.2712526 0.98406839 0.66401529
3.3244598 0.97733849 0.67355573
3.3588398 0.96455944 0.67927998
3.355382 0.94078618 0.67737192
3.3839426 0.79011476 0.67546386
3.3984132 0.77100921 0.67737192
3.4127319 0.75195736 0.67927998
3.4173253 0.7307983 0.67927998
3.4218302 0.70940572 0.67927998
3.4358442 0.6898241 0.68118811
3.4304745 0.66635078 0.67927998
3.415298 0.64116108 0.67546386
9.8138294 -1.8308464 1.9405274
9.3394947 -1.803152 1.8489392
8.9045258 -1.7767245 1.7649832
8.5376129 -1.7585865 1.6943839
8.171176 -1.7364638 1.6237845
7.8149061 -1.712142 1.5550933
5.521512 -1.5777934 1.1162326
5.3513265 -1.5655971 1.0837951
5.2097301 -1.5597727 1.0570818
5.1998267 -1.5924755 1.0570818
5.1990862 -1.6280488 1.0589899
3.611912 -1.4632729 0.75751168
3.4938765 -1.4407181 0.73461461
-1.0097464 -1.2285205 0.30911058
-1.023726 -1.229696 0.31101865
-1.03776 -1.2307441 0.31292674
-1.0454725 -1.2241994 0.31292674
-1.0595653 -1.2250308 0.31483483
-1.0737095 -1.2257332 0.31674293
-1.0879042 -1.2263058 0.31865102
-1.0955148 -1.2195117 0.31865102
-1.1096547 -1.2199625 0.32055911
-1.1172646 -1.212997 0.32055911
-1.1315597 -1.2131313 0.32246721
-1.1459002 -1.2131337 0.32437527
-1.1602852 -1.2130034 0.32628337
-1.1747135 -1.2127401 0.32819146
-1.1891841 -1.212343 0.33009955
-1.2036232 -1.2118838 0.33200765
-1.2111089 -1.2044028 0.33200765
-4.8112569 -1.065227 0.95786113
-4.9234543 -1.0575198 0.97885013
-5.0164933 -1.0445727 0.99602294
-6.2038851 -1.0507001 1.2230856
-6.2200527 -1.0132793 1.2249937
-6.2165985 -0.97265863 1.2230856
-6.2128792 -0.93212479 1.2211776
-6.2186136 -0.89306831 1.2211776
-6.4088798 -0.8793323 1.2574313
-9.392684 -1.2286475 1.8413068
-8.8936777 -1.1065844 1.7420861
-8.8517122 -1.0449259 1.7325456
-8.877614 -0.99146998 1.7363619
-8.834857 -0.93052757 1.7268214
-8.8698349 -0.87790138 1.7325456
-8.8556271 -0.82034022 1.7287295
-8.8508272 -0.76384109 1.7268214
-8.8456669 -0.70743001 1.7249132
-8.8401079 -0.65165067 1.7230052
-8.8341818 -0.59620327 1.7210971
-8.8279409 -0.54032767 1.719189
-8.8213596 -0.48430923 1.717281
-8.8242283 -0.42887607 1.717281
-8.8267488 -0.37342125 1.717281
-8.8191109 -0.31760311 1.7153728
-8.811121 -0.26189101 1.7134647
-8.8125925 -0.20652656 1.7134647
-8.8039017 -0.15098095 1.7115567
-8.8046761 -0.095664039 1.7115567
-8.8051033 -0.040338662 1.7115567
-8.7953672 0.01496691 1.7096486
-8.7950993 0.070231609 1.7096486
-8.7846689 0.12534879 1.7077404
-8.7935219 0.18074581 1.7096486
-8.7824144 0.23519899 1.7077404
-8.7807884 0.28961092 1.7077404
-8.7788048 0.34453547 1.7077404
-8.7764673 0.39968958 1.7077404
-8.7737827 0.45482326 1.7077404
-8.7315521 0.50766456 1.7001082
-8.7477827 0.56377655 1.7039243
-8.7636509 0.62011719 1.7077404
-8.7595816 0.67516601 1.7077404
-8.7649488 0.73100865 1.7096486
-8.7699604 0.78694069 1.7115567
-8.7746134 0.84296924 1.7134647
-8.7691984 0.89755476 1.7134647
-8.7537098 0.9508121 1.7115567
-8.7475901 1.0055543 1.7115567
-8.7410994 1.0604992 1.7115567
-8.7440004 1.1166412 1.7134647
-8.7368116 1.1715614 1.7134647
-8.7389994 1.2277963 1.7153728
-8.7311125 1.2826829 1.7153728
-8.732584 1.339002 1.717281
-8.7239981 1.393846 1.717281
-8.7247515 1.45024 1.719189
-8.7154675 1.5050327 1.719189
-6.3288841 1.1338997 1.2497989
-6.0417452 1.1216815 1.1944643
-5.7549553 1.1062419 1.1391296
-5.5937471 1.11225 1.1086003
-5.6250787 1.1554279 1.1162326
-5.6273108 1.1927854 1.1181407
-5.6197786 1.2277824 1.1181407
-5.631217 1.2668885 1.1219568
-5.6327448 1.3043054 1.123865
-5.6244383 1.3396726 1.123865
-5.5777717 1.3656461 1.1162326
-5.5405211 1.3934838 1.1105083
-5.5411611 1.4307208 1.1124164
-5.5415511 1.4680238 1.1143246
-5.532218 1.5028117 1.1143246
-5.5037527 1.5322777 1.1105083
-5.5884161 1.5937483 1.1295892
-5.5594459 1.6233284 1.1257731
-5.5679479 1.663847 1.1295892
-5.594934 1.7102753 1.1372216
-5.5840778 1.7453939 1.1372216
-5.5730009 1.7804465 1.1372216
-5.5710363 1.8184719 1.1391296
-8.6232777 2.8748517 1.7668912
-8.6236305 2.9353001 1.7707075
-8.6328344 2.9990923 1.7764317
-8.6230736 3.0565517 1.7783399
-8.5933828 3.1675515 1.7802479
-8.60116 3.231092 1.7859721
-8.5991135 3.2918541 1.7897884
-2.2592356 1.4775041 0.52472472
-2.2500374 1.4914742 0.52472472
-2.1835399 1.4673296 0.5113681
-2.1335859 1.453575 0.50182766
-2.1082156 1.4558543 0.49801147
-1.8352823 1.4456518 0.4541254
-1.8184894 1.4510326 0.45221731
-1.7940682 1.4500881 0.44840112
-1.7697304 1.4488956 0.44458497
-1.7379237 1.4411879 0.43886068
-1.7288338 1.4520795 0.43886068
-1.689769 1.4374709 0.43122831
-1.688141 1.4544666 0.4331364
-1.649384 1.4392285 0.42550406
1.014232 1.3489294 -0.088447765
1.03482 1.3583955 -0.089494482
1.0433346 1.3518667 -0.089494482
1.0395061 1.3295503 -0.088447765
1.0664401 1.3464777 -0.09001784
1.0811285 1.3475398 -0.090541206
1.0958719 1.3484702 -0.091064565
1.1043229 1.3415581 -0.091064565
1.1255203 1.3499331 -0.092111282
1.13398 1.3428346 -0.092111282
1.1488857 1.3432723 -0.092634641
1.1638415 1.3435754 -0.093157999
1.178846 1.3437432 -0.093681358
1.1950651 1.0454639 -0.083214171
1.2318395 1.064046 -0.085307606
1.2385008 1.0562851 -0.085307606
1.2603906 1.0613475 -0.086354323
1.2747134 1.0597916 -0.086877689
1.2813469 1.0517615 -0.086877689
1.2956886 1.0499771 -0.087401047
1.3100582 1.0480537 -0.087924406
1.3322915 1.0521804 -0.088971123
1.3467519 1.0499285 -0.089494482
1.3532541 1.0415345 -0.089494482
1.3676326 1.0391717 -0.09001784
1.3900905 1.0425717 -0.091064565
1.4046402 1.0397584 -0.091587923
1.7032957 1.1175799 -0.10676535
1.7270515 1.1177074 -0.10781207
1.7508755 1.1175799 -0.10885879
1.7916678 1.1278368 -0.11095223
1.7987189 1.1165572 -0.11095223
1.8227336 1.1156604 -0.11199895
1.8553576 1.1196651 -0.11356902
1.9923625 1.1021129 -0.11932598
2.0167851 1.0991305 -0.1203727
2.0412483 1.0958843 -0.12141941
2.0745776 1.097042 -0.1229895
2.1168582 1.1024362 -0.12508294
2.1504009 1.102785 -0.12665302
2.1751163 1.098254 -0.12769973
2.2088015 1.0979005 -0.12926981
2.2335966 1.092778 -0.13031653
2.2674117 1.091719 -0.1318866
2.2922757 1.0860025 -0.13293333
2.3262081 1.0842347 -0.13450341
2.35113 1.0779212 -0.13555013
2.3942711 1.0795462 -0.13764356
2.4191952 1.0727345 -0.13869028
3.2265565 1.2638242 -0.18160577
3.2810395 1.2614446 -0.18422256
3.2702136 1.2337543 -0.18317585
3.2871866 1.2168643 -0.18369921
3.313436 1.2032917 -0.18474592
3.330313 1.1858716 -0.18526928
3.4131217 0.84086996 -0.18422256
3.4474711 0.82639176 -0.18579264
3.4525955 0.80471444 -0.18579264
3.4381042 0.77859408 -0.18474592
3.4233723 0.75291204 -0.18369921
3.4279716 0.73168707 -0.18369921
3.4227064 0.70818567 -0.18317585
3.4270885 0.68666631 -0.18317585
3.4215314 0.66321951 -0.18265249
13.617408 1.7637607 -0.71961939
13.61831 1.6769451 -0.719096
13.628577 1.591346 -0.719096
13.638307 1.5056841 -0.719096
13.627633 1.4178959 -0.71804929
13.626333 1.3312725 -0.71752596
13.624484 1.2447213 -0.71700257
13.622086 1.1582459 -0.71647924
13.609183 1.0710663 -0.71543252
13.605684 0.9848156 -0.71490914
13.601639 0.89865118 -0.71438581
13.297993 0.79470462 -0.69816166
12.983618 0.6940769 -0.68141413
13.017648 0.61389637 -0.68298423
13.031192 0.53335381 -0.68350756
13.014285 0.45191172 -0.68246084
13.006902 0.3692801 -0.68193752
13.00899 0.28641209 -0.68193752
13.000552 0.20422795 -0.68141413
13.001579 0.12253945 -0.68141413
13.00209 0.041697916 -0.68141413
16.037918 -0.047934897 -0.84051543
16.057276 -0.1485372 -0.84156215
16.066011 -0.24957973 -0.84208554
16.07411 -0.35073787 -0.84260887
16.081572 -0.45200765 -0.84313226
16.068434 -0.55269843 -0.84260887
16.064644 -0.65364796 -0.84260887
16.060219 -0.75457168 -0.84260887
16.045189 -0.85493428 -0.84208554
16.049532 -0.95527434 -0.84260887
16.043304 -1.0546957 -0.84260887
16.036386 -1.1551273 -0.84260887
16.038769 -1.2566437 -0.84313226
16.020605 -1.3565503 -0.84260887
16.031656 -1.4589937 -0.84365559
16.012234 -1.5587267 -0.84313226
16.012056 -1.6603332 -0.84365559
16.011234 -1.761999 -0.84417897
15.999847 -1.8625653 -0.84417897
15.987957 -1.9620128 -0.84417897
15.985398 -2.0623112 -0.8447023
15.972172 -2.1623626 -0.8447023
15.978045 -2.2654793 -0.84574902
13.217299 -1.9588327 -0.7002551
12.395473 -1.9167053 -0.65733957
11.624025 -1.8722712 -0.61704093
10.942296 -1.8330743 -0.58145249
10.369769 -1.8042186 -0.55162096
9.8570232 -1.7788861 -0.52492964
9.3352098 -1.7453498 -0.49771494
8.9122705 -1.7242992 -0.47573385
8.5292625 -1.7052823 -0.45584616
8.2642488 -1.7056148 -0.44223884
8.2338724 -1.7531682 -0.44119209
5.549561 -1.5505093 -0.30197847
5.3956962 -1.5441339 -0.29412806
5.232553 -1.5330801 -0.28575432
5.2228169 -1.5659267 -0.28575432
5.2415171 -1.6074957 -0.2873244
5.1931982 -1.6284454 -0.28523096
4.8775649 -1.6307089 -0.26953018
4.8862705 -1.6673483 -0.27057689
3.1588476 -1.5421232 -0.18422256
3.1043978 -1.5396862 -0.18160577
3.0500708 -1.5366949 -0.17898896
3.0047956 -1.5376319 -0.17689553
2.9507692 -1.5334562 -0.17427874
2.9058483 -1.5331335 -0.17218529
2.8610802 -1.5322497 -0.17009185
2.8163357 -1.5310552 -0.16799842
2.7716863 -1.5294217 -0.16590498
2.718457 -1.522409 -0.16328818
2.7001555 -1.5345252 -0.16276482
2.6385546 -1.5215287 -0.15962467
2.6117036 -1.5279913 -0.15857795
2.5762885 -1.5290802 -0.15700787
2.5409639 -1.5297848 -0.15543778
2.5057333 -1.5301065 -0.15386771
2.4621098 -1.5247886 -0.15177427
2.4271102 -1.524295 -0.1502042
2.392215 -1.5234222 -0.14863411
2.3574276 -1.522172 -0.14706403
2.3227513 -1.5205452 -0.14549395
2.2966101 -1.5239151 -0.14444724
2.262264 -1.5213964 -0.14287716
2.2279389 -1.5186574 -0.14130709
2.1937046 -1.5155967 -0.139737
2.1759584 -1.5236223 -0.13921364
2.1419098 -1.5199265 -0.13764356
2.1079946 -1.5158638 -0.13607349
2.0822868 -1.5173166 -0.13502677
2.0647783 -1.524303 -0.13450341
2.0313027 -1.5191243 -0.13293333
2.0058317 -1.5197517 -0.1318866
1.9804001 -1.5201633 -0.13083988
1.9471596 -1.5141858 -0.12926981
1.9140735 -1.5078512 -0.12769973
1.8889508 -1.5073897 -0.12665302
1.8561436 -1.5003951 -0.12508294
1.8234997 -1.4930484 -0.12351286
1.8140826 -1.5044763 -0.12351286
1.7817522 -1.4964589 -0.12194277
1.7572317 -1.4945303 -0.12089606
1.7327067 -1.492469 -0.11984934
1.7157698 -1.4967616 -0.11932598
1.6913637 -1.4942887 -0.11827926
1.667057 -1.4915687 -0.11723254
1.6428519 -1.4886029 -0.11618582
1.6187505 -1.4853922 -0.1151391
1.6021677 -1.4886309 -0.11461575
1.5856401 -1.4916865 -0.11409238
1.5545774 -1.4809214 -0.1125223
1.5308675 -1.4767932 -0.11147559
1.5144148 -1.4794043 -0.11095223
1.4908906 -1.4748443 -0.1099055
1.4745394 -1.4771152 -0.10938215
1.451208 -1.4721273 -0.10833543
1.4349638 -1.4740608 -0.10781207
1.4118323 -1.4686493 -0.10676535
1.3957976 -1.470157 -0.10624199
1.3798312 -1.4714923 -0.10571863
1.3638055 -1.4727757 -0.10519527
1.341047 -1.4665762 -0.10414855
1.3251134 -1.4675614 -0.10362519
1.3092206 -1.4684044 -0.10310183
1.2933697 -1.4691061 -0.10257848
1.2775619 -1.4696667 -0.10205511
1.2617984 -1.4700871 -0.10153175
1.2460804 -1.4703677 -0.10100839
1.2240005 -1.4628501 -0.099961676
1.2084248 -1.4628128 -0.099438317
1.1929941 -1.4625597 -0.098914959
1.177645 -1.4621462 -0.098391593
1.1684669 -1.4694911 -0.098391593
1.1530448 -1.4689484 -0.097868234
1.1377721 -1.4681957 -0.097344875
1.1225857 -1.4672856 -0.096821517
1.1073582 -1.4663166 -0.096298158
1.0921552 -1.4652386 -0.0957748
1.071092 -1.4559836 -0.094728082
1.0560558 -1.4546037 -0.094204716
1.0410793 -1.4530925 -0.093681358
1.0319288 -1.459605 -0.093681358
1.0170238 -1.4578696 -0.093157999
1.0021818 -1.456005 -0.092634641
-1.0135609 -1.2480763 -0.084260888
-1.0213827 -1.2416834 -0.084260888
-1.0355566 -1.2429136 -0.084784247
-1.049786 -1.2440145 -0.085307606
-1.0575815 -1.237394 -0.085307606
-1.0718712 -1.2382751 -0.085830964
-1.0862135 -1.2390251 -0.086354323
-1.1006072 -1.2396436 -0.086877689
-1.1082935 -1.2327764 -0.086877689
-1.1226326 -1.2332709 -0.087401047
-1.1371011 -1.2335601 -0.087924406
-1.1516436 -1.2336911 -0.088447765
-1.1662326 -1.2336879 -0.088971123
-1.1808667 -1.2335496 -0.089494482
-1.188594 -1.2261057 -0.089494482
-1.2102659 -1.2328662 -0.090541206
-1.2179079 -1.2253174 -0.090541206
-1.2325604 -1.2247865 -0.091064565
-1.5029949 -1.3000997 -0.10414855
-1.5718831 -1.3425152 -0.10833543
-1.6031015 -1.3520305 -0.1099055
-2.6766407 -1.2305516 -0.15439107
-2.6934192 -1.2178239 -0.15491442
-2.7192678 -1.2089907 -0.15596114
-2.6902089 -1.1758828 -0.15386771
-2.6883688 -1.1550146 -0.15334435
-5.3680558 -1.0113957 -0.28627768
-5.5413308 -1.0080298 -0.29517478
-6.0916238 -0.98990297 -0.3234362
-6.216126 -0.97008502 -0.32971653
-6.2122221 -0.92953283 -0.32919315
-6.237711 -0.89331192 -0.33023989
-6.4608712 -0.88388199 -0.34175378
-9.1498604 -1.1932309 -0.48358423
-8.840045 -1.0963875 -0.46683672
-8.8665953 -1.0431539 -0.46788344
-8.8928242 -0.98963445 -0.46893016
-8.8492088 -0.92852694 -0.46631336
-8.7729235 0.51352543 -0.46055642
-8.8691769 0.57509637 -0.46579
-8.87535 0.63152254 -0.46631336
-8.8811636 0.68804425 -0.46683672
-8.8965673 0.74550259 -0.46788344
-8.8718157 0.79959118 -0.46683672
-8.8566761 0.85436189 -0.46631336
-8.8511934 0.90941066 -0.46631336
-8.8453884 0.96423578 -0.46631336
-8.8490992 1.0207427 -0.46683672
-8.8325968 1.0751185 -0.46631336
