# .PCD v0.7 - Point Cloud Data file format
VERSION 0.7
FIELDS x y z
SIZE 4 4 4
TYPE F F F
COUNT 1 1 1
WIDTH 1461
HEIGHT 1
VIEWPOINT 0 0 0 1 0 0 0
POINTS 1461
DATA ascii
1.60202 -1.4215903 -0.18738484
1.5783145 -1.4182243 -0.18564174
1.5621287 -1.4212719 -0.18477017
1.5385617 -1.417508 -0.18302706
1.522341 -1.4203511 -0.1821555
1.5061456 -1.4230466 -0.18128394
1.4827787 -1.418708 -0.17954083
1.466681 -1.4210645 -0.17866927
1.4435016 -1.4162982 -0.17692615
1.4275074 -1.4183185 -0.1760546
1.411545 -1.4201941 -0.17518304
1.3887149 -1.41474 -0.17343992
1.3799229 -1.4233171 -0.17343992
1.3641098 -1.4247191 -0.17256837
1.3414429 -1.4187845 -0.17082526
1.3257811 -1.4198312 -0.16995369
1.310205 -1.4206949 -0.16908213
1.2945918 -1.4214913 -0.16821058
1.2789735 -1.4221901 -0.16733903
1.256783 -1.4153001 -0.1655959
1.2478657 -1.4231688 -0.1655959
1.2323785 -1.4234496 -0.16472435
1.2104644 -1.4160203 -0.16298124
1.2015433 -1.4235978 -0.16298124
1.1861975 -1.4234661 -0.16210967
1.1990467 -1.4157449 0.36062899
1.1838309 -1.4157203 0.3587209
1.1687475 -1.4154906 0.3568128
1.1537521 -1.4150968 0.35490471
1.1387217 -1.4146399 0.35299665
1.1237038 -1.4140816 0.35108855
1.1147968 -1.4211141 0.35108855
1.0998356 -1.4203291 0.34918046
1.0850136 -1.4193475 0.34727237
1.0702852 -1.4182076 0.34536427
1.0496643 -1.4091308 0.34154809
1.0407902 -1.4156979 0.34154809
1.0318745 -1.4222095 0.34154809
1.0172036 -1.4206835 0.33963999
1.0025928 -1.4190295 0.33773193
-1.0148211 -1.7263321 0.38925034
-1.0306282 -1.7283809 0.39115843
-1.0414675 -1.7218713 0.39115843
-1.0573987 -1.7236608 0.39306653
-1.0733933 -1.7253178 0.39497462
-1.0894504 -1.7268417 0.39688271
-1.0949891 -1.7116933 0.39497462
-1.111064 -1.7130152 0.39688271
-1.1325917 -1.7224042 0.40069887
-1.1433915 -1.7152539 0.40069887
-1.165138 -1.724303 0.40451506
-1.181496 -1.7250471 0.40642315
-1.1923114 -1.7175895 0.40642315
-1.2030797 -1.7100642 0.40642315
-1.2251978 -1.7184569 0.41023934
-1.2358685 -1.7107989 0.41023934
-1.2522418 -1.7110304 0.41214743
-1.268768 -1.7110481 0.41405553
-1.28539 -1.7108907 0.41596359
-1.2961144 -1.7027806 0.41596359
-1.3187765 -1.7101501 0.41977978
-1.3294957 -1.7018303 0.41977978
-1.3523456 -1.7088382 0.42359596
-1.3691957 -1.7079664 0.42550406
-1.3860879 -1.7069502 0.42741215
-1.3966838 -1.6982912 0.42741215
-1.4134613 -1.697148 0.42932025
-1.4303797 -1.695776 0.43122831
-1.4537586 -1.7016822 0.4350445
-1.4644219 -1.6925144 0.4350445
-1.4879661 -1.6980454 0.43886068
-1.5051215 -1.6960047 0.44076878
-1.5223097 -1.6938154 0.44267687
-1.5395296 -1.6914766 0.44458497
-1.5634328 -1.6962059 0.44840112
-1.5806561 -1.6936197 0.45030922
-1.5978615 -1.6909281 0.45221731
-1.6219814 -1.6950841 0.4560335
-1.6394308 -1.6919091 0.45794159
-1.6569041 -1.6885815 0.45984969
-1.6743995 -1.6851012 0.46175775
-1.6988795 -1.6883867 0.46557394
-1.7164603 -1.6845547 0.46748203
-1.7411088 -1.6873999 0.47129822
-1.7587684 -1.6832141 0.47320631
-1.776444 -1.6788727 0.47511441
-1.8013105 -1.6810728 0.47893056
-1.8189554 -1.676483 0.48083866
-1.8365673 -1.6717883 0.48274675
-1.8688906 -1.6799535 0.48847103
-1.8867506 -1.6746942 0.4903791
-1.904618 -1.6692764 0.49228719
-1.9373369 -1.6765471 0.49801147
-1.9552957 -1.6707182 0.49991956
-1.9807602 -1.6710594 0.50373572
-1.9987631 -1.6648635 0.50564384
-2.0243475 -1.6647426 0.50946003
-2.0576298 -1.6705521 0.51518428
-2.0757451 -1.6637299 0.51709235
-2.1015537 -1.6628368 0.52090853
-2.1274323 -1.6616846 0.52472472
-2.1532793 -1.6604013 0.52854091
-2.179147 -1.6589195 0.5323571
-2.2051773 -1.6570488 0.53617328
-2.2313144 -1.6548557 0.53998947
-2.2575102 -1.6523992 0.5438056
-2.2837627 -1.6496783 0.54762179
-2.3180628 -1.6523902 0.5533461
-2.3444571 -1.6490879 0.55716228
-2.3789651 -1.6511158 0.56288654
-2.3973918 -1.641682 0.5647946
-2.4401953 -1.6485673 0.57242697
-2.4668417 -1.6440914 0.57624316
-2.4935277 -1.6393446 0.58005935
-2.5284872 -1.6396677 0.5857836
-2.5551805 -1.6344798 0.58959979
-2.5901644 -1.6343311 0.59532404
-2.6253407 -1.6336544 0.60104835
-2.6606541 -1.6325278 0.6067726
-2.6960557 -1.6310215 0.61249685
-2.7315426 -1.6291342 0.61822116
-2.7671111 -1.6268647 0.62394542
-2.8027577 -1.6242119 0.62966967
-2.8384795 -1.6211749 0.63539392
-2.8742728 -1.6177526 0.64111823
-2.9187186 -1.6187047 0.64875054
-2.954674 -1.6144546 0.65447485
-2.9906905 -1.609816 0.66019911
-3.0354364 -1.609387 0.66783148
-3.0714967 -1.6040982 0.67355573
-3.1162932 -1.6029969 0.68118811
-3.1612883 -1.6012129 0.68882048
-3.2064254 -1.5988399 0.6964528
-3.2516563 -1.5959623 0.70408517
-3.288137 -1.588309 0.70980942
-3.3512461 -1.5929021 0.72125798
-3.3967564 -1.5884471 0.72889036
-3.5516565 -1.5799998 0.75560361
-3.6064823 -1.5773205 0.76514405
-3.6704314 -1.5778905 0.77659261
-3.7164426 -1.570078 0.78422499
-3.7262344 -1.5466961 0.78422499
-3.7086093 -1.5121354 0.77850068
-3.7088354 -1.485377 0.77659261
-3.7088325 -1.4587752 0.77468449
-3.7088141 -1.4317871 0.77277642
-3.7086802 -1.4046541 0.7708683
-3.7081859 -1.3780266 0.76896024
-3.6982081 -1.3482993 0.76514405
-3.6973271 -1.3218334 0.76323599
-3.7055593 -1.2985764 0.76323599
-3.7043612 -1.2720799 0.76132786
-3.7029769 -1.2456501 0.7594198
-3.6920836 -1.2162166 0.75560361
-4.2558513 0.1938137 0.82811105
-4.303565 0.22309208 0.83765149
-4.3118777 0.25069624 0.83955956
-4.3200135 0.27841598 0.84146768
-4.327971 0.30624551 0.84337574
-4.3357482 0.33418831 0.84528381
-4.3433452 0.36223859 0.84719193
-4.3214297 0.38776788 0.84337574
-4.3189325 0.41465366 0.84337574
-4.3162804 0.4414061 0.84337574
-4.3134346 0.46839893 0.84337574
-4.3201585 0.49661383 0.84528381
-4.3266978 0.5249294 0.84719193
-4.3233142 0.55210549 0.84719193
-4.3197598 0.57925749 0.84719193
-4.3257561 0.60775232 0.84909999
-4.3218522 0.63491857 0.84909999
-4.3177776 0.66206211 0.84909999
-4.0437908 0.80344164 0.80139774
-4.0578942 0.83278143 0.80521393
-4.0525818 0.85826033 0.80521393
-4.0662894 0.88789564 0.80903012
-4.0702076 0.91558045 0.81093824
-4.0643744 0.94113719 0.81093824
-4.0583811 0.96665466 0.81093824
-4.052227 0.99213606 0.81093824
-4.0459137 1.0175762 0.81093824
-4.0489445 1.0454323 0.8128463
-4.0517855 1.0733645 0.81475437
-4.044961 1.0988024 0.81475437
-4.0379772 1.1241947 0.81475437
-4.0402737 1.1522371 0.81666249
-4.0424485 1.180107 0.81857055
-4.035059 1.2051316 0.81857055
-4.036829 1.2332182 0.82047868
-4.0383701 1.2614858 0.82238674
-2.8654389 1.2870277 0.61058879
-2.8126502 1.2846164 0.60104835
-2.7600846 1.2814256 0.59150785
-2.7165809 1.2817478 0.58387554
-2.6642528 1.2774961 0.57433504
-2.6208751 1.2770126 0.56670272
-2.5688136 1.2716788 0.55716228
-2.5344632 1.2745638 0.55143797
-2.4914377 1.2726014 0.5438056
-2.4485376 1.2701505 0.53617328
-2.4144537 1.271785 0.53044897
-1.0973223 1.2310668 0.32055911
-1.0765951 1.2231995 0.31674293
-1.075327 1.2373494 0.31865102
-1.0611392 1.2366315 0.31674293
-1.0470026 1.235785 0.31483483
-1.026621 1.2272803 0.31101865
-1.0188892 1.2337067 0.31101865
-1.0049146 1.232476 0.30911058
1.0012047 1.1194916 0.29193777
1.0148085 1.1204544 0.29384586
1.0284637 1.1212903 0.29575393
1.0354887 1.1148062 0.29575393
1.0491984 1.1154282 0.29766202
1.0629565 1.1159217 0.29957011
1.069947 1.109221 0.29957011
1.0906136 1.1165208 0.3033863
1.1045105 1.1166252 0.30529439
1.1115047 1.1096632 0.30529439
1.1254452 1.1095493 0.30720249
1.139428 1.1093036 0.30911058
1.1534519 1.1089257 0.31101865
1.1675156 1.1084151 0.31292674
1.1816182 1.1077714 0.31483483
1.1957586 1.1069939 0.31674293
1.2171806 1.1127053 0.32055911
1.2241479 1.1050357 0.32055911
1.2383946 1.1038541 0.32246721
1.2526745 1.1025368 0.32437527
1.2669864 1.1010834 0.32628337
1.2813293 1.0994934 0.32819146
1.2957019 1.0977664 0.33009955
1.3101031 1.0959018 0.33200765
1.3321004 1.1001503 0.33582383
1.3465943 1.0979621 0.33773193
1.3611131 1.0956348 0.33963999
1.3756555 1.0931683 0.34154809
1.3979439 1.0966206 0.34536427
1.4125022 1.0939102 0.34727237
1.4270508 1.0910999 0.34918046
1.4495193 1.0939778 0.35299665
1.4642365 1.0907127 0.35490471
1.4789696 1.0873055 0.3568128
1.5016627 1.0895208 0.36062899
1.5244414 1.0914935 0.36444518
1.5312693 1.0818937 0.36444518
1.5541419 1.0834789 0.36826137
1.5690066 1.0792558 0.37016943
1.5838792 1.0748883 0.37207752
1.6150724 1.0812987 0.37780181
1.6300255 1.0765395 0.3797099
1.6532072 1.0769929 0.38352609
1.6599414 1.0665842 0.38352609
1.691485 1.0718968 0.38925034
1.7148354 1.0716521 0.39306653
1.7298919 1.0660062 0.39497462
1.7533338 1.0653105 0.39879081
1.7768348 1.0643617 0.40260696
1.8003924 1.0631592 0.40642315
1.8240043 1.0617024 0.41023934
1.8476683 1.0599904 0.41405553
1.8713822 1.0580226 0.41787168
1.8951435 1.0557984 0.42168787
1.9189502 1.053317 0.42550406
1.9427367 1.0506941 0.42932025
1.9665357 1.0478693 0.4331364
1.9991281 1.049232 0.43886068
2.0231218 1.0456649 0.44267687
2.0558975 1.0462896 0.44840112
2.0799835 1.0421458 0.45221731
2.1129017 1.0420824 0.45794159
2.1459 1.0416461 0.46366584
2.1701179 1.0366046 0.46748203
2.2032402 1.0354749 0.47320631
2.2453432 1.0380888 0.48083866
2.2696929 1.0320871 0.48465484
2.3030164 1.0298272 0.4903791
2.3363998 1.0271889 0.49610338
2.3698399 1.0241715 0.50182766
2.4033334 1.0207736 0.50755191
2.445936 1.0207757 0.51518428
2.4795492 1.0165583 0.52090853
2.5223105 1.0156249 0.52854091
2.5560281 1.0105845 0.53426516
2.5897808 1.00516 0.53998947
2.6419117 1.0063393 0.54952991
2.684963 1.003466 0.55716228
2.7280807 1.000091 0.5647946
2.7712011 0.99637914 0.57242697
2.8236101 0.99551004 0.58196741
6.3107514 0.79751313 1.2364423
6.4715328 0.77694601 1.2669717
6.7688227 0.77012545 1.3242145
7.0663567 0.75880086 1.3814571
7.3835797 0.745318 1.442516
7.7105904 0.72967172 1.5054829
8.0669765 0.71299696 1.5741742
8.4626141 0.69463921 1.6504978
8.9268579 0.67630714 1.740178
9.4205656 0.65420741 1.8355825
9.9241247 0.62654752 1.9328951
9.7326345 -1.784077 1.9233546
9.258317 -1.7573272 1.8317664
8.8040028 -1.7284729 1.7439942
8.4466372 -1.7134984 1.675303
8.128253 -1.7021521 1.6142441
7.7048111 -1.6640794 1.5321962
7.4067488 -1.6484799 1.4749535
7.0230837 -1.6094683 1.400538
6.8409524 -1.6126024 1.3661923
6.6781855 -1.6179752 1.335663
6.4869461 -1.6146717 1.2994093
6.2674413 -1.60192 1.2574313
6.1244178 -1.6060323 1.230718
5.9911146 -1.6108141 1.2059128
4.9399371 -1.3613811 0.99602294
4.9501796 -1.3977275 0.99983913
5.4788079 -1.5842251 1.1086003
5.3746195 -1.5907588 1.0895194
5.2329888 -1.584667 1.0628061
5.1104064 -1.5826676 1.039909
4.9787011 -1.576229 1.0151038
4.8566232 -1.5712209 0.99220675
4.7349033 -1.5644586 0.96930969
3.3711009 -1.5028496 0.7174418
3.3079493 -1.4996818 0.70599329
3.2450621 -1.4955864 0.69454473
3.2446229 -1.5198274 0.6964528
3.2439148 -1.544315 0.69836092
3.2429841 -1.5689416 0.70026898
3.2154434 -1.5806258 0.6964528
3.1878843 -1.5920262 0.69263667
3.1779151 -1.6118344 0.69263667
3.1853213 -1.6404821 0.6964528
3.2010922 -1.6740239 0.70217711
3.190511 -1.6941038 0.70217711
2.5046825 -1.6041217 0.57815123
2.4698555 -1.6037894 0.57242697
2.4269335 -1.5976859 0.5647946
2.4005172 -1.6020052 0.56097841
2.3498461 -1.5894147 0.55143797
2.3318567 -1.5983933 0.54952991
2.2895644 -1.5905478 0.54189754
2.2634726 -1.5935999 0.53808135
2.2214518 -1.5849847 0.53044897
2.1955395 -1.5874082 0.52663285
2.1776991 -1.5952399 0.52472472
2.1520078 -1.5970023 0.52090853
2.1262832 -1.5986356 0.51709235
1.7993711 -1.4435027 0.44840112
1.7674114 -1.4362082 0.44267687
1.7356153 -1.4285699 0.43695259
1.7191511 -1.4330581 0.4350445
1.6952372 -1.4310182 0.43122831
1.6713294 -1.4288377 0.42741215
1.6474766 -1.4264597 0.42359596
1.6237203 -1.423839 0.41977978
1.6074023 -1.4274946 0.41787168
1.5911885 -1.4309065 0.41596359
1.567776 -1.4275199 0.41214743
1.5515983 -1.4306453 0.41023934
1.5282292 -1.4269674 0.40642315
1.504968 -1.4230527 0.40260696
1.4889071 -1.4256915 0.40069887
1.4728726 -1.428185 0.39879081
1.4498616 -1.4236559 0.39497462
1.4339272 -1.4258161 0.39306653
1.4111059 -1.4208674 0.38925034
1.3953625 -1.4226136 0.38734224
1.3796909 -1.4241817 0.38543415
1.3571829 -1.4185988 0.38161799
1.3415016 -1.4199626 0.3797099
1.3259422 -1.4211063 0.37780181
1.3104597 -1.4220757 0.37589371
1.2883244 -1.4157255 0.37207752
1.2728426 -1.4164908 0.37016943
1.2574024 -1.4171177 0.36826137
1.2420049 -1.4176068 0.36635327
1.2266511 -1.4179587 0.36444518
1.2113421 -1.4181739 0.36253709
1.1960791 -1.4182529 0.36062899
1.1808633 -1.4181964 0.3587209
1.2127981 -1.4331224 -0.098391593
1.1973666 -1.433051 -0.097868234
1.182078 -1.432765 -0.097344875
1.1668707 -1.4323192 -0.096821517
1.1516209 -1.4318156 -0.096298158
1.136392 -1.4312024 -0.0957748
1.1212165 -1.4304546 -0.095251441
1.1060957 -1.4295731 -0.094728082
1.0911239 -1.4284867 -0.094204716
1.0822519 -1.4352199 -0.094204716
1.0672823 -1.4339569 -0.093681358
1.0523394 -1.4325862 -0.093157999
1.0374562 -1.4310848 -0.092634641
1.0284439 -1.437575 -0.092634641
1.0078726 -1.4276921 -0.091587923
-1.0012895 -1.7511833 -0.10571863
-1.017169 -1.753562 -0.10624199
-1.0280143 -1.7472262 -0.10624199
-1.0440519 -1.7493304 -0.10676535
-1.0550226 -1.7427359 -0.10676535
-1.0659517 -1.7360727 -0.10676535
-1.0873959 -1.7462951 -0.10781207
-1.1036785 -1.7478722 -0.10833543
-1.1146388 -1.7409031 -0.10833543
-1.1309927 -1.7422415 -0.10885879
-1.1474071 -1.7434428 -0.10938215
-1.1638811 -1.7445061 -0.1099055
-1.1748191 -1.7371589 -0.1099055
-1.191357 -1.7379799 -0.11042886
-1.2079513 -1.7386613 -0.11095223
-1.224601 -1.7392025 -0.11147559
-1.2413051 -1.7396028 -0.11199895
-1.2520972 -1.7318512 -0.11199895
-1.2687044 -1.7321166 -0.1125223
-1.2973788 -1.7481966 -0.11409238
-1.3083373 -1.7400105 -0.11409238
-1.3252958 -1.7396995 -0.11461575
-1.3362005 -1.7313381 -0.11461575
-1.3593541 -1.7386427 -0.11566246
-1.3702515 -1.7300674 -0.11566246
-1.387344 -1.7292129 -0.11618582
-1.4044797 -1.7282118 -0.11670918
-1.4215441 -1.7271563 -0.11723254
-1.4386117 -1.7259866 -0.1177559
-1.4558322 -1.724576 -0.11827926
-1.4731289 -1.722985 -0.11880262
-1.4904627 -1.7212445 -0.11932598
-1.5078325 -1.7193537 -0.11984934
-1.5318687 -1.724779 -0.12089606
-1.5426755 -1.71512 -0.12089606
-1.5601462 -1.7127759 -0.12141941
-1.584419 -1.71762 -0.12246613
-1.6018845 -1.7150334 -0.1229895
-1.6193419 -1.7123307 -0.12351286
-1.6369385 -1.7093705 -0.12403622
-1.6615505 -1.7133896 -0.12508294
-1.6792798 -1.7100416 -0.1256063
-1.6970327 -1.7065377 -0.12612966
-1.7148076 -1.702878 -0.12665302
-1.7326033 -1.6990621 -0.12717637
-1.7575923 -1.7020365 -0.12822309
-1.7826865 -1.7047634 -0.12926981
-1.7933625 -1.6935289 -0.12926981
-1.8185749 -1.6958487 -0.13031653
-1.8437754 -1.6980389 -0.13136324
-1.8690361 -1.700021 -0.13240996
-1.8870733 -1.6949582 -0.13293333
-1.905157 -1.6896942 -0.13345669
-1.9307613 -1.6908488 -0.13450341
-1.9564548 -1.6917478 -0.13555013
-1.9822352 -1.6923902 -0.13659684
-2.0004649 -1.6863385 -0.1371202
-2.026372 -1.6865132 -0.13816692
-2.0523598 -1.6864278 -0.13921364
-2.0706706 -1.6797906 -0.139737
-2.0967736 -1.679232 -0.14078373
-2.1229506 -1.6784114 -0.14183044
-2.1491995 -1.6773275 -0.14287716
-2.1754081 -1.6761221 -0.14392388
-2.2016482 -1.6747026 -0.1449706
-2.2280626 -1.6728766 -0.14601731
-2.2545764 -1.6707356 -0.14706403
-2.2811506 -1.6683271 -0.14811075
-2.3077829 -1.6656501 -0.14915748
-2.334471 -1.6627039 -0.1502042
-2.3693826 -1.6652298 -0.15177427
-2.388005 -1.6560004 -0.15229763
-2.43133 -1.6635197 -0.15439107
-2.458288 -1.6593854 -0.15543778
-2.4936016 -1.660512 -0.15700787
-2.5206788 -1.655777 -0.15805459
-2.5561752 -1.6561968 -0.15962467
-2.5832524 -1.6510273 -0.16067138
-2.6187758 -1.6509668 -0.16224146
-2.6460233 -1.6450828 -0.16328818
-2.6818488 -1.6440829 -0.16485827
-2.7177653 -1.6426971 -0.16642834
-2.7537692 -1.6409243 -0.16799842
-2.7898569 -1.6387633 -0.16956849
-2.8260252 -1.6362129 -0.17113857
-2.8622706 -1.6332723 -0.17270865
-2.8985896 -1.62994 -0.17427874
-2.9349787 -1.6262153 -0.17584881
-2.988965 -1.6316671 -0.1784656
-3.0167482 -1.6223152 -0.17951232
-3.0710053 -1.6267005 -0.18212913
-3.1076212 -1.621433 -0.18369921
-3.1531363 -1.620405 -0.18579264
-3.1988623 -1.6186657 -0.18788607
-3.2357855 -1.6118931 -0.18945616
-3.2906814 -1.6135128 -0.19207296
-3.33673 -1.6101654 -0.19416639
-3.3738439 -1.6020187 -0.19573647
-3.4290817 -1.6019223 -0.19835328
-3.5399418 -1.5998325 -0.20358686
-3.586427 -1.5937806 -0.20568031
-3.6421256 -1.5912051 -0.2082971
-3.7071075 -1.5919323 -0.21143726
-3.7354379 -1.5763739 -0.21248397
-3.7268188 -1.5452238 -0.21143726
-3.7179568 -1.5142436 -0.21039054
-3.7180281 -1.4873883 -0.20986718
-3.7178779 -1.4606708 -0.20934382
-3.7177269 -1.4335274 -0.20882046
-3.7174435 -1.4062811 -0.2082971
-3.7167833 -1.3795838 -0.20777375
-3.7158766 -1.3531109 -0.20725039
-3.7148712 -1.32646 -0.20672703
-3.7137065 -1.2997937 -0.20620367
-3.7123539 -1.2731947 -0.20568031
-3.710814 -1.2466639 -0.20515695
-3.7090874 -1.2202029 -0.20463358
-4.0305533 -1.1603119 -0.21981101
-4.1242876 -1.1592851 -0.22452125
-4.1603818 -1.1412742 -0.22609133
-4.1771173 -1.1176926 -0.22661468
-4.1937203 -1.0939456 -0.22713804
-4.1714754 -1.0601947 -0.22556797
-4.1586666 -1.0291659 -0.22452125
-4.1650505 -1.0030171 -0.22452125
-4.151824 -0.97227472 -0.22347453
-4.1578512 -0.94616789 -0.22347453
-4.1539626 -0.91787124 -0.22295117
-4.1596479 -0.89175206 -0.22295117
-4.1553912 -0.86356795 -0.22242782
-4.1509452 -0.83547038 -0.22190446
-4.1561127 -0.80937392 -0.22190446
-4.1513023 -0.78139609 -0.2213811
-4.1560807 -0.75556856 -0.2213811
-4.1508465 -0.72807741 -0.22085772
-4.1454768 -0.70041078 -0.22033437
-4.1497955 -0.67435139 -0.22033437
-4.1539507 -0.64826536 -0.22033437
-4.1381893 -0.61919594 -0.21928765
-4.1419978 -0.59318393 -0.21928765
-4.1456432 -0.56714636 -0.21928765
-4.1392221 -0.53979713 -0.21876429
-4.1425323 -0.51377803 -0.21876429
-4.1456785 -0.48774081 -0.21876429
-4.1387362 -0.46057764 -0.21824093
-4.14152 -0.43483445 -0.21824093
-4.144135 -0.40916494 -0.21824093
-4.1366968 -0.38202029 -0.21771757
-4.1390462 -0.35566083 -0.21771757
-4.1312518 -0.32876599 -0.21719421
-4.1332359 -0.3028011 -0.21719421
-4.1350565 -0.27682647 -0.21719421
-4.1267467 -0.25023428 -0.21667086
-4.1381941 -0.22511435 -0.21719421
-4.1295347 -0.19898883 -0.21667086
-4.1306996 -0.17312971 -0.21667086
-4.1317058 -0.14717136 -0.21667086
-4.1225672 -0.12091663 -0.2161475
-4.1232457 -0.095010422 -0.2161475
-4.1237612 -0.06910266 -0.2161475
-4.124114 -0.043189969 -0.2161475
-4.1243038 -0.01727777 -0.2161475
-4.1143446 0.0086163944 -0.21562414
-4.1142092 0.034466192 -0.21562414
-4.1139116 0.06031682 -0.21562414
-4.1134567 0.085895576 -0.21562414
-4.1128459 0.1113812 -0.21562414
-4.102087 0.13679692 -0.21510078
-4.111125 0.1629627 -0.21562414
-4.1100202 0.18878923 -0.21562414
-4.1087527 0.21461049 -0.21562414
-4.1073232 0.24042109 -0.21562414
-4.1156969 0.26687056 -0.2161475
-4.1039777 0.29201499 -0.21562414
-4.1020617 0.31779623 -0.21562414
-4.0999842 0.34356275 -0.21562414
-4.0977445 0.36931789 -0.21562414
-4.105309 0.39574838 -0.2161475
-4.1027784 0.4211776 -0.2161475
-4.1000609 0.44685704 -0.2161475
-4.0971723 0.47261062 -0.2161475
-4.0941219 0.49834335 -0.2161475
-4.09091 0.52405864 -0.2161475
-4.0974336 0.55108213 -0.21667086
-4.0938902 0.57681495 -0.21667086
-4.0901856 0.60252506 -0.21667086
-4.096189 0.62973094 -0.21719421
-4.0921516 0.6554544 -0.21719421
-4.0879526 0.68115413 -0.21719421
-4.0835924 0.70682484 -0.21719421
-4.0888996 0.73423481 -0.21771757
-4.0842056 0.7599104 -0.21771757
-4.07935 0.78555822 -0.21771757
-4.0743341 0.81117278 -0.21771757
-4.0789385 0.83876896 -0.21824093
-4.0735879 0.86437994 -0.21824093
-4.0778317 0.89209312 -0.21876429
-4.0721464 0.91769612 -0.21876429
-4.0760279 0.94552159 -0.21928765
-4.0700068 0.97111219 -0.21928765
-4.073523 0.99904525 -0.21981101
-4.0671659 1.024619 -0.21981101
-4.0703158 1.0526549 -0.22033437
-4.0732741 1.0807685 -0.22085772
-4.0664029 1.1063412 -0.22085772
-4.0689907 1.1345503 -0.2213811
-4.0617814 1.1600951 -0.2213811
-4.0640755 1.1881285 -0.22190446
-4.0662031 1.2161485 -0.22242782
-4.0585093 1.2415833 -0.22242782
-2.8599081 1.2858928 -0.16433489
-2.8063614 1.2830757 -0.1617181
-2.7530494 1.2794554 -0.15910131
-2.6999197 1.2751651 -0.1564845
-2.6558712 1.2747595 -0.15439107
-2.6119063 1.2739116 -0.15229763
-2.5680592 1.2725607 -0.1502042
-2.5243328 1.2707112 -0.14811075
-2.4896247 1.2729079 -0.14654067
-2.4461262 1.2701186 -0.14444724
-3.8430364 2.763536 -0.24807243
-3.7933125 2.7641046 -0.245979
-3.743736 2.7641563 -0.24388555
-1.1036211 1.2235454 -0.086354323
-1.1025531 1.2379131 -0.086877689
-1.1013486 1.2523148 -0.087401047
-1.0869104 1.2516701 -0.086877689
-1.0660245 1.243312 -0.085830964
-1.0581913 1.2499857 -0.085830964
-1.0439124 1.2489473 -0.085307606
-1.0296881 1.2477796 -0.084784247
-1.0155206 1.2464823 -0.084260888
-1.0076683 1.2528386 -0.084260888
1.0046318 1.1511747 -0.080074012
1.0184332 1.1523446 -0.080597371
1.0323135 1.1533639 -0.081120729
1.0462465 1.1542541 -0.081644088
1.0534782 1.1476575 -0.081644088
1.0674676 1.14833 -0.082167447
1.0815066 1.1488715 -0.082690813
1.0955943 1.1492817 -0.083214171
1.1097295 1.1495601 -0.08373753
1.1169305 1.1425648 -0.08373753
1.1311129 1.1426214 -0.084260888
1.1382698 1.135492 -0.084260888
1.152496 1.1353258 -0.084784247
1.1667647 1.1350254 -0.085307606
1.1738732 1.1276721 -0.085307606
1.1954254 1.1340199 -0.086354323
1.209815 1.1333137 -0.086877689
1.2169119 1.1256899 -0.086877689
1.2387073 1.1314918 -0.087924406
1.2532076 1.130375 -0.088447765
1.2677425 1.1291205 -0.088971123
1.2823108 1.1277276 -0.089494482
1.2969112 1.1261963 -0.09001784
1.3115429 1.1245254 -0.090541206
1.3262044 1.122715 -0.091064565
1.348557 1.1271688 -0.092111282
1.3556125 1.1186733 -0.092111282
1.3780988 1.122749 -0.093157999
1.3929076 1.1203269 -0.093681358
1.40774 1.1177627 -0.094204716
1.422595 1.1150562 -0.094728082
1.4373983 1.1123008 -0.095251441
1.4601334 1.1154985 -0.096298158
1.4750626 1.112347 -0.096821517
1.4900335 1.1090194 -0.097344875
1.5130687 1.1114595 -0.098391593
1.5361928 1.1136533 -0.099438317
1.5512816 1.1097896 -0.099961676
1.5663822 1.1057801 -0.10048503
1.5896875 1.1073323 -0.10153175
1.6048436 1.1029785 -0.10205511
1.6282729 1.1040822 -0.10310183
1.6517786 1.1049346 -0.10414855
1.6670237 1.1000346 -0.10467191
1.6906413 1.1004342 -0.10571863
1.7059257 1.0951849 -0.10624199
1.7296479 1.0951289 -0.10728871
1.753436 1.0948176 -0.10833543
1.768784 1.0890145 -0.10885879
1.7926646 1.0882437 -0.1099055
1.8166045 1.0872155 -0.11095223
1.8406017 1.0859289 -0.11199895
1.8732864 1.0894035 -0.11356902
1.8974224 1.0875438 -0.11461575
1.9216082 1.0854234 -0.11566246
1.9458417 1.0830415 -0.11670918
1.9701203 1.0803978 -0.1177559
1.9943714 1.0776218 -0.11880262
2.01864 1.0746295 -0.11984934
2.0430176 1.0712439 -0.12089606
2.0763276 1.0721316 -0.12246613
2.1097283 1.0726423 -0.12403622
2.1342864 1.0683051 -0.12508294
2.1588726 1.0637014 -0.12612966
2.1924701 1.0631877 -0.12769973
2.226145 1.0622935 -0.12926981
2.2598944 1.0610175 -0.13083988
2.2937145 1.0593588 -0.13240996
2.3185098 1.0531865 -0.13345669
2.3524351 1.0508173 -0.13502677
2.3864212 1.0480624 -0.13659684
2.4204645 1.044922 -0.13816692
2.4545615 1.0413942 -0.139737
2.497926 1.0413214 -0.14183044
2.5321436 1.0369595 -0.14340052
2.5756691 1.0359348 -0.14549395
2.6099918 1.0307353 -0.14706403
2.662972 1.0323642 -0.14968084
2.6974068 1.0262653 -0.15125091
2.7412245 1.0232663 -0.15334435
2.7851095 1.0197567 -0.15543778
9.1221848 0.80270135 -0.47992072
9.1170788 0.74475449 -0.47939736
9.1912842 0.69270927 -0.48306087
9.7732849 0.67484438 -0.51341569
10.375334 0.65094227 -0.54481727
11.037268 0.62287581 -0.57935905
11.739127 0.58851564 -0.61599422
12.620507 0.55405772 -0.66204983
15.218292 0.57365662 -0.7981233
15.211636 0.47704858 -0.79759997
15.204383 0.37988368 -0.79707658
15.206476 0.28401461 -0.79707658
15.197974 0.18834063 -0.79655325
15.208838 0.093903087 -0.79707658
15.209127 -0.00032970298 -0.79707658
15.198841 -0.095498145 -0.79655325
15.187956 -0.19086744 -0.79602987
15.186457 -0.28629196 -0.79602987
15.184359 -0.38170516 -0.79602987
15.17171 -0.47579566 -0.79550654
15.158492 -0.56941259 -0.79498315
15.15463 -0.66431355 -0.79498315
15.150156 -0.75951934 -0.79498315
15.135115 -0.85413247 -0.79445982
15.139416 -0.94983715 -0.79498315
15.013598 -1.0366868 -0.78870285
15.016747 -1.1317495 -0.78922623
15.049151 -1.229332 -0.79131967
15.04113 -1.3238637 -0.79131967
15.022666 -1.4164232 -0.79079628
15.023538 -1.5104724 -0.79131967
15.013785 -1.604512 -0.79131967
15.01333 -1.6999378 -0.791843
15.002354 -1.7942333 -0.791843
15.0106 -1.8909563 -0.79288971
14.879623 -1.9695063 -0.78660941
14.748257 -2.0464876 -0.78032911
12.115054 -1.8346614 -0.64216214
11.580528 -1.8279603 -0.61442411
10.957855 -1.8003095 -0.58197582
10.395073 -1.7749953 -0.55266768
9.9018955 -1.7548827 -0.52702308
9.4585094 -1.7376682 -0.50399524
8.9470749 -1.7018915 -0.47730392
8.9656 -1.7638569 -0.478874
7.93606 -1.665159 -0.42496794
7.749754 -1.6769726 -0.41554749
7.7683053 -1.7321514 -0.41711757
7.2316818 -1.6602616 -0.38885614
7.2396293 -1.7569686 -0.39042622
6.3661065 -1.5872484 -0.34384722
6.4720993 -1.6569371 -0.35012755
6.0270305 -1.5829885 -0.32657635
4.2253981 -1.3104035 -0.23184828
4.2551589 -1.3489981 -0.23394172
4.2560987 -1.3787849 -0.23446508
4.2474437 -1.4052217 -0.23446508
4.248117 -1.4347064 -0.23498844
4.2483959 -1.4648099 -0.23551179
3.4201467 -1.5006276 -0.19573647
3.3468149 -1.4935991 -0.19207296
3.2828026 -1.4898363 -0.18893281
3.2734759 -1.5102187 -0.18893281
3.2821393 -1.5389507 -0.18997952
3.2724392 -1.559471 -0.18997952
3.2805517 -1.5887067 -0.19102624
2.5053871 -1.6059612 -0.15596114
2.4617538 -1.5999038 -0.15386771
2.451653 -1.6153399 -0.15386771
2.4082379 -1.6085255 -0.15177427
2.3733814 -1.6066735 -0.1502042
2.3386769 -1.6043998 -0.14863411
2.3039875 -1.6019093 -0.14706403
2.2775505 -1.6048497 -0.14601731
2.2349143 -1.5959148 -0.14392388
2.2167523 -1.6040714 -0.14340052
2.1825745 -1.6001103 -0.14183044
2.1565845 -1.6016939 -0.14078373
1.8156769 -1.4390881 -0.12141941
1.7910249 -1.4379638 -0.1203727
1.7664593 -1.4365871 -0.11932598
1.7419825 -1.4349589 -0.11827926
1.7253585 -1.439365 -0.1177559
1.7011503 -1.4371383 -0.11670918
1.6845306 -1.4412694 -0.11618582
1.6603476 -1.4387456 -0.1151391
1.6437691 -1.4425623 -0.11461575
1.6197443 -1.4395938 -0.11356902
1.5884936 -1.4295959 -0.11199895
1.5648429 -1.425958 -0.11095223
1.5485448 -1.4289558 -0.11042886
1.5322394 -1.431839 -0.1099055
1.5159594 -1.434574 -0.10938215
1.4924955 -1.4302518 -0.10833543
1.476313 -1.4326466 -0.10781207
1.4601597 -1.4348948 -0.10728871
1.436958 -1.4299526 -0.10624199
1.4209107 -1.4318646 -0.10571863
1.3980005 -1.4264076 -0.10467191
1.3891355 -1.4350423 -0.10467191
1.3663218 -1.4292749 -0.10362519
1.3504593 -1.4305696 -0.10310183
1.3347286 -1.4316344 -0.10257848
1.3190684 -1.4325304 -0.10205511
1.3033547 -1.4333729 -0.10153175
1.2876511 -1.4341031 -0.10100839
1.2719901 -1.434693 -0.10048503
1.2563727 -1.435143 -0.099961676
1.2408001 -1.4354537 -0.099438317
1.2252735 -1.4356256 -0.098914959
1.209794 -1.4356593 -0.098391593
1.1943626 -1.4355555 -0.097868234
1.1953697 -1.4136529 0.427407
1.1802193 -1.413656 0.42515749
1.1652166 -1.4134424 0.42290798
1.1502855 -1.4130781 0.42065847
1.1353039 -1.4126638 0.41840896
1.1203495 -1.4121361 0.41615945
1.1114547 -1.4191475 0.41615945
1.090597 -1.4106857 0.41166043
1.0818124 -1.4174335 0.41166043
1.0671456 -1.4163272 0.40941092
1.0466199 -1.4073497 0.40491191
1.0319917 -1.4060427 0.40266237
1.023137 -1.4124991 0.40266237
1.0085757 -1.410973 0.40041286
-1.0135897 -1.7211847 0.46114966
-1.0243559 -1.7147992 0.46114966
-1.0401592 -1.7166624 0.46339917
-1.0611279 -1.7266959 0.46789819
-1.0719562 -1.7199945 0.46789819
-1.0879474 -1.721462 0.4701477
-1.1039993 -1.7227961 0.47239721
-1.1148021 -1.7158256 0.47239721
-1.1309208 -1.7169242 0.47464672
-1.1470969 -1.7178879 0.47689623
-1.1633297 -1.7187157 0.47914574
-1.1796179 -1.719407 0.48139524
-1.1903979 -1.7119613 0.48139524
-1.2067437 -1.7124127 0.48364475
-1.2231419 -1.7127261 0.48589426
-1.2394701 -1.7129884 0.48814377
-1.2558204 -1.7131344 0.49039328
-1.2723411 -1.7130532 0.49264279
-1.2830794 -1.7050251 0.49264279
-1.2996745 -1.7046782 0.4948923
-1.3163159 -1.7041898 0.49714181
-1.3330021 -1.7035592 0.49939135
-1.349732 -1.7027858 0.50164086
-1.3665048 -1.7018694 0.50389034
-1.383319 -1.7008089 0.50613987
-1.4000531 -1.6997033 0.50838935
-1.4230402 -1.7059608 0.51288837
-1.439991 -1.7044526 0.51513791
-1.4506719 -1.6953713 0.51513791
-1.474058 -1.7009499 0.51963693
-1.4847162 -1.6916546 0.51963693
-1.5082623 -1.6968578 0.52413595
-1.525413 -1.6945895 0.52638549
-1.5425946 -1.6921724 0.52863497
-1.566415 -1.6967653 0.53313398
-1.5835792 -1.6941196 0.53538352
-1.6007434 -1.6913519 0.537633
-1.618053 -1.6883221 0.53988254
-1.635415 -1.6851145 0.54213202
-1.6596301 -1.6887045 0.54663104
-1.6770805 -1.6851501 0.54888058
-1.7014685 -1.6883056 0.5533796
-1.7190024 -1.6844012 0.55562907
-1.736554 -1.6803428 0.55787861
-1.7611669 -1.6828614 0.56237763
-1.7787926 -1.6784496 0.56462711
-1.8035609 -1.6805248 0.56912613
-1.8211359 -1.675886 0.57137567
-1.8386954 -1.6711234 0.57362521
-1.8636346 -1.6725844 0.57812423
-1.8886914 -1.6737667 0.58262324
-1.9065033 -1.6682832 0.58487272
-1.9390664 -1.6753823 0.59162128
-1.9569676 -1.6694895 0.59387076
-1.9823233 -1.6697149 0.59836978
-2.0077586 -1.669687 0.6028688
-2.0257399 -1.6632226 0.60511833
-2.0512891 -1.6627327 0.60961735
-2.0769112 -1.6619871 0.61411637
-2.1026044 -1.6609846 0.61861539
-2.1283662 -1.6597245 0.62311441
-2.1540773 -1.6583582 0.62761343
-2.1875834 -1.6626675 0.63436198
-2.205754 -1.6547734 0.63661146
-2.2395999 -1.6582761 0.64336002
-2.2657092 -1.6556692 0.64785904
-2.2918732 -1.6527994 0.65235806
-2.3180902 -1.6496657 0.65685707
-2.3443575 -1.6462673 0.66135609
-2.3786821 -1.6481528 0.66810465
-2.4050782 -1.6441724 0.67260367
-2.4315176 -1.639925 0.67710268
-2.4661098 -1.6408079 0.68385118
-2.4926624 -1.6359732 0.6883502
-2.5192511 -1.6308692 0.69284922
-2.5539703 -1.6309197 0.69959778
-2.5805154 -1.62545 0.70409679
-2.6154814 -1.6246711 0.71084529
-2.6505647 -1.6234733 0.71759385
-2.6773946 -1.6168612 0.72209287
-2.7209897 -1.6199447 0.7310909
-2.7563248 -1.6176115 0.73783946
-2.7917368 -1.6148977 0.74458796
-2.8356872 -1.6166279 0.75358599
-2.8712735 -1.6130964 0.76033455
-2.9069264 -1.6091809 0.76708311
-2.9511964 -1.6095458 0.77608114
-2.9870012 -1.6048058 0.78282964
-3.0314736 -1.6042371 0.79182768
-3.067302 -1.5988854 0.79857624
-3.1118221 -1.5976505 0.80757427
-3.1478601 -1.5913061 0.81432283
-3.2014124 -1.593202 0.82557034
-3.2376103 -1.5859144 0.8323189
-3.5533469 -1.57741 0.8975547
-3.6078391 -1.5745395 0.90880227
-3.6713886 -1.5748869 0.92229933
-3.7171257 -1.5669273 0.93129736
-3.7088933 -1.5360844 0.92679834
-3.7004204 -1.5054082 0.92229933
-3.7006528 -1.4787753 0.92004979
-3.7006743 -1.452258 0.91780031
-3.6916182 -1.421772 0.91330129
-3.6914859 -1.3947818 0.91105175
-3.6909657 -1.3683751 0.90880227
-3.6902165 -1.3421489 0.90655273
-3.6893773 -1.3157243 0.90430325
-3.6883736 -1.2893022 0.90205371
-3.6871836 -1.2629448 0.89980417
-3.6858084 -1.2366533 0.8975547
-3.6842489 -1.2104291 0.89530516
-4.1693611 0.088678136 0.96279049
-4.1784716 0.11477764 0.96504003
-4.2878575 0.27972415 0.99203414
-4.2957344 0.30735642 0.99428362
-4.3034325 0.33509639 0.99653316
-4.2915325 0.3613126 0.99428362
-4.2891779 0.38826871 0.99428362
-4.2866831 0.41490808 0.99428362
-4.2937222 0.44245946 0.99653316
-4.3005509 0.47041866 0.99878269
-4.2975106 0.49742925 0.99878269
-4.2943001 0.52442253 0.99878269
-4.2909207 0.55139273 0.99878269
-4.2873716 0.57834125 0.99878269
-4.2836533 0.60526693 0.99878269
-4.2797656 0.63217098 0.99878269
-4.2949691 0.66201645 1.0032817
-4.0419335 0.80637401 0.95154297
-4.0367875 0.83175313 0.95154297
-4.0505428 0.86115402 0.95604199
-4.0640879 0.89075828 0.96054101
-4.067915 0.91842294 0.96279049
-4.0620646 0.94396305 0.96279049
-4.046576 0.96720296 0.96054101
-4.0404196 0.99260807 0.96054101
-4.0341029 1.0179762 0.96054101
-4.0370598 1.0457451 0.96279049
-4.0398259 1.0735936 0.96504003
-4.0330009 1.0989542 0.96504003
-4.0260162 1.1242735 0.96504003
-4.0282412 1.152226 0.96728951
-4.0303569 1.1799651 0.96953905
-4.0323024 1.2077105 0.97178853
-4.0246544 1.2329569 0.97178853
-4.0168285 1.258219 0.97178853
-2.9047174 1.2854682 0.73334044
-2.8432505 1.279747 0.71984339
-2.7908545 1.2773107 0.70859581
-2.7475281 1.2781833 0.69959778
-2.7043202 1.2785244 0.69059974
-2.6611242 1.2785683 0.6816017
-2.6180151 1.2781634 0.67260367
-2.5662878 1.2729396 0.66135609
-2.5234334 1.2715002 0.65235806
-2.489373 1.2740138 0.6456095
-2.4380908 1.2671616 0.63436198
-1.0882502 1.2228204 0.37791777
-1.0741134 1.222315 0.37566826
-1.0600269 1.2216798 0.37341875
-1.0459902 1.2209167 0.37116924
-1.0382987 1.2274646 0.37116924
-1.0180738 1.2190073 0.36667022
-1.0103949 1.2253796 0.36667022
-1.0026753 1.2317041 0.36667022
1.0011764 1.1176922 0.34642461
1.0147259 1.1185963 0.34867412
1.0217341 1.1121986 0.34867412
1.0353389 1.1128908 0.35092363
1.0489924 1.1134558 0.35317314
1.0559677 1.1068428 0.35317314
1.0696714 1.1071937 0.35542265
1.0834209 1.1074158 0.35767218
1.0972152 1.1075087 0.35992169
1.1110531 1.1074715 0.3621712
1.1249336 1.107304 0.36442071
1.1388556 1.1070054 0.36667022
1.152818 1.1065754 0.36891973
1.1668197 1.1060133 0.37116924
1.1808594 1.1053188 0.37341875
1.1949363 1.1044911 0.37566826
1.2090491 1.1035299 0.37791777
1.2231967 1.1024349 0.38016728
1.237378 1.1012052 0.38241678
1.2515919 1.0998406 0.38466629
1.2658371 1.0983407 0.3869158
1.2801126 1.096705 0.38916531
1.2944174 1.0949329 0.39141482
1.30875 1.0930241 0.39366433
1.3231095 1.0909783 0.39591384
1.3374946 1.0887948 0.39816335
1.3594991 1.0925772 0.40266237
1.3663372 1.0840137 0.40266237
1.3884634 1.0874232 0.40716141
1.4029001 1.0847368 0.40941092
1.4173391 1.081936 0.41166043
1.4396554 1.0847597 0.41615945
1.4620799 1.0873219 0.42065847
1.4767379 1.0838792 0.42290798
1.4914099 1.0802951 0.42515749
1.5140218 1.0822353 0.42965651
1.5207916 1.0727012 0.42965651
1.5514938 1.079823 0.43640503
1.56628 1.0755692 0.43865454
1.5810738 1.0711719 0.44090405
1.6039747 1.0720453 0.44540307
1.6269484 1.072673 0.44990209
1.6418242 1.0677416 0.45215163
1.6649035 1.0679262 0.45665064
1.6798151 1.0626533 0.45890015
1.7029926 1.0623924 0.46339917
1.7262325 1.0618815 0.46789819
1.7578638 1.0661733 0.47464672
1.7812533 1.0651084 0.47914574
1.7963043 1.0588434 0.48139524
1.8197715 1.0573261 0.48589426
1.8517452 1.0603973 0.49264279
1.8668571 1.0535303 0.4948923
1.8989867 1.0559859 0.50164086
1.9226744 1.0533971 0.50613987
1.9463296 1.0506898 0.51063889
1.9700075 1.0477611 0.51513791
1.9937973 1.0444376 0.51963693
2.0262983 1.0452909 0.52638549
2.0502007 1.041364 0.5308845
2.0828478 1.0415353 0.537633
2.1068349 1.0370339 0.54213202
2.139616 1.0365199 0.54888058
2.1724727 1.0356344 0.55562907
2.2054017 1.0343765 0.56237763
2.2295523 1.0286633 0.56687665
2.2714629 1.0307395 0.57587469
2.3045883 1.0283591 0.58262324
2.3288498 1.0216877 0.58712226
2.3620648 1.0186101 0.59387076
2.4043036 1.0189571 0.6028688
2.4376433 1.0150673 0.60961735
2.4800465 1.0144874 0.61861539
2.522537 1.0134141 0.62761343
2.5560467 1.0082709 0.63436198
2.5986764 1.0062646 0.64336002
2.6413805 1.0037618 0.65235806
2.6841543 1.0007616 0.66135609
2.7269931 0.99726295 0.67035413
2.7698221 0.99346161 0.67935216
2.8218834 0.99244446 0.69059974
5.0829787 0.9657231 1.1944901
5.1464481 0.94431794 1.2079872
5.5824232 0.87992454 1.3047161
5.4722314 0.8273527 1.277722
5.6894712 0.82366645 1.3272111
5.9068727 0.81728178 1.3767004
6.1147504 0.80692178 1.4239402
6.3323908 0.79519475 1.4734293
6.5694113 0.78353637 1.5274177
6.8355565 0.77235538 1.5881544
7.1212902 0.75896424 1.6533902
7.4168367 0.74270946 1.7208755
7.7608566 0.72836477 1.7996083
8.1340685 0.71257758 1.8850898
8.5268412 0.69316864 1.9750702
8.449687 -1.7210284 1.9908168
8.047761 -1.691896 1.8985869
7.7036848 -1.6701708 1.819854
7.4267783 -1.6590605 1.7568676
7.1503253 -1.6445398 1.6938814
6.9124026 -1.6350968 1.6398932
6.7033119 -1.6295599 1.5926534
6.4849944 -1.6195956 1.5431643
6.3236771 -1.6215855 1.507172
6.1155963 -1.6087819 1.4599323
5.9832125 -1.6136593 1.4306887
4.9493113 -1.3681475 1.185492
4.931242 -1.3965628 1.1832426
5.4932151 -1.5930678 1.3204627
5.3616657 -1.5915065 1.291219
5.2303576 -1.5883564 1.2619754
5.0900002 -1.5807307 1.2304822
4.9592376 -1.5743538 1.2012386
4.8472967 -1.5724106 1.176494
4.7264423 -1.5657241 1.1494999
4.615118 -1.5606446 1.1247553
3.3716946 -1.5062902 0.85256445
3.3000658 -1.499234 0.83681792
3.237613 -1.4951942 0.82332087
3.2282865 -1.5152255 0.82332087
3.2275219 -1.5396219 0.82557034
3.2353201 -1.5683712 0.83006936
3.2079201 -1.5800576 0.82557034
3.171788 -1.5871017 0.81882185
3.1792402 -1.6156033 0.82332087
3.1778281 -1.6397386 0.82557034
3.1847513 -1.6686654 0.83006936
2.5013161 -1.6047378 0.68610072
2.4666805 -1.6044837 0.67935216
2.4240134 -1.5984943 0.67035413
2.3896208 -1.597448 0.66360557
2.3635178 -1.6013312 0.65910655
2.329453 -1.5993992 0.65235806
2.3033884 -1.6028352 0.64785904
2.2693839 -1.6004295 0.64111048
2.2037921 -1.5749985 0.62536395
2.2017441 -1.5945294 0.62761343
2.1368048 -1.5678277 0.61186683
2.1505098 -1.5984751 0.61861539
2.1326668 -1.606059 0.61636585
1.7393696 -1.3976145 0.51513791
1.7607819 -1.4331186 0.52413595
1.7517426 -1.4441535 0.52413595
1.7202985 -1.4362741 0.51738739
1.6964852 -1.4343233 0.51288837
1.6652601 -1.4259143 0.50613987
1.6489067 -1.4299654 0.50389034
1.6325686 -1.4338676 0.50164086
1.6089664 -1.4311454 0.49714181
1.5855645 -1.4280715 0.49264279
1.5694866 -1.4313023 0.49039328
1.5533282 -1.434499 0.48814377
1.5229347 -1.4242642 0.48139524
1.5068812 -1.4271049 0.47914574
1.4908525 -1.4298004 0.47689623
1.4678597 -1.4255626 0.47239721
1.4519267 -1.4279251 0.4701477
1.4222143 -1.4163924 0.46339917
1.4064262 -1.4183816 0.46114966
1.3907701 -1.42013 0.45890015
1.3683957 -1.4147129 0.45440114
1.346043 -1.4091687 0.44990209
1.3371624 -1.4175984 0.44990209
1.3216883 -1.4187485 0.44765258
1.299678 -1.4125693 0.44315356
1.2842481 -1.4134746 0.44090405
1.262328 -1.4070106 0.43640503
1.2470014 -1.4076208 0.43415552
1.2381325 -1.4154282 0.43415552
1.2228458 -1.4158056 0.43190601
1.2076033 -1.4160471 0.42965651
1.1861306 -1.4086999 0.42515749
1.1772561 -1.4161247 0.42515749
1.2002443 -1.4205492 -0.032461476
1.1848903 -1.4203846 -0.032286953
1.1633375 -1.4122769 -0.031937905
1.1482558 -1.411701 -0.031763379
1.1393788 -1.4188753 -0.031763379
1.1180189 -1.4103358 -0.03141433
1.1029736 -1.4094585 -0.031239808
1.0879836 -1.4084482 -0.031065283
1.0731578 -1.4072236 -0.030890759
1.0584043 -1.405858 -0.030716235
1.0436026 -1.4044433 -0.030541711
1.0288447 -1.40291 -0.030367186
1.0200096 -1.4093467 -0.030367186
1.0053233 -1.4075913 -0.030192662
-1.0046988 -1.7289772 -0.034904812
-1.0204688 -1.7313327 -0.035079338
-1.0313081 -1.724898 -0.035079338
-1.0473102 -1.7269332 -0.03525386
-1.0581402 -1.7203188 -0.03525386
-1.0742199 -1.7221197 -0.035428386
-1.0903641 -1.7237861 -0.035602909
-1.1065712 -1.7253174 -0.035777431
-1.1173898 -1.7183305 -0.035777431
-1.1336676 -1.7196236 -0.035951957
-1.1444498 -1.7124666 -0.035951957
-1.1607946 -1.7135199 -0.03612648
-1.1828573 -1.7226776 -0.036475528
-1.1936578 -1.7152115 -0.036475528
-1.2101738 -1.7158484 -0.036650054
-1.2267449 -1.7163452 -0.036824577
-1.2432384 -1.7167962 -0.036999103
-1.259766 -1.717122 -0.037173625
-1.2705114 -1.7091867 -0.037173625
-1.2872405 -1.7091569 -0.037348147
-1.3161496 -1.7248814 -0.037871722
-1.3269613 -1.7165778 -0.037871722
-1.3438853 -1.7160784 -0.038046245
-1.3608551 -1.7154337 -0.038220771
-1.3778696 -1.7146431 -0.038395293
-1.3949276 -1.7137063 -0.038569819
-1.4118972 -1.7127304 -0.038744342
-1.4288894 -1.7116251 -0.038918864
-1.4460526 -1.7102642 -0.03909339
-1.4632733 -1.708739 -0.039267913
-1.4870827 -1.7146181 -0.039616961
-1.4978266 -1.7052407 -0.039616961
-1.5218022 -1.7107369 -0.03996601
-1.532521 -1.7011415 -0.03996601
-1.5499181 -1.6988652 -0.040140536
-1.5741318 -1.703781 -0.04048958
-1.5915068 -1.7012796 -0.040664107
-1.6088932 -1.698645 -0.040838629
-1.6264368 -1.6957362 -0.041013155
-1.6509917 -1.699828 -0.041362204
-1.6686502 -1.6965499 -0.041536726
-1.6863326 -1.6931162 -0.041711252
-1.7111378 -1.6965667 -0.042060297
-1.7217637 -1.6857818 -0.042060297
-1.7466979 -1.6888303 -0.042409346
-1.7645062 -1.6847268 -0.042583872
-1.7896065 -1.687325 -0.04293292
-1.8148084 -1.6896737 -0.043281969
-1.8326207 -1.6851448 -0.043456491
-1.8578302 -1.6872013 -0.04380554
-1.8832637 -1.688866 -0.044154588
-1.9013234 -1.6836283 -0.044329111
-1.9269184 -1.6848114 -0.044678159
-1.9450345 -1.6792048 -0.044852685
-1.9707651 -1.6799231 -0.045201734
-1.9889312 -1.6739455 -0.045376256
-2.0147891 -1.6741964 -0.045725305
-2.0407288 -1.6741874 -0.046074353
-2.0667472 -1.673918 -0.046423402
-2.0850329 -1.6671432 -0.046597924
-2.1190112 -1.6725941 -0.047121495
-2.1373656 -1.6653924 -0.047296021
-2.1714358 -1.6703831 -0.047819592
-2.1897066 -1.6629437 -0.047994118
-2.2240949 -1.6671677 -0.048517689
-2.242564 -1.6591071 -0.048692212
-2.2771692 -1.6626719 -0.049215786
-2.3037951 -1.6600217 -0.049564835
-2.3304768 -1.6571019 -0.049913883
-2.3572121 -1.6539119 -0.050262928
-2.3922195 -1.6561422 -0.050786503
-2.4190905 -1.6523577 -0.051135551
-2.4460075 -1.6483011 -0.0514846
-2.4812953 -1.6495057 -0.052008171
-2.5083325 -1.6448485 -0.052357219
-2.5438042 -1.6453463 -0.05288079
-2.5792542 -1.6456598 -0.053404361
-2.6063254 -1.6402982 -0.05375341
-2.6420484 -1.6397359 -0.054276984
-2.6693556 -1.6335411 -0.054626033
-2.7138104 -1.6373981 -0.055324126
-2.7498245 -1.6356487 -0.055847701
-2.7859225 -1.6335107 -0.056371272
-2.8221016 -1.6309831 -0.056894843
-2.8583577 -1.6280649 -0.057418417
-2.8946874 -1.6247548 -0.057941988
-2.9398367 -1.6258907 -0.058640085
-2.9763339 -1.6217389 -0.059163656
-3.0217028 -1.6219214 -0.059861753
-3.0583513 -1.6169231 -0.060385324
-3.0949323 -1.6117643 -0.060908899
-3.1493416 -1.615373 -0.061781518
-3.1861863 -1.6091098 -0.062305089
-3.2320459 -1.6068633 -0.06300319
-3.2780015 -1.6041033 -0.063701279
-3.3240488 -1.6008286 -0.064399377
-3.3701828 -1.5970379 -0.065097474
-3.5829139 -1.5888511 -0.068413429
-3.638653 -1.5862861 -0.069286056
-3.7128801 -1.5909587 -0.07050772
-3.732018 -1.5714788 -0.070682243
-3.7141006 -1.5365334 -0.070158675
-3.7144186 -1.5094026 -0.069984145
-3.7051435 -1.4789062 -0.069635101
-3.7049267 -1.4522715 -0.069460578
-3.7047398 -1.4251322 -0.069286056
-3.7043891 -1.3979719 -0.069111526
-3.7036333 -1.3714403 -0.068937004
-3.702662 -1.3450521 -0.068762481
-3.701607 -1.3184469 -0.068587959
-3.7003782 -1.2918675 -0.068413429
-3.6989617 -1.2653558 -0.068238907
-3.6973588 -1.2389129 -0.068064384
-3.69557 -1.2125404 -0.067889862
-4.101346 -1.1493617 -0.07434725
-4.1952858 -1.147307 -0.075917967
-4.2024117 -1.1209247 -0.075917967
-4.1996951 -1.0919821 -0.075743444
-4.2161655 -1.0680285 -0.075917967
-4.2130852 -1.0391234 -0.075743444
-4.2098083 -1.0102993 -0.075568922
-4.216073 -0.98382735 -0.075568922
-4.2124205 -0.95510793 -0.075394392
-4.2183385 -0.9286207 -0.075394392
-4.2240896 -0.90209901 -0.075394392
-4.2198834 -0.87351274 -0.07521987
-4.2154851 -0.84501731 -0.075045347
-4.2207112 -0.81851292 -0.075045347
-4.2159433 -0.79013669 -0.074870825
-4.210928 -0.76217127 -0.074696295
-4.2155695 -0.73606545 -0.074696295
-4.2201037 -0.70960993 -0.074696295
-4.2146082 -0.68148547 -0.074521773
-4.2188067 -0.6549921 -0.074521773
-4.2129493 -0.62700105 -0.07434725
-4.2168059 -0.60051697 -0.07434725
-4.2105885 -0.57266396 -0.074172728
-4.2041879 -0.54491055 -0.073998205
-4.2075286 -0.51848537 -0.073998205
-4.2107034 -0.49203745 -0.073998205
-4.2137117 -0.46557236 -0.073998205
-4.2065759 -0.43837148 -0.073823676
-4.2092113 -0.41229883 -0.073823676
-4.1918302 -0.38374573 -0.073474631
-4.1941895 -0.35703498 -0.073474631
-4.2063212 -0.33141473 -0.073649153
-4.1883759 -0.30353492 -0.073300108
-4.2001772 -0.27787164 -0.073474631
-4.2018404 -0.25147691 -0.073474631
-4.20332 -0.2253924 -0.073474631
-4.1846614 -0.198397 -0.073125578
-4.1958137 -0.17255677 -0.073300108
-4.1868224 -0.14584346 -0.073125578
-4.1876564 -0.11953301 -0.073125578
-4.1883245 -0.093220077 -0.073125578
-4.1788306 -0.066741563 -0.072951056
-4.1891651 -0.040581975 -0.073125578
-4.1793389 -0.014224854 -0.072951056
-4.1993427 0.012091325 -0.073300108
-4.1891861 0.038385712 -0.073125578
-4.1988592 0.064859569 -0.073300108
-4.4844246 0.20951775 -0.078361303
-4.4730349 0.23715939 -0.07818678
-4.4514947 0.26407647 -0.077837728
-4.4497476 0.29203948 -0.077837728
-4.4577975 0.32071084 -0.078012258
-4.4756308 0.3502726 -0.078361303
-4.4633784 0.37754521 -0.07818678
-4.4509606 0.40467533 -0.078012258
-4.4384117 0.43132868 -0.077837728
-4.4157629 0.45676363 -0.077488683
-4.4128113 0.48445135 -0.077488683
-4.429544 0.51447403 -0.077837728
-4.4063749 0.53986478 -0.077488683
-4.3929796 0.56626064 -0.077314161
-4.3992434 0.59519291 -0.077488683
-4.4053164 0.62422389 -0.077663206
-4.2501817 0.7116155 -0.07521987
-4.1372695 0.719464 -0.073300108
-4.1621866 0.75076842 -0.073823676
-4.0689321 0.76037645 -0.072252959
-4.1033406 0.79351956 -0.072951056
-4.0688601 0.81340688 -0.072427489
-4.0930452 0.84501976 -0.072951056
-4.097434 0.87280446 -0.073125578
-4.0723376 0.89424199 -0.072776534
-4.0666385 0.91981256 -0.072776534
-4.0607791 0.94534463 -0.072776534
-4.0644827 0.97316974 -0.072951056
-4.0582881 0.99868721 -0.072951056
-4.0519328 1.0241674 -0.072951056
-4.0550961 1.052116 -0.073125578
-4.0580673 1.0801469 -0.073300108
-4.0512009 1.1056221 -0.073300108
-4.0538025 1.1337485 -0.073474631
-4.0562115 1.1619493 -0.073649153
-4.0489211 1.1871027 -0.073649153
-4.051065 1.2150397 -0.073823676
-4.0529232 1.2433574 -0.073998205
-2.8887281 1.2797687 -0.055149604
-2.8441525 1.2814958 -0.054451507
-2.7905955 1.2785172 -0.053578887
-2.737287 1.2747086 -0.052706268
-2.693186 1.2745367 -0.052008171
-2.6400862 1.2697362 -0.051135551
-2.6051071 1.2731282 -0.050611977
-2.5612347 1.2716862 -0.049913883
-2.508558 1.2652398 -0.04904126
-2.4738622 1.2673013 -0.048517689
-2.430371 1.2643615 -0.047819592
-3.9969983 2.6924574 -0.084120594
-4.0047736 2.7344332 -0.084644169
-3.9957359 2.7652307 -0.084818691
-4.0192108 2.8189895 -0.08569131
-4.0095696 2.8499787 -0.08586584
-4.0078087 2.8868039 -0.086214885
-3.9895921 2.9119275 -0.086214885
-3.9953332 2.9547739 -0.08673846
-3.9766898 2.9798179 -0.08673846
-3.973815 3.0168376 -0.087087505
-3.970633 3.0539365 -0.087436557
-3.959254 3.0849686 -0.087611079
-3.9554899 3.1221728 -0.087960124
-3.9594622 3.1653957 -0.088483699
-3.9475439 3.1961596 -0.088658221
-3.9426353 3.2338376 -0.089007273
-3.9450252 3.2780573 -0.089530841
-3.9396143 3.3156993 -0.089879893
-3.9339225 3.3533583 -0.090228938
-3.9354789 3.3976123 -0.090752512
-3.9291086 3.4354339 -0.091101557
-3.9224157 3.4733112 -0.091450609
-3.9228473 3.5179129 -0.091974184
-3.9228702 3.5626583 -0.092497751
-3.9151275 3.6007717 -0.092846803
-3.9216914 3.6525588 -0.0935449
-3.9132125 3.6908469 -0.093893945
-3.904691 3.7288747 -0.09424299
-3.9030755 3.7738469 -0.094766565
-3.9079053 3.8262334 -0.095464662
-3.8979888 3.8647902 -0.095813707
-3.8947949 3.910459 -0.096337281
-3.8911827 3.9562376 -0.096860856
-3.8871458 4.0021262 -0.097384423
-3.8826871 4.0481176 -0.097907998
-1.0973136 1.2184759 -0.028621946
-1.1029247 1.2402894 -0.028970994
-1.0819155 1.2321687 -0.028621946
-1.0676029 1.2313874 -0.028447421
-1.0533423 1.2304757 -0.028272899
-1.0391364 1.2294332 -0.028098375
-1.0313908 1.2359383 -0.028098375
-1.0172474 1.2346773 -0.02792385
1.007327 1.1379757 -0.026527658
1.0144572 1.131624 -0.026527658
1.0282681 1.1326305 -0.026702181
1.0421313 1.1335078 -0.026876705
1.056046 1.1342553 -0.027051229
1.0631518 1.1275977 -0.027051229
1.0771203 1.128127 -0.027225753
1.0911372 1.1285251 -0.027400278
1.1052012 1.1287913 -0.027574802
1.1193115 1.1289251 -0.027749326
1.1334666 1.1289258 -0.02792385
1.1476659 1.128793 -0.028098375
1.1547356 1.1215597 -0.028098375
1.1689756 1.1212032 -0.028272899
1.1759973 1.1138362 -0.028272899
1.1902747 1.113255 -0.028447421
1.204591 1.1125382 -0.028621946
1.218945 1.111685 -0.02879647
