# .PCD v0.7 - Point Cloud Data file format
VERSION 0.7
FIELDS x y z
SIZE 4 4 4
TYPE F F F
COUNT 1 1 1
WIDTH 1484
HEIGHT 1
VIEWPOINT 0 0 0 1 0 0 0
POINTS 1484
DATA ascii
2.0430548 1.4728543 -0.39890787
2.0603487 1.4656688 -0.40047222
2.0693905 1.4528748 -0.40047222
2.1711211 1.2371305 -0.39577919
2.1702392 1.2186289 -0.39421484
2.1605687 1.1954056 -0.39108616
2.1680369 1.1818068 -0.39108616
2.166718 1.1634887 -0.38952181
2.1739855 1.1498519 -0.38952181
2.1723707 1.131678 -0.38795745
2.1793406 1.1181964 -0.38795745
2.1774836 1.1000751 -0.38639313
2.1756034 1.081784 -0.38482878
2.1646726 1.0592911 -0.3817001
2.1712856 1.0456692 -0.3817001
2.1688538 1.0278475 -0.38013574
2.166229 1.0102156 -0.37857139
2.1724794 0.99670327 -0.37857139
2.1696961 0.97897142 -0.37700707
2.1848323 0.96932507 -0.37857139
2.2270925 0.97137296 -0.38482878
2.2876191 0.98071086 -0.39421484
2.3210421 0.97782212 -0.39890787
2.3727703 0.98210603 -0.40672961
2.4154925 0.98205781 -0.41298699
5.7021589 -1.1016759 -0.91983461
5.7048473 -1.1392293 -0.921399
2.8008816 -1.054177 -0.47399643
2.7480938 -1.0540689 -0.46617469
2.3492405 -1.2197144 -0.41924435
2.3153858 -1.2205064 -0.41455132
2.2815471 -1.2210485 -0.40985829
2.2651513 -1.2306446 -0.40829393
2.2227783 -1.2257744 -0.40203658
2.206414 -1.2348925 -0.40047222
2.1728463 -1.2340977 -0.39577919
2.1479344 -1.2378622 -0.39265051
2.1145353 -1.2363775 -0.38795745
2.0897355 -1.2395613 -0.38482878
2.0565169 -1.2373905 -0.38013574
2.0318398 -1.239997 -0.37700707
2.0072119 -1.2423427 -0.37387836
1.982676 -1.2443634 -0.37074968
1.9749281 -1.2566239 -0.37074968
1.9421632 -1.2528386 -0.36605665
1.9094549 -1.2487986 -0.36136362
1.885107 -1.2498556 -0.35823491
1.8608221 -1.2506561 -0.35510623
1.836602 -1.2512015 -0.35197753
1.8124491 -1.2514923 -0.34884885
1.7964578 -1.2571925 -0.3472845
1.7724104 -1.2570275 -0.34415582
1.7484777 -1.2565533 -0.34102714
1.7246895 -1.2557352 -0.33789843
1.7088861 -1.2605902 -0.33633408
1.6613754 -1.2417372 -0.32851237
1.6692885 -1.2640767 -0.33164105
1.637804 -1.2565042 -0.32694802
1.6220784 -1.2607089 -0.32538369
1.6063652 -1.2647656 -0.32381934
1.5829434 -1.2625164 -0.32069066
1.5672967 -1.2662303 -0.31912631
1.5440639 -1.263492 -0.3159976
1.5286009 -1.2667323 -0.31443328
1.5131158 -1.2698793 -0.31286892
1.4975816 -1.2729646 -0.31130457
1.4820685 -1.2759051 -0.30974025
1.4591335 -1.2722102 -0.30661154
1.4437076 -1.2748156 -0.30504721
1.4283068 -1.2772775 -0.30348286
1.4129739 -1.2795507 -0.30191851
1.3977391 -1.2816056 -0.30035415
1.3824912 -1.2835664 -0.29878983
1.3672034 -1.2854619 -0.29722548
1.3447932 -1.2804055 -0.2940968
1.3296115 -1.2819743 -0.29253244
1.3215307 -1.2903028 -0.29253244
1.306374 -1.2916365 -0.29096809
1.2912529 -1.2928308 -0.28940377
1.269233 -1.2868544 -0.28627506
1.2611644 -1.2947628 -0.28627506
1.2462705 -1.2954341 -0.28471074
1.2313745 -1.2960112 -0.28314638
1.216449 -1.2965196 -0.28158203
1.2015662 -1.296892 -0.28001767
1.1867269 -1.2971288 -0.27845335
1.1719748 -1.2971922 -0.276889
1.1573393 -1.2970589 -0.27532464
1.1426659 -1.2968693 -0.27376032
1.1278988 -1.2966702 -0.27219597
1.1197009 -1.3037559 -0.27219597
1.105213 -1.3031358 -0.27063161
1.0907335 -1.302422 -0.26906729
1.0825286 -1.3092496 -0.26906729
1.0680352 -1.3083742 -0.26750293
1.0535958 -1.3073685 -0.26593858
1.0392538 -1.3061997 -0.26437426
1.0311409 -1.3126136 -0.26437426
1.0168923 -1.3112059 -0.2628099
1.00263 -1.3097266 -0.26124555
-1.3351227 -1.8986317 -0.36762097
-1.3527578 -1.8982488 -0.36918533
-1.3690621 -1.7755193 -0.35510623
-1.3497902 -1.727964 -0.3472845
-1.3973364 -1.7659664 -0.35667059
-1.3897215 -1.7341528 -0.35197753
-1.3942714 -1.7177945 -0.3504132
-1.3987645 -1.7013707 -0.34884885
-1.4031066 -1.6849586 -0.3472845
-1.4072978 -1.6685593 -0.34572017
-1.4113388 -1.6521742 -0.34415582
-1.4087673 -1.6283351 -0.34102714
-1.4189706 -1.6194514 -0.34102714
-1.4225622 -1.6031163 -0.33946279
-1.4193517 -1.5795 -0.33633408
-1.4291108 -1.5706756 -0.33633408
-1.4254813 -1.5472159 -0.3332054
-1.4216987 -1.5237855 -0.33007672
-1.4244617 -1.5076433 -0.32851237
-1.4202501 -1.4843905 -0.32538369
-1.4272397 -1.5190421 0.25592563
-1.4229418 -1.4957875 0.25348824
-1.4391249 -1.4940361 0.25470692
-1.4415532 -1.4778593 0.25348824
-1.4438354 -1.4617112 0.25226954
-1.4249139 -1.4245408 0.24739476
-1.4267732 -1.4085865 0.24617606
-1.4213811 -1.3857371 0.24373868
-1.4515108 -1.3974305 0.24739476
-1.4746492 -1.4019606 0.24983215
-1.5051376 -1.413048 0.25348824
-1.521265 -1.410311 0.25470692
-1.5300429 -1.4007831 0.25470692
-2.019685 -1.3183595 0.29614249
-2.0445044 -1.3165681 0.29857987
-2.0861855 -1.3250833 0.30345467
-2.1281161 -1.3330247 0.30832943
-2.1533387 -1.3300591 0.31076682
-2.1786072 -1.3268285 0.3132042
-4.8225598 -1.5383804 0.62153363
-4.926878 -1.5376188 0.63372058
-5.2026124 -1.5522028 0.66662532
-5.3456659 -1.5583733 0.68368703
-5.4985433 -1.5655237 0.70196742
-5.6995306 -1.5841024 0.72634125
-6.218276 -1.603814 0.78849465
-6.3726254 -1.6009881 0.80677503
-6.5946679 -1.6127896 0.83358628
-7.0005646 -1.6655118 0.88355273
-7.1752849 -1.6595126 0.90427053
-7.2243061 -1.6231014 0.9091453
-7.2343621 -1.5776759 0.9091453
-7.4771867 -1.5814852 0.93839395
-10.540107 -2.1602173 1.3210636
-10.212723 -2.0263431 1.2784094
-9.8256006 -1.8854426 1.2284429
-9.7982159 -1.8164355 1.2235682
-9.8680582 -1.7653204 1.2308804
-9.8496113 -1.6982263 1.2272242
-9.8698168 -1.638307 1.2284429
-9.8503742 -1.5724276 1.2247869
-9.8796072 -1.5139979 1.2272242
-9.8791037 -1.4504538 1.2260056
-9.8683643 -1.3855904 1.2235682
-9.8670378 -1.322243 1.2223495
-9.8751516 -1.2602181 1.2223495
-9.8730211 -1.1969543 1.2211308
-9.8704863 -1.1337616 1.2199121
-9.8774147 -1.0717241 1.2199121
-9.8740797 -1.0086303 1.2186934
-9.8901024 -0.94751924 1.2199121
-9.8760891 -0.88358796 1.2174747
-9.8913364 -0.82234246 1.2186934
-9.8963089 -0.76017481 1.2186934
-9.8909883 -0.6972844 1.2174747
-9.895174 -0.63512141 1.2174747
-9.8989697 -0.57293862 1.2174747
-9.8924417 -0.51059604 1.216256
-9.8755856 -0.44839159 1.2138187
-9.9079428 -0.38798469 1.2174747
-9.920105 -0.32605261 1.2186934
-9.931879 -0.26397768 1.2199121
-9.943265 -0.20177296 1.2211308
-9.9443369 -0.13929126 1.2211308
-9.935091 -0.076732688 1.2199121
-9.9353771 -0.014304819 1.2199121
-9.9352703 0.048118323 1.2199121
-9.9347715 0.11054486 1.2199121
-9.9537296 0.17330731 1.2223495
-9.9425306 0.23523094 1.2211308
-9.9508028 0.29712728 1.2223495
-9.9487572 0.35915369 1.2223495
-9.9463043 0.42165354 1.2223495
-9.953372 0.48462471 1.2235682
-9.9699516 0.54824102 1.2260056
-7.3013625 0.44753012 0.89817703
-6.9121952 0.46728584 0.85064799
-6.8299351 0.50485545 0.84089845
-6.8464155 0.5493449 0.84333587
-6.8626285 0.5938018 0.84577322
-6.8687005 0.63722861 0.8469919
-6.8744717 0.68101341 0.84821063
-6.8799281 0.72523201 0.84942931
-6.7963228 0.7596271 0.83967978
-6.8012729 0.80347711 0.84089845
-6.8157887 0.84864926 0.84333587
-6.7906394 0.88887888 0.84089845
-6.8144197 0.9355799 0.84455454
-6.8771791 0.98825824 0.8530854
-6.8512421 1.0282413 0.85064799
-6.8741584 1.075274 0.85430408
-6.8967109 1.1228908 0.85796016
-6.8895197 1.1662 0.85796016
-10.019971 1.7613266 1.2491608
-10.018312 1.8269011 1.2503794
-10.006543 1.8903046 1.2503794
-10.023692 1.9588482 1.2540355
-10.030644 2.0257223 1.2564729
-10.043211 2.1599557 1.2613477
-10.048823 2.227309 1.2637851
-10.073336 2.2992408 1.2686598
1.002525 1.3324507 0.20474049
1.0168942 1.3340191 0.20595919
1.0313226 1.3354591 0.20717788
1.0396932 1.3289528 0.20717788
1.0603523 1.3379517 0.20961526
1.0749515 1.3390027 0.21083397
1.0833434 1.3322222 0.21083397
1.1043134 1.3407115 0.21327135
1.1127155 1.3337466 0.21327135
1.1274798 1.3343101 0.21449004
1.1422948 1.3347406 0.21570873
1.1571594 1.3350372 0.21692742
1.1786206 1.3426588 0.21936481
1.1804389 1.3278089 0.21814612
1.2153229 1.3498712 0.2230209
1.217093 1.3348739 0.2218022
1.2389226 1.3417852 0.22423959
1.2608867 1.348474 0.22667697
1.2761589 1.3477322 0.22789566
1.2914712 1.3468513 0.22911437
1.313737 1.3529519 0.23155175
1.3361299 1.3588252 0.23398913
1.523216 1.3490355 0.24983215
1.5540619 1.3590568 0.25348824
1.577714 1.3621016 0.25592563
1.5938615 1.3585222 0.2571443
1.9070796 1.524719 0.29979858
1.9165642 1.5127797 0.29979858
1.9337293 1.506977 0.30101728
1.950953 1.5009449 0.30223596
1.9603453 1.4886571 0.30223596
1.9855443 1.4882163 0.30467334
1.9948558 1.4757116 0.30467334
2.0041442 1.4630721 0.30467334
2.0214777 1.4560761 0.30589205
2.0306022 1.4433241 0.30589205
2.039506 1.430715 0.30589205
2.0239029 1.4010248 0.30223596
2.1987066 1.2334783 0.30954814
2.1716669 1.2004322 0.30467334
2.1704497 1.1820165 0.30345467
2.1865799 1.1730481 0.30467334
2.1851315 1.1546494 0.30345467
2.174691 1.1318163 0.30101728
2.1816618 1.1183203 0.30101728
2.1797724 1.1001424 0.29979858
2.1867366 1.0862339 0.29979858
2.1757371 1.0636468 0.2973612
2.1823771 1.0499554 0.2973612
2.1799207 1.0320588 0.29614249
2.1772764 1.0143409 0.29492381
2.1835575 1.000748 0.29492381
2.1807535 0.98293006 0.29370511
2.1868863 0.96920866 0.29370511
2.1929328 0.95544899 0.29370511
2.235389 0.9572807 0.29857987
2.2962499 0.96631598 0.30589205
2.3389657 0.96703845 0.31076682
2.3725839 0.96352708 0.31442291
12.195599 3.9961517 1.5757706
12.201564 3.9133835 1.5733331
12.216441 3.8336701 1.5721145
12.221311 3.7510121 1.5696771
12.225624 3.6684444 1.5672398
12.229383 3.5859709 1.5648023
12.232455 3.5040627 1.5623649
12.234815 3.4228559 1.5599276
12.236765 3.3412883 1.5574902
12.238335 3.2592282 1.5550528
12.239358 3.1772807 1.5526154
12.249456 3.0978827 1.5513967
12.239767 3.0137372 1.5477406
12.248809 2.9344609 1.5465219
12.257338 2.8551903 1.5453032
12.255673 2.7737389 1.5428659
12.263062 2.6950183 1.5416472
12.269818 2.616915 1.5404285
12.266454 2.5363526 1.537991
12.272416 2.4572835 1.5367724
12.277868 2.3782382 1.5355537
12.282813 2.2992213 1.534335
12.003999 2.1690543 1.4977742
11.724045 2.0424838 1.4612134
11.756224 1.9720634 1.4636508
11.768382 1.8981584 1.4636508
11.770267 1.8226595 1.4624321
11.761851 1.7457546 1.4599947
11.762698 1.6708727 1.458776
11.762989 1.5966246 1.4575573
11.772714 1.523263 1.4575573
11.772202 1.4480513 1.4563386
12.047251 1.4051018 1.4892434
14.847824 1.6372471 1.8341336
14.857877 1.5433577 1.8341336
14.857529 1.4477136 1.8329149
14.87623 1.3550709 1.8341336
14.894231 1.2637119 1.8353523
14.891925 1.170059 1.8341336
14.889083 1.0757523 1.8329149
14.895548 0.98218066 1.8329149
14.911333 0.88916105 1.8341336
14.916625 0.79545331 1.8341336
14.911414 0.70124787 1.8329149
14.92542 0.60851765 1.8341336
14.928904 0.516029 1.8341336
14.921926 0.4221026 1.8329149
14.934235 0.32725328 1.8341336
14.945923 0.23340461 1.8353523
14.947082 0.14079612 1.8353523
14.957595 0.047642604 1.836571
14.957599 -0.046337225 1.836571
14.966937 -0.14041032 1.8377897
14.965759 -0.23444714 1.8377897
14.973914 -0.3286925 1.8390083
14.971554 -0.42276943 1.8390083
14.988461 -0.51694185 1.8414458
14.994887 -0.61020309 1.8426645
12.383245 -0.58174533 1.5221481
11.586378 -0.61830592 1.4246526
10.908525 -0.65101141 1.3417815
10.319946 -0.68008 1.2698785
9.7710218 -0.70510972 1.2028503
9.2914371 -0.72921258 1.1443532
8.8515139 -0.75067312 1.0907305
8.4710121 -0.7720409 1.0444202
8.1004839 -0.78962111 0.99932861
7.7794461 -0.80770099 0.96033043
7.4782453 -0.82395416 0.92376959
7.2560282 -0.84564739 0.89695835
7.2506056 -0.89094436 0.89695835
4.3563681 -0.98554534 0.54841202
4.2050872 -0.97913438 0.53013164
12.615744 -4.5736842 1.6476735
12.586758 -4.6528606 1.6476735
2.7982569 -1.0745703 0.36804542
2.7637203 -1.081282 0.36438933
2.6069207 -1.3547826 0.36073324
2.6159811 -1.3802718 0.36317062
2.6160064 -1.4013677 0.36438933
2.6158693 -1.4225185 0.36560804
2.624259 -1.4485192 0.36804542
-1.3840344 -1.8651339 0.28517425
-1.3659028 -1.8167343 0.27908078
-1.2991039 -1.7054721 0.26323777
-1.3522409 -1.7522802 0.27176863
-1.3693372 -1.7515689 0.27298734
-1.3987342 -1.766327 0.2766434
-1.3910214 -1.7343982 0.27298734
-1.401807 -1.7256927 0.27298734
-1.4063157 -1.7091863 0.27176863
-1.4043182 -1.6850671 0.26933125
-1.4084759 -1.6686256 0.26811254
-1.4124826 -1.6521987 0.26689386
-1.4163388 -1.6357876 0.26567516
-1.4265888 -1.6268562 0.26567516
-1.4236009 -1.6030179 0.26323777
-1.4136732 -1.5719559 0.25958169
-1.4233856 -1.5631669 0.25958169
-1.4263748 -1.546966 0.25836301
-1.4360664 -1.5379733 0.25836301
-1.4320627 -1.5144961 0.25592563
-1.4415503 -1.5054684 0.25592563
-1.4278278 -1.5184894 -0.25592563
-1.4235209 -1.4952364 -0.25348824
-1.4328232 -1.4863249 -0.25348824
-1.4282666 -1.4630885 -0.25105083
-1.4374316 -1.4540852 -0.25105083
-1.425473 -1.4239813 -0.24739476
-1.42026 -1.4010558 -0.24495737
-1.4432542 -1.4059563 -0.24739476
-1.4520593 -1.3968607 -0.24739476
-1.4823959 -1.4082172 -0.25105083
-1.586315 -1.3975414 -0.25958169
-1.595065 -1.3875463 -0.25958169
-1.6263394 -1.3968987 -0.26323777
-1.6501632 -1.3995637 -0.26567516
-1.6892393 -1.4148051 -0.27054992
-1.6674392 -1.3789356 -0.26567516
-2.0285094 -1.3229989 -0.2973612
-2.0533612 -1.3211468 -0.29979858
-2.0783255 -1.3189453 -0.30223596
-2.1118119 -1.3216581 -0.30589205
-2.1538608 -1.329213 -0.31076682
-2.1791279 -1.3259732 -0.3132042
-4.7758775 -1.5214236 -0.61544019
-4.8801022 -1.5209171 -0.62762713
-5.0129871 -1.5278434 -0.64347011
-5.3176875 -1.5479524 -0.68003094
-5.4896107 -1.5606495 -0.70074874
-6.8370523 -1.6237711 -0.86283493
-7.1662645 -1.6544632 -0.90305179
-7.2152586 -1.6180896 -0.90792662
-7.2252822 -1.5727249 -0.90792662
-7.2714663 0.44856289 -0.89452094
-6.9219136 0.47067624 -0.85186672
-7.1662741 0.53254557 -0.88233405
-6.8363056 0.55123836 -0.84211713
-6.8426213 0.59474021 -0.84333587
-6.8486876 0.63804686 -0.84455454
-6.8742037 0.68371195 -0.84821063
-6.8599014 0.72584754 -0.8469919
-6.7762971 0.76008219 -0.83724236
-6.7713871 0.8026455 -0.83724236
-6.7859087 0.84763402 -0.83967978
-6.6525154 0.87345874 -0.82383674
-6.745223 0.92877752 -0.83602369
-6.8178463 0.98246753 -0.84577322
-6.8606582 1.032371 -0.85186672
-6.8835468 1.0794735 -0.85552275
-6.8864737 1.1239992 -0.85674149
-6.889061 1.168908 -0.85796016
-7.2334242 1.27447 -0.90183312
-7.4507127 1.4105201 -0.93108177
-7.4417028 1.4573083 -0.93108177
-7.4518561 1.5079721 -0.93351912
-7.4534798 1.9015994 -0.94448739
-7.489223 1.9616157 -0.95058084
-7.4383211 1.9986552 -0.94570607
-7.5218754 2.694705 -0.98104823
-7.5049162 2.7415831 -0.98104823
-7.5249915 2.8018851 -0.98592299
1.0005794 1.3462993 -0.20595919
1.0209596 1.3558438 -0.20839657
1.0294585 1.3494021 -0.20839657
1.0439863 1.3507605 -0.20961526
1.0524528 1.3441743 -0.20961526
1.0670455 1.3453115 -0.21083397
1.0816939 1.346318 -0.21205266
1.0901316 1.3394949 -0.21205266
1.1111531 1.3479365 -0.21449004
1.1259618 1.3485472 -0.21570873
1.1408218 1.3490249 -0.21692742
1.1621885 1.3569071 -0.21936481
1.1771951 1.3570757 -0.22058351
1.1660461 1.3272825 -0.21692742
1.2139479 1.3644218 -0.22423959
1.2158529 1.3493938 -0.2230209
1.2443779 1.3637233 -0.22667697
1.266394 1.3704572 -0.22911437
1.2817615 1.3697203 -0.23033306
1.2971697 1.3688443 -0.23155175
1.3126171 1.3678284 -0.23277044
1.3350198 1.3737901 -0.23520783
1.3436252 1.3653749 -0.23520783
1.3661897 1.3709669 -0.23764521
1.4750198 1.3725933 -0.24739476
1.4909234 1.3700141 -0.24861346
1.514203 1.3739589 -0.25105083
1.5301381 1.3711081 -0.25226954
1.5534699 1.3747566 -0.25470692
1.5695511 1.3714998 -0.25592563
1.5857717 1.3679565 -0.2571443
1.9134966 1.5484134 -0.30223596
1.9386973 1.54875 -0.30467334
1.9639097 1.5489163 -0.30711073
1.9734688 1.5367186 -0.30711073
1.9751496 1.518326 -0.30589205
2.0004644 1.517885 -0.30832943
2.0099621 1.5052857 -0.30832943
2.0353439 1.5044267 -0.31076682
2.05284 1.4973686 -0.31198552
2.0623374 1.4842607 -0.31198552
2.0716224 1.4712734 -0.31198552
2.0644431 1.4470159 -0.30954814
2.1568925 1.2267798 -0.30467334
2.1905327 1.227762 -0.30832943
2.1808267 1.2043777 -0.30589205
2.1709137 1.1811641 -0.30345467
2.1695442 1.1628119 -0.30223596
2.16803 1.1445237 -0.30101728
2.1663229 1.1263951 -0.29979858
2.1644258 1.108427 -0.29857987
2.1713476 1.0948058 -0.29857987
2.1693871 1.076539 -0.2973612
2.1672359 1.0584366 -0.29614249
2.1738434 1.0447986 -0.29614249
2.1713476 1.026971 -0.29492381
2.177669 1.0134977 -0.29492381
2.1749258 0.99575871 -0.29370511
2.1720889 0.97799867 -0.29248643
2.1872668 0.96834987 -0.29370511
2.2388122 0.97439253 -0.29979858
2.2813926 0.97592121 -0.30467334
2.3332288 0.98079926 -0.31076682
2.3760409 0.98127472 -0.31564158
7.7939472 -0.7628302 -0.9615491
7.4928408 -0.7809183 -0.92498833
7.2411528 -0.80070949 -0.89452094
7.2458372 -0.8473438 -0.89573967
7.297596 -0.99186146 -0.90427053
7.3108726 -1.0404909 -0.90670788
7.3140082 -1.0878658 -0.90792662
7.3266449 -1.1368432 -0.91036397
7.2409706 -1.1701874 -0.90061444
4.3717914 -0.96200019 -0.5496307
4.2107816 -0.95434743 -0.53013164
2.8138247 -1.0615722 -0.3692641
2.7607772 -1.0614218 -0.36317062
2.3762388 -1.2174224 -0.32782853
2.3422341 -1.2183806 -0.32417244
2.3170331 -1.2237011 -0.32173505
2.2830567 -1.224164 -0.31807899
2.2578847 -1.2289944 -0.31564158
2.2240551 -1.2287573 -0.31198552
2.1989758 -1.2329984 -0.30954814
2.1739318 -1.2369733 -0.30711073
2.1489255 -1.2406826 -0.30467334
2.1153946 -1.2391102 -0.30101728
2.090502 -1.2422364 -0.29857987
2.0571537 -1.2399752 -0.29492381
2.0239172 -1.2373446 -0.29126772
2.0076673 -1.2448065 -0.29004905
1.9830558 -1.2467434 -0.28761163
1.9585532 -1.2483369 -0.28517425
1.9340532 -1.2497592 -0.28273687
1.9095578 -1.2510082 -0.28029948
1.8768555 -1.2465078 -0.2766434
1.8525199 -1.2471894 -0.27420601
1.8282501 -1.2476151 -0.27176863
1.8040488 -1.2477854 -0.26933125
1.7880456 -1.2533987 -0.26811254
1.763952 -1.2531121 -0.26567516
1.7480434 -1.2582952 -0.26445648
1.7161553 -1.2515566 -0.26080039
1.7003301 -1.2563419 -0.25958169
1.6685661 -1.2491554 -0.25592563
1.6606845 -1.2596146 -0.25592563
1.636997 -1.2579286 -0.25348824
1.6133969 -1.2559952 -0.25105083
1.5976797 -1.2599617 -0.24983215
1.5819772 -1.2637799 -0.24861346
1.5585737 -1.2612079 -0.24617606
1.5429978 -1.264616 -0.24495737
1.5198575 -1.2614741 -0.24251999
1.5043596 -1.2645457 -0.2413013
1.4888268 -1.267539 -0.24008261
1.4733167 -1.2703866 -0.23886392
1.450353 -1.2665616 -0.23642652
1.4349319 -1.2690736 -0.23520783
1.4269295 -1.2780648 -0.23520783
1.4042233 -1.273607 -0.23277044
1.3889948 -1.2755693 -0.23155175
1.3737401 -1.2774525 -0.23033306
1.358461 -1.2792537 -0.22911437
1.3432136 -1.2809142 -0.22789566
1.327999 -1.2824336 -0.22667697
1.3128191 -1.2838125 -0.22545828
1.2906213 -1.2780682 -0.2230209
1.2825658 -1.2861518 -0.2230209
1.2605306 -1.2800412 -0.22058351
1.2455993 -1.280766 -0.21936481
1.23764 -1.2884588 -0.21936481
1.2227453 -1.2889555 -0.21814612
1.2078372 -1.2893687 -0.21692742
1.1862317 -1.2823604 -0.21449004
1.1781515 -1.289788 -0.21449004
1.1634324 -1.2897444 -0.21327135
1.1488169 -1.2895167 -0.21205266
1.1341361 -1.2892573 -0.21083397
1.1259001 -1.2964559 -0.21083397
1.1112709 -1.2959701 -0.20961526
1.0968063 -1.2952555 -0.20839657
1.0823362 -1.2944597 -0.20717788
1.0678631 -1.2935799 -0.20595919
1.059714 -1.3002642 -0.20595919
1.0453016 -1.2991636 -0.20474049
1.0310011 -1.2978889 -0.2035218
1.0168145 -1.296442 -0.20230311
1.0087055 -1.3027612 -0.20230311
-1.3468617 -1.743894 -0.27054992
-1.3761413 -1.758848 -0.27420601
-1.3932532 -1.7580065 -0.27542472
-1.3979063 -1.7415996 -0.27420601
-1.4024842 -1.7251422 -0.27298734
-1.406987 -1.7086338 -0.27176863
-1.4049796 -1.6845157 -0.26933125
-1.4027261 -1.66049 -0.26689386
-1.4066784 -1.6441023 -0.26567516
-1.4169812 -1.6352311 -0.26567516
-1.4206804 -1.618836 -0.26445648
-1.4308242 -1.6098773 -0.26445648
-1.4275614 -1.5861634 -0.2620191
-1.4306762 -1.5699519 -0.26080039
-1.4202513 -1.5391111 -0.2571443
-1.4298934 -1.5301574 -0.2571443
-1.4258354 -1.5067242 -0.25470692
-1.4215391 -1.4834037 -0.25226954
-1.4349619 -1.5248929 0.33164105
-1.4307561 -1.5016713 0.32851237
-1.4401063 -1.4927068 0.32851237
-1.4356524 -1.4694991 0.32538369
-1.4309642 -1.446407 0.32225499
-1.4260433 -1.4234321 0.31912631
-1.4208905 -1.4005769 0.3159976
-1.4225845 -1.3847327 0.31443328
-1.4597397 -1.4031456 0.32069066
-1.4900178 -1.4143453 0.32538369
-1.4988749 -1.4049554 0.32538369
-1.5221697 -1.4089284 0.32851237
-1.5382137 -1.4060754 0.33007672
-1.5395647 -1.3898994 0.32851237
-1.5555872 -1.3868302 0.33007672
-1.6013381 -1.4096599 0.33789843
-1.5878003 -1.3801321 0.3332054
-1.7783389 -1.4135259 0.35979927
-1.8260915 -1.4327402 0.36762097
-1.8506751 -1.4333339 0.37074968
-1.8831137 -1.4397657 0.37544271
-1.9077648 -1.4399713 0.37857139
-2.0273659 -1.3211344 0.38326442
-2.0438206 -1.3138889 0.38482878
-2.0936928 -1.3275452 0.39265051
-2.1187415 -1.324837 0.39577919
-2.1522455 -1.3270499 0.40047222
-2.1858599 -1.3288933 0.40516526
-5.0740895 -1.5442878 0.84005308
-5.2162285 -1.5518049 0.86195391
-5.3681407 -1.560352 0.88541907
-5.501358 -1.5616554 0.90575552
-7.188643 -1.7042916 1.1701298
-7.2377081 -1.6679608 1.1763872
-7.2287683 -1.6181391 1.1732584
-7.2291412 -1.5705888 1.1716942
-10.451497 -2.1335018 1.6894922
-10.135251 -2.002697 1.6363045
-9.8177881 -1.8759475 1.5831168
-9.829381 -1.8142264 1.5831168
-9.8503103 -1.75416 1.5846812
-9.8611364 -1.692237 1.5846812
-9.8812389 -1.6323408 1.5862454
-9.8716545 -1.5679858 1.5831168
-9.8617258 -1.5033292 1.5799881
-9.8709764 -1.4413393 1.5799881
-9.8700562 -1.3779217 1.5784237
-9.8687286 -1.3145779 1.5768594
-9.8767939 -1.2525426 1.5768594
-9.8746624 -1.1892821 1.5752951
-9.8819399 -1.1272119 1.5752951
-9.8888273 -1.0651026 1.5752951
-9.885498 -1.0019499 1.5737307
-9.8817654 -0.9388864 1.5721663
-9.8874693 -0.87677664 1.5721663
-9.902627 -0.81544805 1.5737307
-9.9075546 -0.75320953 1.5737307
-9.9022388 -0.69025981 1.5721663
-9.9063807 -0.62802625 1.5721663
-9.9101305 -0.56577319 1.5721663
-9.9134655 -0.50398356 1.5721663
-9.8769293 -0.44078794 1.565909
-9.9090986 -0.38023335 1.5706021
-9.9409075 -0.3189182 1.5752951
-9.9427147 -0.25644901 1.5752951
-9.9540052 -0.1941676 1.5768594
-9.9649048 -0.13174914 1.5784237
-9.9556589 -0.069069639 1.5768594
-9.9558964 -0.0065126778 1.5768594
-9.9458637 0.05598364 1.5752951
-9.9453163 0.11847658 1.5752951
-9.9542503 0.18113926 1.5768594
-9.9529276 0.24318941 1.5768594
-9.9611025 0.30515623 1.5784237
-9.9590025 0.36735806 1.5784237
-9.9564972 0.4299221 1.5784237
-9.9634647 0.49296257 1.5799881
-9.9700317 0.55610222 1.5815524
-7.2554173 0.45043576 1.1513577
-6.8681436 0.46972862 1.0903482
-6.855207 0.51213896 1.0887839
-6.8616986 0.55599701 1.0903482
-6.8679385 0.59962034 1.0919125
-6.8739257 0.6430831 1.0934769
-6.8796034 0.68698007 1.0950413
-6.884973 0.73123342 1.0966055
-6.821353 0.76785123 1.0872195
-6.7967787 0.80836093 1.0840908
-6.7915649 0.85105205 1.0840908
-6.8154612 0.89757472 1.0887839
-6.868391 0.94848818 1.0981699
-6.8622961 0.99162275 1.0981699
-6.8657475 1.0358558 1.0997343
-6.9079823 1.0860463 1.107556
-6.8913183 1.1275711 1.1059916
-6.8840976 1.1708462 1.1059916
-10.033717 1.9036033 1.6175324
-10.031251 1.9685085 1.6190966
-10.047724 2.0373886 1.6237897
-10.086095 2.5775363 1.6488192
-10.088577 2.6467476 1.651948
-10.09072 2.7156005 1.6550766
1.0046037 1.3330332 0.26437426
1.0129596 1.3266948 0.26437426
1.0333614 1.335929 0.26750293
1.0417349 1.3294098 0.26750293
1.0562079 1.3305742 0.26906729
1.0769258 1.3393059 0.27219597
1.0853195 1.332513 0.27219597
1.0999559 1.3332863 0.27376032
1.1146446 1.3339279 0.27532464
1.1293846 1.3344373 0.276889
1.1506027 1.3423128 0.28001767
1.1654888 1.3425153 0.28158203
1.1804228 1.3425834 0.28314638
1.1888351 1.3351401 0.28314638
1.2104293 1.3423142 0.28627506
1.2121791 1.3273891 0.28471074
1.2272012 1.326998 0.28627506
1.2625206 1.3480974 0.29253244
1.2845591 1.3544713 0.29566112
1.2930441 1.3463734 0.29566112
1.3152503 1.3523836 0.29878983
1.330652 1.3511301 0.30035415
1.4538705 1.3518476 0.31443328
1.469611 1.3493661 0.3159976
1.4853773 1.34674 0.31756195
1.5011026 1.3440423 0.31912631
1.5241992 1.3478013 0.32225499
1.5549724 1.3576692 0.32694802
1.5710711 1.3541844 0.32851237
1.5946437 1.3570282 0.33164105
1.9220946 1.5342507 0.38952181
1.9238644 1.516125 0.38795745
1.9488117 1.5163063 0.39108616
1.9504099 1.49809 0.38952181
1.9676548 1.4917729 0.39108616
1.9848969 1.4852979 0.39265051
1.99419 1.4727973 0.39265051
2.0114582 1.4659574 0.39421484
2.020756 1.4531138 0.39421484
2.0378854 1.4461265 0.39577919
2.0468063 1.433472 0.39577919
2.0394678 1.4094315 0.39265051
2.1889088 1.2257226 0.39734355
2.1706235 1.1976308 0.39265051
2.1781056 1.1839688 0.39265051
2.1767943 1.1655977 0.39108616
2.1753387 1.1472901 0.38952181
2.1736839 1.1291535 0.38795745
2.1718454 1.1111652 0.38639313
2.1787961 1.0974735 0.38639313
2.1768939 1.0791844 0.38482878
2.1747956 1.0610712 0.38326442
2.1725159 1.0431106 0.3817001
2.1789765 1.0295469 0.3817001
2.1763575 1.0118623 0.38013574
2.1736519 0.99414325 0.37857139
2.1798553 0.98046625 0.37857139
2.17694 0.96275568 0.37700707
2.182946 0.94905865 0.37700707
2.2342782 0.9547292 0.38482878
2.2857659 0.95979166 0.39265051
2.3282733 0.96047723 0.39890787
2.370878 0.96066588 0.40516526
2.4135754 0.96035653 0.41142264
12.277611 2.9311674 1.9992324
12.266922 2.8472679 1.9945394
12.28457 2.7701383 1.9945394
12.282304 2.6892755 1.9914107
12.289069 2.6110709 1.9898463
12.295462 2.5322831 1.988282
12.301443 2.4530489 1.9867177
12.297217 2.3719673 1.9835889
12.302168 2.2928455 1.9820247
12.014985 2.1612966 1.93353
11.726646 2.0334489 1.8850353
11.758676 1.9629812 1.8881639
11.780529 1.890626 1.8897283
11.772652 1.8135623 1.8865997
11.774043 1.7381146 1.8850353
11.765091 1.6619183 1.8819066
11.775162 1.5889906 1.8819066
11.775059 1.5141648 1.8803422
11.784341 1.4401504 1.8803422
12.04825 1.3956282 1.9210151
12.381366 -0.59153831 1.9632525
11.598214 -0.6281997 1.8396692
10.903924 -0.65921181 1.7301651
10.318186 -0.68798995 1.6378688
9.8113022 -0.7157625 1.5580872
9.3241577 -0.73914897 1.4814343
8.8568068 -0.7581284 1.4079101
8.4879589 -0.78030741 1.3500295
8.1290255 -0.79884863 1.293713
7.7996774 -0.81599361 1.2420896
7.5097146 -0.83339149 1.1967236
7.2688999 -0.8529343 1.1591793
7.2634416 -0.89823222 1.1591793
2.802156 -1.0785936 0.47556075
2.7677381 -1.0853611 0.47086772
2.6193984 -1.363845 0.46773905
2.6282938 -1.3894082 0.47086772
-1.3664763 -1.912727 0.37231401
-1.3726754 -1.896103 0.37074968
-1.3845619 -1.8874409 0.37074968
-1.3787178 -1.8549231 0.36605665
-1.3844036 -1.838334 0.3644923
-1.3120514 -1.7196662 0.34259146
-1.371153 -1.773905 0.35510623
-1.3822716 -1.7652549 0.35510623
-1.405525 -1.7720799 0.35823491
-1.4041065 -1.7479372 0.35510623
-1.4025277 -1.723812 0.35197753
-1.4070495 -1.7073436 0.3504132
-1.4114201 -1.6908867 0.34884885
-1.402886 -1.6593575 0.34415582
-1.4132843 -1.6505103 0.34415582
-1.4171559 -1.634136 0.34259146
-1.4208776 -1.6177785 0.34102714
-1.4310143 -1.608819 0.34102714
-1.4211856 -1.5778501 0.33633408
-1.4242789 -1.5617167 0.33476976
-1.4273032 -1.5455354 0.3332054
-1.4302394 -1.5293232 0.33164105
-1.4330286 -1.5131353 0.33007672
-1.4288344 -1.4898446 0.32694802
-1.4274265 -1.5157087 -0.1821555
-1.4299155 -1.4996258 -0.18128394
-1.4392613 -1.4906586 -0.18128394
-1.4416344 -1.4744631 -0.18041238
-1.4438612 -1.4582969 -0.17954083
-1.4318353 -1.4280913 -0.17692615
-1.4265847 -1.405086 -0.17518304
-1.4282438 -1.3891492 -0.17431149
-1.4584979 -1.4008501 -0.17692615
-2.0369937 -1.326285 -0.21266001
-2.0619359 -1.3244063 -0.21440312
-2.0954196 -1.3274863 -0.2170178
-2.129065 -1.3301291 -0.21963246
-2.1628253 -1.3324009 -0.22224714
-2.1966975 -1.3343004 -0.22486182
-7.2230349 -1.6615936 -0.64843869
-7.2138877 -1.6118346 -0.64669561
-7.2238731 -1.566475 -0.64669561
-10.103088 -2.058249 -0.90206194
-9.8128347 -1.9349862 -0.87504363
-9.7954426 -1.8676925 -0.87242895
-9.9024515 -0.4380849 -0.8671996
-9.9846344 -0.37920666 -0.87417209
-10.006734 -0.31709787 -0.87591523
-10.018488 -0.25446805 -0.87678677
-10.019889 -0.19151798 -0.87678677
-10.010933 -0.12842724 -0.87591523
-10.011542 -0.065527134 -0.87591523
-10.011756 -0.0026191035 -0.87591523
-10.021537 0.060343679 -0.87678677
-10.02096 0.12331202 -0.87678677
-10.019987 0.18627016 -0.87678677
-10.018633 0.24867664 -0.87678677
-10.026857 0.31105691 -0.87765831
-10.024716 0.3737227 -0.87765831
-10.032124 0.43713316 -0.87852985
-9.9694815 0.49718344 -0.87330055
-9.9462681 0.55869335 -0.87155741
-7.2381845 0.45221826 -0.63449377
-6.8575387 0.47170791 -0.60137463
-6.8445058 0.51404136 -0.60050309
-6.8609991 0.55865139 -0.60224617
-6.86731 0.60224503 -0.6031177
-6.8634467 0.64478379 -0.6031177
-6.879107 0.68965799 -0.60486084
-6.8746386 0.73286504 -0.60486084
-6.8006048 0.76821923 -0.59875995
-6.8055358 0.81211191 -0.59963149
-6.7805305 0.85237288 -0.59788841
-6.7157841 0.88712972 -0.59265906
-6.8383584 0.94707656 -0.6039893
-6.8421316 0.99145108 -0.60486084
-6.8752232 1.0400084 -0.60834706
-6.898169 1.0872408 -0.61096174
-6.8715773 1.127111 -0.60921866
-6.8840008 1.1736104 -0.61096174
1.0053184 1.350459 -0.14729321
1.0197824 1.3520691 -0.14816476
1.0282576 1.3456349 -0.14816476
1.0427903 1.347025 -0.14903632
1.0635283 1.3561243 -0.15077943
1.072028 1.3494152 -0.15077943
1.086731 1.3504139 -0.151651
1.1014886 1.3512808 -0.15252255
1.1162997 1.3520151 -0.1533941
1.1247727 1.3449746 -0.1533941
1.1460785 1.3530841 -0.15513723
1.1610438 1.3534174 -0.15600878
1.1695246 1.3460957 -0.15600878
1.1779592 1.3387208 -0.15600878
1.1996026 1.3461679 -0.15775189
1.2213856 1.3533952 -0.15949501
1.2433062 1.3604015 -0.16123812
1.2585958 1.3598739 -0.16210967
1.2807401 1.3664762 -0.1638528
1.2961586 1.3656276 -0.16472435
1.3185199 1.3718213 -0.16646747
1.3340615 1.3706486 -0.16733903
1.3496401 1.3693345 -0.16821058
1.3652546 1.3678783 -0.16908213
1.529404 1.3683159 -0.17954083
1.5527831 1.3720061 -0.18128394
1.5689095 1.3687375 -0.1821555
1.5851455 1.3652161 -0.18302706
1.8985037 1.5338149 -0.21353157
1.9314679 1.5404911 -0.21614625
1.9410254 1.5284309 -0.21614625
1.9583229 1.5224897 -0.2170178
1.9836066 1.5223497 -0.21876091
2.0010734 1.5158718 -0.21963246
2.0105581 1.503269 -0.21963246
2.0279794 1.4965217 -0.22050403
2.0374231 1.483639 -0.22050403
2.0468333 1.4706297 -0.22050403
2.0641277 1.463547 -0.22137558
2.040508 1.4278836 -0.21788935
1.9920099 1.3754789 -0.21178845
2.0170789 1.3741531 -0.21353157
2.1571245 1.2246704 -0.2170178
2.1908584 1.2256842 -0.21963246
2.1897919 1.2070854 -0.21876091
2.1798244 1.1837943 -0.2170178
2.1784353 1.1653758 -0.21614625
2.1680877 1.1423777 -0.21440312
2.1751611 1.1288515 -0.21440312
2.1732433 1.1108187 -0.21353157
2.1802037 1.0970944 -0.21353157
2.1782212 1.0787623 -0.21266001
2.1760361 1.0606188 -0.21178845
2.1736751 1.0426171 -0.21091689
2.1801271 1.0290577 -0.21091689
2.1774261 1.0113339 -0.21004534
2.1837049 0.99770439 -0.21004534
2.1808436 0.97988129 -0.20917378
2.1869574 0.96615934 -0.20917378
2.2386718 0.97224098 -0.21353157
2.2905474 0.97771007 -0.21788935
2.3425779 0.98256516 -0.22224714
2.3855479 0.98300862 -0.22573337
2.4286141 0.98295027 -0.2292196
10.941866 -0.5970189 -0.95871317
10.331357 -0.62861311 -0.90554816
9.7905245 -0.6566149 -0.85848403
9.2994013 -0.68208915 -0.81577772
8.83813 -0.70411289 -0.77568609
8.4662943 -0.72805017 -0.74343848
8.1044416 -0.74825978 -0.71206242
7.7823386 -0.767865 -0.68417257
7.4900436 -0.78657365 -0.6588974
7.257237 -0.80825776 -0.63885158
7.2520151 -0.85384017 -0.63885158
7.2465563 -0.89899415 -0.63885158
6.1649895 -1.1209241 -0.54820961
6.3634119 -1.1983535 -0.56651235
4.3676472 -0.9646852 -0.39132929
4.2157927 -0.95896482 -0.3782559
2.7953765 -1.0571209 -0.26146722
2.751497 -1.0603349 -0.257981
2.3663018 -1.2146457 -0.23270583
2.3498962 -1.2246798 -0.23183428
2.3069746 -1.2207069 -0.22834805
2.2729318 -1.2210344 -0.22573337
2.238977 -1.2209831 -0.22311869
2.2138295 -1.2253782 -0.22137558
2.1800303 -1.2246269 -0.21876091
2.1636384 -1.2333667 -0.21788935
2.129976 -1.2319735 -0.21527468
2.0964177 -1.2302067 -0.21266001
2.0629666 -1.2280674 -0.21004534
2.0466819 -1.2358557 -0.20917378
2.0218859 -1.2382852 -0.20743066
1.9971406 -1.2404523 -0.20568755
1.9725164 -1.2422502 -0.20394443
1.9479889 -1.2437259 -0.20220132
1.9234513 -1.2450508 -0.2004582
1.8989332 -1.2461802 -0.19871509
1.8744775 -1.247051 -0.19697197
1.8500866 -1.247664 -0.19522886
1.8257625 -1.2480203 -0.19348575
1.8096963 -1.253794 -0.19261418
1.7773242 -1.2479659 -0.18999952
1.7613312 -1.2533327 -0.18912795
1.7373292 -1.2526269 -0.18738484
1.7134461 -1.2516148 -0.18564174
1.6895746 -1.2504474 -0.18389861
1.6657444 -1.2490857 -0.1821555
1.6657957 -1.2655536 -0.18302706
1.6420225 -1.2638427 -0.18128394
1.6261932 -1.2680092 -0.18041238
1.6025591 -1.2658522 -0.17866927
1.5867954 -1.2696725 -0.1777977
1.5710474 -1.2733449 -0.17692615
1.5553859 -1.2767848 -0.1760546
1.5244635 -1.2672923 -0.17343992
1.5088919 -1.2703799 -0.17256837
1.4933 -1.2733717 -0.17169681
1.4777303 -1.2762178 -0.17082526
1.4621841 -1.2789189 -0.16995369
1.4466625 -1.2814752 -0.16908213
1.4237515 -1.277235 -0.16733903
1.4083948 -1.2793798 -0.16646747
1.3931088 -1.2813375 -0.1655959
1.3777825 -1.2832308 -0.16472435
1.3624455 -1.285027 -0.1638528
1.347141 -1.2866811 -0.16298124
1.3318694 -1.2881942 -0.16210967
1.3166323 -1.2895665 -0.16123812
1.3014307 -1.2907984 -0.16036656
1.286266 -1.2918905 -0.15949501
1.2641549 -1.2857398 -0.15775189
1.2491821 -1.2864418 -0.15688033
1.2342921 -1.286967 -0.15600878
1.2262236 -1.294657 -0.15600878
1.2112601 -1.2950604 -0.15513723
1.1963401 -1.2953272 -0.15426566
1.1814649 -1.2954578 -0.1533941
1.1667062 -1.2953893 -0.15252255
1.1520369 -1.2951497 -0.151651
1.1438482 -1.3023876 -0.151651
1.1290021 -1.3021213 -0.15077943
1.1143482 -1.3015974 -0.14990787
1.0998305 -1.3008693 -0.14903632
1.085294 -1.3000708 -0.14816476
1.0707681 -1.2991768 -0.14729321
1.0625842 -1.3058789 -0.14729321
1.0481193 -1.3047631 -0.14642164
1.0399722 -1.3112661 -0.14642164
1.025686 -1.3098409 -0.14555009
1.0113863 -1.3083447 -0.14467853
-1.3438849 -1.9047257 -0.20394443
-1.3616203 -1.9043478 -0.204816
-1.2922331 -1.6704471 -0.18477017
-1.3764411 -1.756387 -0.19522886
-1.3935478 -1.7555823 -0.19610041
-1.3981565 -1.7391504 -0.19522886
-1.4027094 -1.7226526 -0.19435731
-1.4008282 -1.6984346 -0.19261418
-1.4050853 -1.6819543 -0.19174263
-1.4091909 -1.6654876 -0.19087107
-1.4131453 -1.6490363 -0.18999952
-1.4234785 -1.6401247 -0.18999952
-1.4271787 -1.623666 -0.18912795
-1.4174811 -1.5923443 -0.18651329
-1.4273716 -1.5834845 -0.18651329
-1.4170082 -1.5525364 -0.18389861
-1.4266849 -1.5436488 -0.18389861
-1.4227409 -1.5201077 -0.1821555
-1.425411 -1.5039082 -0.18128394
-1.4348321 -1.4949224 -0.18128394
-1.4273293 -1.5144302 0.40451506
-1.416355 -1.4842522 0.39879081
-1.4256123 -1.4753628 0.39879081
-1.4348541 -1.4663763 0.39879081
-1.43713 -1.4503591 0.39688271
-1.4323086 -1.4274421 0.39306653
-1.4342527 -1.4115291 0.39115843
-1.4360534 -1.3956485 0.38925034
-1.4589589 -1.4001921 0.39306653
-1.4748526 -1.39775 0.39497462
-1.4907728 -1.3951632 0.39688271
-1.5139278 -1.3990936 0.40069887
-1.6346167 -1.365828 0.41405553
-1.6734171 -1.3805631 0.42168787
-1.7353362 -1.4134159 0.4350445
-1.905005 -1.435573 0.46366584
-1.8981956 -1.4119107 0.45984969
-1.9913504 -1.3131784 0.46366584
-2.0077124 -1.3061132 0.46557394
-2.0405502 -1.3095542 0.47129822
-2.0818799 -1.3177638 0.47893056
-2.1234272 -1.3254483 0.48656294
-2.1567924 -1.3275166 0.49228719
-2.1818743 -1.3241245 0.49610338
-7.1923413 -1.7469882 1.4386998
-7.2127299 -1.7040182 1.4406079
-7.232861 -1.6608647 1.442516
-7.233573 -1.613248 1.4406079
-7.2243781 -1.5636154 1.4367917
-9.8723516 -1.9426912 1.9557922
-9.8457899 -1.8732868 1.9481598
-9.8573656 -1.8113847 1.9481598
-9.8782177 -1.7511296 1.9500679
-9.8793497 -1.6873734 1.9481598
-9.870286 -1.6226796 1.9443437
-9.8704548 -1.5599592 1.9424355
-9.8703146 -1.4967101 1.9405274
-9.8795242 -1.4346611 1.9405274
-9.8883429 -1.3725609 1.9405274
-9.8870411 -1.3091127 1.9386194
-9.8853312 -1.2457404 1.9367113
-9.8929644 -1.1836021 1.9367113
-9.8904514 -1.1203175 1.9348031
-9.8875351 -1.0571059 1.9328951
-9.9037485 -0.99594498 1.9348031
-9.9000378 -0.93277514 1.9328951
-9.9057026 -0.87055588 1.9328951
-9.9109774 -0.80829698 1.9328951
-9.9060717 -0.74527502 1.930987
-9.9105587 -0.6830163 1.930987
-9.9146547 -0.62073588 1.930987
-9.9183588 -0.55842566 1.930987
-9.9314461 -0.49718669 1.9328951
-9.9245291 -0.43521115 1.930987
-9.9270573 -0.37311751 1.930987
-9.9292059 -0.31073427 1.930987
-9.9407759 -0.24858944 1.9328951
-9.9421415 -0.18612246 1.9328951
-9.9431143 -0.12365343 1.9328951
-9.9535112 -0.061234597 1.9348031
-9.9536991 0.0013034085 1.9348031
-9.953495 0.063846663 1.9348031
-9.9528971 0.1263821 1.9348031
-9.9617214 0.18910415 1.9367113
-9.9603519 0.2510893 1.9367113
-9.9684162 0.31310773 1.9386194
-9.9662619 0.37546125 1.9386194
-9.9735136 0.43850723 1.9405274
-9.9803648 0.50165385 1.9424355
-7.2007427 0.45271677 1.4024462
-6.8647985 0.47491854 1.337571
-6.8616791 0.51803994 1.337571
-6.868072 0.56194502 1.3394791
-6.8839989 0.60639483 1.3432953
-6.8703365 0.64811498 1.3413873
-6.8759151 0.69206429 1.3432953
-6.86167 0.73421049 1.3413873
-6.8179064 0.77288431 1.3337549
-6.7934222 0.81337488 1.3299387
-6.7784386 0.85481298 1.3280306
-6.7826648 0.89867723 1.3299387
-6.8254995 0.94802654 1.3394791
-6.8291221 0.99230683 1.3413873
-6.8616362 1.040671 1.3490195
-6.8938403 1.0892944 1.3566519
-6.8772049 1.1308064 1.3547438
-6.8796396 1.17565 1.3566519
-10.038155 1.912611 1.9863216
-10.035569 1.977545 1.9882298
-10.032566 2.0425167 1.9901378
-10.048353 2.1115713 1.995862
-10.054075 2.1788204 1.9996783
-1.6233245 1.0866177 0.3797099
-1.6408336 1.1133308 0.38543415
-1.6499826 1.134743 0.38925034
-1.6267139 1.1338618 0.38543415
-1.3928387 1.2106692 0.3587209
-1.4367808 1.2648001 0.37207752
1.0053931 1.3319029 0.32437527
1.0256681 1.3411545 0.32819146
1.0340747 1.3346835 0.32819146
1.0485009 1.3358818 0.33009955
1.0629828 1.3369511 0.33200765
1.0713621 1.330246 0.33200765
1.0859042 1.3310944 0.33391574
1.1067519 1.3393794 0.33773193
1.1151457 1.3323991 0.33773193
1.1298426 1.3328542 0.33963999
1.1445892 1.3331769 0.34154809
1.1658252 1.3407741 0.34536427
1.1807139 1.3407896 0.34727237
1.189115 1.3333445 0.34727237
1.2106282 1.3404164 0.35108855
1.2190262 1.3327835 0.35108855
1.2407173 1.3395011 0.35490471
1.2625403 1.3459982 0.3587209
1.2844936 1.3522733 0.36253709
1.2997698 1.3512505 0.36444518
1.321933 1.3571206 0.36826137
1.330434 1.348788 0.36826137
1.3527567 1.3542923 0.37207752
1.36822 1.3526673 0.37398562
1.4688811 1.3465713 0.38734224
1.4845903 1.3439033 0.38925034
1.5075612 1.3477231 0.39306653
1.5306 1.3513504 0.39688271
1.546504 1.3481066 0.39879081
1.5625011 1.3446304 0.40069887
1.5859166 1.3474554 0.40451506
1.8577595 1.4805099 0.46175775
1.8669368 1.4689202 0.46175775
1.8915064 1.4693687 0.46557394
1.9162408 1.4694536 0.46939012
1.9332628 1.4633089 0.47129822
1.9424187 1.4511331 0.47129822
1.9672997 1.450551 0.47511441
1.9685236 1.4322677 0.47320631
1.985582 1.425423 0.47511441
2.0104723 1.4243336 0.47893056
2.011214 1.4062247 0.47702247
2.0118918 1.3880409 0.47511441
2.1496387 1.1838511 0.47702247
2.1829188 1.184365 0.48274675
2.1816599 1.1659993 0.48083866
2.1802566 1.147696 0.47893056
2.1786423 1.1295874 0.47702247
2.1768568 1.1116028 0.47511441
2.1662934 1.0890139 0.47129822
2.1731868 1.0751917 0.47129822
2.1799283 1.0614567 0.47129822
2.1777022 1.043497 0.46939012
2.1752753 1.0257378 0.46748203
2.1815889 1.0122405 0.46748203
2.1789484 0.99449718 0.46557394
2.1761985 0.97676724 0.46366584
2.1733119 0.95911133 0.46175775
2.1883008 0.94934386 0.46366584
2.2303412 0.95097613 0.47129822
2.2724874 0.95211697 0.47893056
2.3238115 0.95650178 0.48847103
2.3661783 0.95659894 0.49610338
2.4177601 0.95982283 0.50564384
9.78969 -0.72191572 1.9080899
9.2859278 -0.74345762 1.8107773
8.8800993 -0.7671479 1.7325456
8.4841309 -0.78667545 1.6562221
8.1175871 -0.80416197 1.5856227
7.7902222 -0.82119113 1.5226557
7.5019989 -0.83850014 1.4673212
7.2528701 -0.85682851 1.4196188
7.2571387 -0.90316051 1.421527
2.7908113 -1.0566473 0.58005935
2.7841172 -1.0741615 0.58005935
2.7407694 -1.0772698 0.57242697
2.6519284 -1.0616351 0.55525416
2.6109765 -1.3620312 0.57242697
2.6284287 -1.3921219 0.57815123
2.6023388 -1.3993115 0.57433504
2.610728 -1.4250406 0.57815123
-1.3131542 -1.8846406 0.44649303
-1.3476188 -1.908427 0.4541254
-1.3538706 -1.8919392 0.45221731
-1.377538 -1.874777 0.45221731
-1.3775663 -1.8503371 0.44840112
-1.3655198 -1.810298 0.44076878
-1.3053416 -1.7080885 0.41787168
-1.3641229 -1.7619482 0.4331364
-1.3812245 -1.7610664 0.4350445
-1.3921573 -1.7524366 0.4350445
-1.3968349 -1.7361294 0.4331364
-1.3952659 -1.7121382 0.42932025
-1.3934983 -1.6881969 0.42550406
-1.404078 -1.6794081 0.42550406
-1.4082587 -1.6630616 0.42359596
-1.4122897 -1.6467292 0.42168787
-1.4161714 -1.6304121 0.41977978
-1.4134204 -1.6067412 0.41596359
-1.4234879 -1.5978286 0.41596359
-1.4136783 -1.5670729 0.41023934
-1.4035 -1.53654 0.40451506
-1.4130846 -1.5277301 0.40451506
-1.4226557 -1.5188214 0.40451506
-1.4186596 -1.4956087 0.40069887
-1.4212286 -1.4795861 0.39879081
-1.4389437 -1.5255693 -0.1099055
-1.4345746 -1.5021802 -0.10885879
-1.4439521 -1.4931685 -0.10885879
-1.4393314 -1.4697965 -0.10781207
-1.4344745 -1.4465421 -0.10676535
-1.4293827 -1.4234074 -0.10571863
-1.424057 -1.4003948 -0.10467191
-1.4184995 -1.3775053 -0.10362519
-1.4631652 -1.4031253 -0.10624199
-1.4937053 -1.4145038 -0.10781207
-1.5098573 -1.4119116 -0.10833543
-1.5333722 -1.4159467 -0.10938215
-1.5421464 -1.4063854 -0.10938215
-1.5359904 -1.3834367 -0.10833543
-1.4998507 -1.3339721 -0.10519527
-1.5607272 -1.3706497 -0.10885879
-1.5617636 -1.3542739 -0.10833543
-1.6233419 -1.3898983 -0.11199895
-1.5938227 -1.3475403 -0.10938215
-1.6941302 -1.4144417 -0.11566246
-1.6490135 -1.359342 -0.11199895
-2.0430014 -1.3279449 -0.12769973
-2.0764096 -1.3314326 -0.12926981
-2.1100256 -1.3344184 -0.13083988
-2.6178255 -1.477252 -0.15753123
-2.7057369 -1.5042158 -0.16224146
-3.5676212 -1.5117022 -0.2030635
-3.6137946 -1.5049253 -0.20515695
-3.6601174 -1.4973938 -0.20725039
-3.7065187 -1.4892598 -0.20934382
-5.0461211 -1.529282 -0.27633384
-5.1705308 -1.5315814 -0.28261417
-5.3335347 -1.5434806 -0.29098791
-5.4968867 -1.5533903 -0.29936168
-5.6894479 -1.5692722 -0.30930549
-5.8437419 -1.5727975 -0.3171559
-6.7061954 -1.6261179 -0.36164144
-7.0175896 -1.6550078 -0.37786561
-7.2127929 -1.6532761 -0.38780943
-7.2132912 -1.6057526 -0.38728607
-7.2329984 -1.5625092 -0.38780943
-9.8328333 -2.0595582 -0.52649969
-9.8162193 -1.9917814 -0.52492964
-9.8383398 -1.9319869 -0.52545297
-9.8012285 -1.8608222 -0.52283621
-9.9070377 -0.43060055 -0.51969606
-10.019313 -0.37264645 -0.52545297
-10.04142 -0.31030041 -0.52649969
-10.043171 -0.24720518 -0.52649969
-10.034542 -0.18391183 -0.52597636
-10.025514 -0.12074204 -0.52545297
-10.026074 -0.057745136 -0.52545297
-10.036225 0.0052539352 -0.52597636
-10.035995 0.068315662 -0.52597636
-10.035367 0.13136934 -0.52597636
-10.044328 0.19461663 -0.52649969
-10.042924 0.25706223 -0.52649969
-10.05112 0.31960136 -0.52702308
-10.048922 0.38252565 -0.52702308
-10.056296 0.44610226 -0.52754641
-9.9136658 0.50220275 -0.52021939
-7.2056856 0.45586738 -0.37838897
-6.8639641 0.47756824 -0.36059472
-6.8409123 0.51917291 -0.359548
-6.8574209 0.56378353 -0.36059472
-6.8736777 0.60816807 -0.36164144
-6.8797193 0.65168792 -0.36216483
-6.8755045 0.69474941 -0.36216483
-6.8908615 0.74007016 -0.36321154
-6.7670083 0.76980507 -0.35693121
-6.8215275 0.81945628 -0.36007136
-6.7766151 0.85728562 -0.35797793
-6.6523037 0.88406223 -0.35169762
-6.8543248 0.95477295 -0.36268818
-6.8778358 1.0021423 -0.36425826
-6.9010906 1.0493888 -0.36582834
-6.9043193 1.0936908 -0.36635169
-6.8874831 1.1352735 -0.36582834
-6.8998995 1.1819 -0.36687505
-1.2069459 1.3854992 -0.096298158
-1.1851923 1.3779138 -0.095251441
-1.1765116 1.3853331 -0.095251441
-1.1613681 1.3850454 -0.094728082
-1.1526431 1.3923148 -0.094728082
-1.1375521 1.3917977 -0.094204716
-1.1413273 1.4144608 -0.095251441
-1.1137508 1.3981713 -0.093681358
-1.0987715 1.3972913 -0.093157999
-1.0838466 1.3962792 -0.092634641
-1.0689787 1.3951344 -0.092111282
-1.0601914 1.4018238 -0.092111282
-1.0453893 1.4004545 -0.091587923
-1.036569 1.4069955 -0.091587923
-1.0159633 1.3973264 -0.090541206
-1.0071633 1.4036825 -0.090541206
1.0003177 1.3592798 -0.088447765
1.0088384 1.3529679 -0.088447765
1.0233392 1.3545705 -0.088971123
1.0318298 1.348114 -0.088971123
1.0463992 1.349496 -0.089494482
1.0610265 1.3507478 -0.09001784
1.0819283 1.3596832 -0.091064565
1.0841831 1.3450834 -0.090541206
1.0989287 1.3459803 -0.091064565
1.1200924 1.3544403 -0.092111282
1.1349928 1.3550315 -0.092634641
1.1499447 1.3554884 -0.093157999
1.1649467 1.3558109 -0.093681358
1.1668869 1.3409312 -0.093157999
1.1818919 1.341065 -0.093681358
1.2035941 1.3485132 -0.094728082
1.2187396 1.3483326 -0.095251441
1.2474157 1.3627471 -0.096821517
1.2627423 1.3622063 -0.097344875
1.2781111 1.3615263 -0.097868234
1.3004014 1.3679445 -0.098914959
1.3158965 1.3669412 -0.099438317
1.338401 1.3729478 -0.10048503
1.3540165 1.3716182 -0.10100839
1.3767282 1.3772088 -0.10205511
1.3782499 1.3615134 -0.10153175
1.4082222 1.3737468 -0.10310183
1.4240179 1.3717999 -0.10362519
1.4398444 1.3697084 -0.10414855
1.4557005 1.3674721 -0.10467191
1.4789065 1.3718816 -0.10571863
1.4948609 1.3693076 -0.10624199
1.518247 1.3732862 -0.10728871
1.534204 1.3704724 -0.10781207
1.5576432 1.3741534 -0.10885879
1.5738362 1.3708301 -0.10938215
1.590109 1.3672872 -0.1099055
1.9354422 1.5611473 -0.13031653
1.9686493 1.567618 -0.1318866
1.9940594 1.5676912 -0.13293333
2.0037344 1.5553062 -0.13293333
2.0213602 1.5488034 -0.13345669
2.0310516 1.5360724 -0.13345669
2.040663 1.5232806 -0.13345669
2.0582337 1.5163521 -0.13398005
2.0678189 1.5032547 -0.13398005
2.0773532 1.4900514 -0.13398005
2.0947609 1.4828304 -0.13450341
2.0629761 1.4412272 -0.1318866
2.0144053 1.3886075 -0.12822309
2.1546721 1.2210414 -0.12979317
2.1971774 1.2269547 -0.1318866
2.1873443 1.2034973 -0.13083988
2.1860836 1.1849711 -0.13031653
2.1846764 1.1665086 -0.12979317
2.1831241 1.1481109 -0.12926981
2.1813533 1.1299214 -0.12874645
2.1794167 1.1118461 -0.12822309
2.1864076 1.0980352 -0.12822309
2.1933579 1.0840846 -0.12822309
2.1911693 1.0658659 -0.12769973
2.197823 1.0520773 -0.12769973
2.1952879 1.0341357 -0.12717637
2.1925929 1.0163146 -0.12665302
2.189827 0.9984231 -0.12612966
2.1960571 0.98464435 -0.12612966
2.2022004 0.97082675 -0.12612966
2.2540712 0.976825 -0.12874645
2.3061025 0.98220927 -0.13136324
2.3582888 0.98697716 -0.13398005
2.4013877 0.9873302 -0.13607349
2.4445829 0.9871797 -0.13816692
12.186529 4.0515566 -0.67304039
12.211745 3.9749069 -0.67304039
12.217449 3.8920379 -0.67199367
12.222594 3.8092542 -0.67094696
12.227182 3.7265599 -0.66990024
12.231215 3.6439583 -0.66885352
12.24428 3.5642447 -0.66833013
12.246994 3.4825826 -0.66728342
12.249091 3.4012918 -0.6662367
12.250871 3.3193066 -0.66518998
12.261829 3.2397161 -0.66466665
12.262601 3.1576285 -0.66361994
12.262827 3.0756595 -0.66257322
12.272208 2.9961812 -0.66204983
12.271359 2.9143989 -0.66100311
12.279698 2.8349919 -0.66047978
12.27778 2.7534103 -0.65943307
12.284904 2.6748936 -0.65890968
12.291471 2.5966616 -0.65838629
12.297706 2.517647 -0.65786296
12.293691 2.4364462 -0.65681624
12.298948 2.3572767 -0.65629286
12.08767 2.2381368 -0.64425564
11.727931 2.0954001 -0.62436795
11.740865 2.0216703 -0.62436795
11.77304 1.9511263 -0.62541467
11.785067 1.877116 -0.62541467
11.776885 1.8000139 -0.62436795
11.778081 1.7245356 -0.62384456
11.768797 1.6484982 -0.62279785
11.768887 1.5742254 -0.62227452
11.778513 1.5005043 -0.62227452
11.86702 1.4360662 -0.62646139
14.832359 1.7004226 -0.78242254
14.852678 1.6082702 -0.78294587
14.88246 1.515969 -0.78399259
14.891814 1.4211315 -0.78399259
14.910338 1.3290732 -0.78451598
14.908335 1.2358412 -0.78399259
14.915781 1.1424712 -0.78399259
14.922665 1.0487305 -0.78399259
14.918994 0.95431089 -0.78346926
14.924695 0.86055368 -0.78346926
14.929808 0.76676255 -0.78346926
14.93433 0.67294109 -0.78346926
14.938226 0.58006978 -0.78346926
14.951514 0.48782998 -0.78399259
14.954302 0.39322454 -0.78399259
14.966487 0.29815102 -0.78451598
