# .PCD v0.7 - Point Cloud Data file format
VERSION 0.7
FIELDS x y z
SIZE 4 4 4
TYPE F F F
COUNT 1 1 1
WIDTH 1501
HEIGHT 1
VIEWPOINT 0 0 0 1 0 0 0
POINTS 1501
DATA ascii
1.2027816 1.0152603 0.13770607
1.2014841 1.0013053 0.13683452
1.2000589 0.98740697 0.13596296
1.2062393 0.97984731 0.13596296
1.1968288 0.95978427 0.13421984
1.2106463 0.95842886 0.13509139
1.2244936 0.95693749 0.13596296
1.2462575 0.96139443 0.13770607
1.2601992 0.95958024 0.13857763
1.2821306 0.96361363 0.14032075
1.2961608 0.96147376 0.1411923
1.3182526 0.96508008 0.14293541
1.3323653 0.96261227 0.14380698
1.3546101 0.96578813 0.14555009
1.3688253 0.96295267 0.14642164
1.3913002 0.96557277 0.14816476
1.405617 0.96235597 0.14903632
1.4198911 0.95908129 0.14990787
1.4341791 0.95566517 0.15077943
1.4568045 0.9575789 0.15252255
1.4795101 0.95924556 0.15426566
1.4939007 0.95529753 0.15513723
1.5167259 0.95652026 0.15688033
1.5396249 0.95749342 0.15862344
1.5625952 0.95821637 0.16036656
1.5856349 0.95868784 0.16210967
1.6087414 0.95890731 0.1638528
1.6233237 0.95382708 0.16472435
1.6465257 0.95359397 0.16646747
1.6697884 0.95310652 0.16821058
1.7017916 0.95724803 0.17082526
1.7164857 0.95136577 0.17169681
1.7486594 0.95488536 0.17431149
1.7809439 0.95803756 0.17692615
1.8045335 0.95615709 0.17866927
1.828169 0.95401764 0.18041238
8.0279198 3.8097904 0.77742922
8.1239119 3.79299 0.78440166
8.2743235 3.8000782 0.7966035
8.4432974 3.8136251 0.81054837
8.5399275 3.7928476 0.81752086
9.1939363 3.8096635 0.87068588
9.3745499 3.8156662 0.88550234
9.5370941 3.8121519 0.89857566
9.7278824 3.8173976 0.91426373
9.9193401 3.8197873 0.92995179
10.111009 3.820442 0.94563979
10.302614 3.8200629 0.96132785
10.504065 3.8205712 0.97788739
10.715525 3.8214221 0.99531859
10.965018 3.8329144 1.0162359
11.196222 3.8349617 1.0354102
11.361765 3.8120704 1.0484836
11.366564 3.7343886 1.0467404
11.380419 3.659538 1.0458689
11.374992 3.5779974 1.0432543
11.378416 3.4999139 1.0415111
11.371563 3.4197457 1.0388964
11.37371 3.3426111 1.0371534
11.375337 3.2655847 1.0354102
11.366853 3.1859829 1.0327955
11.377038 3.1118722 1.031924
11.377115 3.0351913 1.0301808
11.376678 2.9586327 1.0284377
11.395043 2.8870928 1.0284377
11.383943 2.8082812 1.0258231
11.381989 2.7320483 1.0240799
11.379528 2.655951 1.0223368
11.386275 2.582196 1.0214653
11.382817 2.506319 1.0197222
11.388532 2.4329796 1.0188506
11.374123 2.3563092 1.0162359
11.378799 2.2835195 1.0153644
11.383143 2.2100811 1.0144929
11.387013 2.1366782 1.0136213
11.390411 2.063314 1.0127497
11.383578 1.9879682 1.0110066
11.396011 1.9154103 1.0110066
11.280085 1.8224292 0.99967635
10.818789 1.6782206 0.95784158
10.838975 1.6116766 0.95871317
10.858749 1.544945 0.95958471
10.858331 1.4756426 0.95871317
10.857386 1.4070578 0.95784158
10.83627 1.3358061 0.9552269
10.834556 1.2665371 0.95435536
10.83243 1.1970482 0.95348382
10.839836 1.1280173 0.95348382
10.846773 1.0592352 0.95348382
11.37901 1.0390755 0.99967635
13.916487 1.1826657 1.2219235
13.933575 1.0959841 1.222795
13.930222 1.0080771 1.2219235
13.94614 0.92240632 1.222795
13.872081 0.83045691 1.2158226
13.926828 0.74472767 1.2201804
13.941205 0.65722132 1.2210519
13.945009 0.57083172 1.2210519
13.948305 0.4836587 1.2210519
13.961061 0.39507478 1.2219235
13.953326 0.30629033 1.2210519
13.954975 0.21861337 1.2210519
13.886343 0.13027361 1.214951
13.936697 0.043175314 1.2193089
13.896846 -0.044265036 1.2158226
13.9461 -0.1320518 1.2201804
13.954956 -0.21983162 1.2210519
13.903502 -0.30641097 1.2166941
13.951103 -0.39479226 1.2210519
13.898609 -0.47950557 1.2166941
13.935155 -0.56799084 1.2201804
13.961106 -0.65815878 1.222795
13.956672 -0.74632275 1.222795
13.902058 -0.82981521 1.2184373
13.976148 -0.92155665 1.2254097
13.960146 -1.0086348 1.2245382
13.903875 -1.0924271 1.2201804
11.305988 -0.95982373 0.99270391
10.57552 -0.96477407 0.92908019
9.984272 -0.9741286 0.87765831
9.4428902 -0.98124182 0.83059424
8.9513445 -0.98705184 0.78788787
8.5293808 -0.99480432 0.75128251
8.1175776 -0.99851131 0.71554863
7.7851171 -1.0073112 0.68678725
7.4430079 -1.0106341 0.65715426
7.1504917 -1.0167103 0.63187915
6.8680573 -1.0206175 0.60747552
6.6154003 -1.0255958 0.58568656
6.3924656 -1.032205 0.56651235
6.2384882 -1.0476029 0.55343896
6.2219687 -1.0850682 0.55256742
6.2248311 -1.1259134 0.55343896
6.3062787 -1.555099 0.56825542
6.3156977 -1.5995833 0.56999856
11.28135 -3.1588318 1.0249515
11.184672 -3.2076814 1.017979
11.078271 -3.2526355 1.0101351
11.473766 -5.0898647 1.0981623
11.468801 -5.1741457 1.100777
2.4068615 -1.1781981 0.23444894
2.4083312 -1.1977335 0.23532051
2.3740828 -1.1993657 0.23270583
2.3399103 -1.2006155 0.23009115
2.2793458 -1.1876112 0.22486182
2.2631378 -1.1970531 0.22399026
2.2205372 -1.1922636 0.22050403
2.195508 -1.1966569 0.21876091
10.594053 -6.216116 1.0746303
10.460625 -6.2265086 1.0650432
10.31913 -6.2300415 1.0545845
10.186873 -6.2366405 1.0449973
1.7381608 -1.1095711 0.18041238
1.7562442 -1.1367091 0.18302706
1.6990942 -1.1149291 0.1777977
1.683761 -1.1200652 0.17692615
1.660171 -1.1194834 0.17518304
1.6448801 -1.1242709 0.17431149
1.6295947 -1.1289109 0.17343992
1.5980101 -1.1219548 0.17082526
1.5906777 -1.4638562 0.18912795
1.5887365 -1.4806136 0.18999952
1.5794022 -1.4905666 0.18999952
1.5772074 -1.5073436 0.19087107
1.5748639 -1.5241517 0.19174263
1.5723711 -1.5409895 0.19261418
1.5767995 -1.5648733 0.19435731
1.5739627 -1.5818113 0.19522886
1.5709749 -1.5987753 0.19610041
1.5678359 -1.6157638 0.19697197
1.5714374 -1.6399685 0.19871509
1.5679492 -1.6570457 0.19958664
1.5643539 -1.6741006 0.2004582
1.5742205 -1.705723 0.20307288
1.5635749 -1.7154868 0.20307288
1.5660938 -1.7400863 0.204816
1.5683169 -1.7648274 0.20655911
1.5701818 -1.7897595 0.20830221
1.5653689 -1.8071709 0.20917378
1.5606176 -1.8244051 0.21004534
1.5620904 -1.8493024 0.21178845
1.5568205 -1.8667313 0.21266001
1.5640575 -1.8995476 0.21527468
1.564659 -1.9247975 0.2170178
1.5587693 -1.94236 0.21788935
1.571279 -1.9833494 0.22137558
1.5587863 -1.9931829 0.22137558
1.5644946 -2.0265944 0.22399026
-1.2180014 -1.2611673 0.1533941
-1.2467974 -1.2748557 0.15600878
-1.2617929 -1.274075 0.15688033
-2.446255 -1.4213265 0.24752231
-2.4724269 -1.4158292 0.24926542
-2.4899879 -1.405095 0.25013697
-2.4988885 -1.389204 0.25013697
-2.5076501 -1.3733255 0.25013697
-2.507462 -1.3528123 0.24926542
-2.5159125 -1.3370308 0.24926542
-2.5154374 -1.316577 0.24839386
-2.8752036 -1.281777 0.27541214
-2.9105725 -1.2756834 0.27802682
-2.9642754 -1.2770786 0.2823846
-4.5926738 -1.2950518 0.417476
-4.6775589 -1.2873167 0.42444846
-5.999156 -1.2913134 0.53687936
-6.1924367 -1.2922587 0.55343896
-6.3859582 -1.290828 0.56999856
-6.63836 -1.2984855 0.59178746
-6.8910995 -1.3030241 0.61357641
-7.1343493 -1.3026429 0.63449377
-7.4465332 -1.3113527 0.66151208
-8.1899853 -1.3363949 0.72600734
-8.2966385 -1.3003325 0.73472291
-8.2947941 -1.2466993 0.73385131
-10.925332 -1.5719323 0.96568561
-10.905385 -1.4991884 0.96307093
-10.944222 -1.4345198 0.96568561
-11.006536 -1.1621752 0.96830028
-11.003708 -1.0920156 0.96742874
-11.020271 -1.0237746 0.96830028
-11.012786 -0.74323338 0.96568561
-11.007318 -0.67305481 0.96481407
-10.981436 -0.60320061 0.96219939
-11.014827 -0.53630817 0.96481407
-11.008026 -0.46666485 0.96394253
-11.010741 -0.39749345 0.96394253
-11.022979 -0.32859731 0.96481407
-11.024826 -0.25933468 0.96481407
-11.026237 -0.19005595 0.96481407
-11.027217 -0.12047016 0.96481407
-11.027761 -0.050221715 0.96481407
-10.997972 0.019669877 0.96219939
-8.141161 0.78332186 0.71554863
-8.3838797 0.85936159 0.73733759
-7.8435278 0.85380977 0.69027346
-7.8379836 0.90328997 0.69027346
-7.8518486 0.95560855 0.6920166
-7.8555374 1.0064471 0.69288814
-7.8392777 1.053774 0.6920166
-7.7634854 1.0930301 0.68591571
-7.7957873 1.1482698 0.68940192
-7.7686872 1.1944566 0.68765879
-7.7709737 1.2441438 0.68853039
-7.8416948 1.3055646 0.69550282
-7.8333364 1.3548115 0.69550282
-7.863852 1.4112562 0.69898903
-7.8644962 1.4631442 0.69986057
-7.8648396 1.5148841 0.70073217
-6.1002989 1.2947122 0.54559493
-6.062849 1.3266259 0.54298025
-5.2596617 1.2203329 0.47238412
-5.2712698 1.2579824 0.47412723
-5.1955361 1.2744632 0.46802634
-1.135612 1.2157716 0.14555009
-1.1347046 1.2302058 0.14642164
-1.1202449 1.2299458 0.14555009
-1.1124945 1.2369604 0.14555009
-1.091471 1.2290283 0.14380698
-1.0837269 1.2358623 0.14380698
-1.0694199 1.2351156 0.14293541
-1.0551646 1.2342389 0.14206386
-1.0473891 1.240844 0.14206386
-1.0331939 1.2397479 0.1411923
-1.0190206 1.2385504 0.14032075
-1.0111101 1.2450167 0.14032075
1.0133258 1.4245713 -0.276889
1.0280321 1.4261886 -0.27845335
1.0369726 1.4197012 -0.27845335
1.051748 1.4210968 -0.28001767
1.0666283 1.4223275 -0.28158203
1.0696915 1.4076399 -0.28001767
1.0785913 1.4008322 -0.28001767
1.0873717 1.3940276 -0.28001767
1.0961092 1.3871679 -0.28001767
1.2025286 1.2415636 -0.27376032
1.2033898 1.226932 -0.27219597
1.2041148 1.212339 -0.27063161
1.1906961 1.1838579 -0.26593858
1.1910633 1.1694335 -0.26437426
1.1983875 1.1619267 -0.26437426
1.1985303 1.1475435 -0.2628099
1.2057168 1.1399903 -0.2628099
1.1984169 1.1189114 -0.2596812
1.2054236 1.1113594 -0.2596812
1.1977755 1.0904653 -0.25655252
1.2046034 1.082918 -0.25655252
1.2040323 1.0687315 -0.25498816
1.1959594 1.0480208 -0.25185949
1.2025776 1.0404202 -0.25185949
1.2090909 1.0328436 -0.25185949
1.2080065 1.0188586 -0.25029513
1.2067944 1.004928 -0.24873079
1.2054552 0.99105334 -0.24716645
1.2039895 0.97723526 -0.2456021
1.2101059 0.9696511 -0.2456021
1.2316672 0.97428387 -0.24873079
1.2455491 0.97260463 -0.25029513
1.2672809 0.97681898 -0.25342384
1.2812539 0.97481763 -0.25498816
1.2952515 0.97267902 -0.25655252
1.3013374 0.96452159 -0.25655252
1.3233155 0.96798855 -0.2596812
1.3453878 0.97121704 -0.2628099
1.359508 0.96847522 -0.26437426
1.3817586 0.97122884 -0.26750293
1.3960341 0.96803486 -0.26906729
1.4102932 0.96474433 -0.27063161
1.4408876 0.97243989 -0.27532464
1.4551905 0.96884108 -0.276889
1.4777604 0.97052258 -0.28001767
1.4921188 0.96658838 -0.28158203
1.5064857 0.96251178 -0.28314638
1.5375726 0.96882343 -0.28783941
1.5604081 0.96956903 -0.29096809
1.583313 0.97006553 -0.2940968
1.6062851 0.970312 -0.29722548
1.620836 0.96525401 -0.29878983
1.6353865 0.96005124 -0.30035415
1.6670331 0.96459687 -0.30504721
1.6902205 0.96388924 -0.30817589
1.713464 0.962928 -0.31130457
1.7454023 0.96649694 -0.3159976
1.777452 0.96970201 -0.32069066
1.8009098 0.96786618 -0.32381934
1.8244139 0.9657737 -0.32694802
6.2107296 -1.0053623 -0.9964875
6.2042899 -1.0443654 -0.9964875
6.2170644 -1.0867286 -0.99961621
1.653746 -1.1160957 -0.3159976
1.6385489 -1.1208879 -0.31443328
1.6233569 -1.1255333 -0.31286892
1.6000905 -1.1243538 -0.30974025
1.5710032 -1.4287506 -0.33633408
1.5837904 -1.4586667 -0.34102714
1.3115484 -1.286382 -0.29096809
1.2824167 -1.2737167 -0.28627506
1.2604606 -1.267741 -0.28314638
1.2386309 -1.2615402 -0.28001767
1.2375553 -1.2763889 -0.28158203
1.2226804 -1.2770053 -0.28001767
1.2078471 -1.2774855 -0.27845335
1.1930981 -1.2777909 -0.276889
1.1784624 -1.2778978 -0.27532464
1.1571791 -1.2706084 -0.27219597
1.1425685 -1.2705101 -0.27063161
1.1279633 -1.2703155 -0.26906729
1.1198479 -1.2774755 -0.26906729
1.0988436 -1.2695745 -0.26593858
1.0845391 -1.2688504 -0.26437426
1.0702444 -1.2680331 -0.2628099
1.055933 -1.2671449 -0.26124555
1.0479505 -1.2737545 -0.26124555
1.0336995 -1.2726471 -0.2596812
1.0195041 -1.2714114 -0.25811687
1.0114955 -1.2777921 -0.25811687
-1.0073425 -1.29361 -0.2596812
-1.0153803 -1.2873106 -0.2596812
-1.029614 -1.2886217 -0.26124555
-1.0376903 -1.282127 -0.26124555
-1.0582492 -1.2908581 -0.26437426
-1.072691 -1.2917471 -0.26593858
-1.0808983 -1.2848873 -0.26593858
-1.1018316 -1.2930468 -0.26906729
-1.1099342 -1.2860982 -0.26906729
-1.124493 -1.2865356 -0.27063161
-1.1391009 -1.2868406 -0.27219597
-1.1537145 -1.2870501 -0.27376032
-1.1683048 -1.2871908 -0.27532464
-1.182983 -1.2871611 -0.276889
-1.1977762 -1.2869328 -0.27845335
-1.2193873 -1.2937566 -0.28158203
-1.2274921 -1.2860695 -0.28158203
-1.2492768 -1.2925353 -0.28471074
-1.2642819 -1.291719 -0.28627506
-1.2584673 -1.2697197 -0.28314638
-1.24543 -1.2408739 -0.27845335
-1.2672828 -1.2468784 -0.28158203
-2.4686296 -1.4330308 -0.4520956
-2.4861579 -1.4223965 -0.45365995
-2.4864881 -1.4018153 -0.4520956
-2.4867334 -1.381151 -0.45053124
-2.4954367 -1.3653636 -0.45053124
-2.4952719 -1.3449711 -0.44896692
-2.5123968 -1.3338979 -0.45053124
-2.5119758 -1.3135092 -0.44896692
-1.1398457 1.2058535 -0.2628099
-1.1389196 1.2202739 -0.26437426
-1.137924 1.2346683 -0.26593858
-1.1234957 1.2344893 -0.26437426
-1.1157173 1.2415237 -0.26437426
-1.0947831 1.2337345 -0.26124555
-1.0870101 1.2405885 -0.26124555
-1.0727313 1.2399247 -0.2596812
-1.0649198 1.2466401 -0.2596812
-1.0506977 1.2457567 -0.25811687
-1.04285 1.2523336 -0.25811687
-1.0223751 1.2436359 -0.25498816
-1.0144315 1.250124 -0.25498816
-1.0003545 1.2487862 -0.25342384
1.0041541 1.4294295 0.21449004
1.0188719 1.4311777 0.21570873
1.0278441 1.4247478 0.21570873
1.0484906 1.4342872 0.21814612
1.0574818 1.4276711 0.21814612
1.0664854 1.4209578 0.21814612
1.0755159 1.414135 0.21814612
1.0844489 1.4072963 0.21814612
1.2028397 1.2254083 0.21083397
1.196521 1.2037476 0.20839657
1.2040608 1.1962059 0.20839657
1.1973827 1.174715 0.20595919
1.1976113 1.1602622 0.20474049
1.197706 1.1458532 0.2035218
1.197667 1.1314889 0.20230311
1.1974951 1.1171707 0.20108442
1.1971909 1.1028997 0.19986571
1.1967548 1.0886768 0.19864702
1.2035716 1.0811359 0.19864702
1.2029561 1.0669203 0.19742833
1.202261 1.0526967 0.19620964
1.201394 1.0385716 0.19499095
1.2003465 1.0245588 0.19377226
1.2067602 1.0169966 0.19377226
1.2054965 1.0030459 0.19255356
1.2041056 0.98915148 0.19133486
1.202588 0.97531438 0.19011617
1.2086922 0.96773911 0.19011617
1.2147489 0.96012557 0.19011617
1.2364082 0.96468538 0.19255356
1.242445 0.95689785 0.19255356
1.2642357 0.96108609 0.19499095
1.2781885 0.95908076 0.19620964
1.300142 0.96284485 0.19864702
1.3141793 0.96051359 0.19986571
1.3282384 0.95804381 0.20108442
1.3423178 0.9554351 0.20230311
1.3645756 0.95833957 0.20474049
1.3869703 0.96093225 0.20717788
1.4012216 0.95773107 0.20839657
1.4236701 0.96000654 0.21083397
1.4379379 0.95653981 0.21205266
1.4522179 0.95293146 0.21327135
1.4748416 0.95457429 0.21570873
1.4975425 0.95596999 0.21814612
1.5203186 0.95711774 0.22058351
1.5431675 0.95801669 0.2230209
1.566087 0.95866573 0.22545828
1.5805773 0.95393556 0.22667697
1.6121291 0.95921129 0.23033306
1.6266857 0.95408458 0.23155175
1.6584269 0.95874786 0.23520783
1.6730421 0.95322239 0.23642652
1.6963075 0.9524101 0.23886392
1.7196281 0.95134264 0.2413013
1.7430016 0.95001936 0.24373868
1.7751703 0.95313478 0.24739476
1.7986721 0.95124274 0.24983215
1.8398253 0.95826268 0.25470692
7.8791509 3.7924027 1.073669
8.0194368 3.7980509 1.0895119
8.142108 3.7936997 1.1029176
8.2740583 3.7920907 1.1175419
8.4334536 3.8012068 1.1358223
8.5932837 3.8084674 1.1541027
8.7444334 3.8099024 1.1711644
8.9050589 3.8134949 1.1894448
9.0660706 3.8152156 1.2077252
9.2091045 3.8074768 1.2235682
9.379982 3.809293 1.2430673
9.5512409 3.8091099 1.2625663
9.7414923 3.8137879 1.2845029
9.9138346 3.8086047 1.3040019
10.095497 3.805649 1.3247198
10.305062 3.8118937 1.3490936
10.505901 3.8118992 1.3722488
10.716672 3.8123469 1.3966227
10.965344 3.8233652 1.4258713
11.195784 3.8249896 1.4526825
11.351369 3.7986665 1.4697442
11.356149 3.7210879 1.4673069
11.35109 3.6401346 1.4636508
11.355108 3.5618086 1.4612134
11.358457 3.4840121 1.458776
11.361109 3.4068747 1.4563386
11.353715 3.3270502 1.4526825
11.355311 3.250185 1.4502451
11.365949 3.1761024 1.4490265
11.356953 3.0967939 1.4453704
11.357002 3.0202734 1.442933
11.356539 2.9438748 1.4404956
11.374811 2.8724618 1.4404956
11.373358 2.796196 1.4380583
11.361743 2.7177532 1.4344021
11.368928 2.6440637 1.4331834
11.375635 2.5703912 1.4319648
11.37217 2.4946122 1.4295274
11.368112 2.4194129 1.4270899
11.373163 2.3469243 1.4258713
11.368107 2.2720876 1.4234339
11.382158 2.2006152 1.4234339
11.376247 2.1254103 1.4209965
11.369842 2.0503666 1.4185591
11.372796 1.9767544 1.4173404
11.375368 1.9026281 1.4161217
11.171597 1.7959001 1.3893105
10.819714 1.6696631 1.3442189
10.820172 1.6001961 1.3430002
10.83984 1.5335701 1.3442189
10.829534 1.4631881 1.3417815
10.828547 1.3947929 1.3405627
10.827181 1.3260539 1.339344
10.825439 1.2568542 1.3381253
10.823301 1.1873165 1.3369067
10.830646 1.1183439 1.3369067
10.827631 1.0487819 1.335688
11.3678 1.0290501 1.4014975
13.915892 1.1716079 1.7147017
13.913082 1.0833784 1.713483
13.919577 0.99647099 1.713483
13.935389 0.9108544 1.7147017
13.930919 0.82284522 1.713483
13.935878 0.73408341 1.713483
13.940223 0.64635545 1.713483
13.943959 0.55997026 1.713483
13.937278 0.47216526 1.7122643
13.940002 0.38337004 1.7122643
13.942151 0.29509023 1.7122643
13.933805 0.20733604 1.7110455
13.944758 0.11986901 1.7122643
13.945236 0.03224957 1.7122643
13.945164 -0.055371139 1.7122643
13.954465 -0.14309144 1.713483
13.953291 -0.23076667 1.713483
13.961489 -0.31865928 1.7147017
13.959226 -0.40584171 1.7147017
13.956444 -0.49232441 1.7147017
13.962998 -0.58026308 1.7159203
13.959018 -0.66920078 1.7159203
13.95453 -0.75704664 1.7159203
13.959478 -0.84409255 1.717139
13.963848 -0.93176252 1.7183577
13.957719 -1.0194793 1.7183577
13.970826 -1.1087281 1.7207952
11.273715 -0.96600229 1.3893105
10.575563 -0.97315347 1.3040019
9.9469395 -0.97837311 1.2272242
9.3976641 -0.98400307 1.1601962
8.9177847 -0.99044085 1.1016989
8.5072193 -0.99899226 1.0517324
8.0673628 -0.99876696 0.99810988
7.7558136 -1.0097135 0.96033043
7.424789 -1.0140996 0.9201135
7.1235051 -1.0185825 0.88355273
6.8421025 -1.0222534 0.84942931
6.6001744 -1.0285441 0.82018065
6.3584466 -1.0318364 0.790932
6.214818 -1.0486473 0.77387029
6.2178831 -1.0893881 0.77508903
6.2206812 -1.1302088 0.7763077
6.3004661 -1.4334542 0.79336941
6.3009992 -1.4752753 0.79458809
6.2916055 -1.5148363 0.79458809
6.2915983 -1.5567216 0.79580683
6.281693 -1.5962219 0.79580683
3.1756854 -1.1119535 0.41313708
3.1592891 -1.128546 0.41191837
3.1801133 -1.1585667 0.41557446
2.3971238 -1.1757659 0.32782853
2.3541546 -1.173097 0.32295376
2.3378818 -1.1833829 0.32173505
2.3039184 -1.1844347 0.31807899
2.2964768 -1.1987994 0.31807899
2.2451544 -1.1897676 0.31198552
2.2202117 -1.1943365 0.30954814
2.1952412 -1.1987487 0.30711073
2.1529412 -1.1932718 0.30223596
2.1280997 -1.1970434 0.29979858
1.74765 -1.1175615 0.25470692
1.748922 -1.1339198 0.25592563
1.7168806 -1.1285306 0.25226954
1.6849769 -1.122784 0.24861346
1.6614392 -1.1222376 0.24617606
1.6461654 -1.1270473 0.24495737
1.6227424 -1.1260511 0.24251999
1.5993978 -1.1248055 0.24008261
1.5764078 -1.4530122 0.26323777
1.5745029 -1.4696609 0.26445648
1.5652378 -1.4795247 0.26445648
1.5630809 -1.4961934 0.26567516
1.560776 -1.5128932 0.26689386
1.5654061 -1.5365756 0.26933125
1.5627601 -1.5533781 0.27054992
1.5599644 -1.5702078 0.27176863
1.5570188 -1.5870634 0.27298734
1.5608289 -1.6110724 0.27542472
1.5643983 -1.6351913 0.2778621
1.5609095 -1.6522032 0.27908078
1.5573324 -1.6691759 0.28029948
1.5604124 -1.693391 0.28273687
1.5565056 -1.7104268 0.28395557
1.552362 -1.7275555 0.28517425
1.5677595 -1.7670319 0.29004905
1.5630106 -1.7844497 0.29126772
1.5647335 -1.8092668 0.29370511
1.5534936 -1.8189268 0.29370511
1.5549217 -1.8437511 0.29614249
1.5496575 -1.861112 0.2973612
1.5568422 -1.8938138 0.30101728
1.5511671 -1.911265 0.30223596
1.55154 -1.9364653 0.30467334
1.5516571 -1.961745 0.30711073
1.5576254 -1.9949253 0.31076682
1.5511193 -2.0125341 0.31198552
1.5564723 -2.0459385 0.31564158
1.5555062 -2.0715516 0.31807899
1.5542792 -2.0972328 0.32051638
1.5527905 -2.1229796 0.32295376
1.54523 -2.1407421 0.32417244
-1.2352291 -1.276997 0.21814612
-1.2501737 -1.2763013 0.21936481
-1.2581682 -1.2684209 0.21936481
-2.4641705 -1.5997922 0.36073324
-2.4658148 -1.5789256 0.35951456
-2.464165 -1.4291452 0.349765
-2.4730959 -1.4136342 0.349765
-2.4906304 -1.402844 0.35098371
-2.4908378 -1.3821331 0.349765
-2.4995396 -1.366333 0.349765
-2.4993362 -1.3458952 0.34854633
-2.5077434 -1.3301649 0.34854633
-2.5072541 -1.3097863 0.34732762
-3.0080543 -1.2708066 0.40095013
-2.9701438 -1.2328558 0.39485666
-2.9778316 -1.2141696 0.39485666
-2.9946158 -1.1991251 0.39607537
-5.6519184 -1.2864201 0.71171695
-5.7858801 -1.2787294 0.72755998
-6.9156494 -1.3020395 0.86405361
-7.1482983 -1.2993914 0.89208359
-7.4105082 -1.2990069 0.92376959
-7.8100023 -1.3185128 0.97251737
-8.2868814 -1.2921381 1.0297959
-8.2850199 -1.2385752 1.0285772
-11.446592 -1.6377593 1.4197779
-11.17147 -1.5268261 1.3844358
-10.905258 -1.4207046 1.3503124
-10.92382 -1.3533746 1.351531
-10.902534 -1.2812394 1.3478749
-10.89064 -1.210516 1.3454375
-10.898031 -1.1420674 1.3454375
-10.895114 -1.0725955 1.3442189
-10.901638 -1.0041215 1.3442189
-10.897843 -0.93475389 1.3430002
-10.903501 -0.86626554 1.3430002
-10.918658 -0.7980423 1.3442189
-10.913617 -0.72781122 1.3430002
-10.908074 -0.65850759 1.3417815
-10.902035 -0.59037107 1.3405627
-10.905503 -0.52239752 1.3405627
-10.898653 -0.45345655 1.339344
-10.911206 -0.38531706 1.3405627
-10.90349 -0.31646761 1.339344
-10.905264 -0.24795015 1.339344
-10.906607 -0.1794287 1.339344
-10.907523 -0.11048187 1.339344
-10.908005 -0.040996112 1.339344
-10.937822 0.02815545 1.3430002
-10.937429 0.09687601 1.3430002
-10.936604 0.16559857 1.3430002
-10.925426 0.23409614 1.3417815
-10.923751 0.30232164 1.3417815
-10.921667 0.37000018 1.3417815
-10.919148 0.43808326 1.3417815
-10.916181 0.5066784 1.3417815
-10.922671 0.57619488 1.3430002
-10.928687 0.64634919 1.3442189
-10.924376 0.7155413 1.3442189
-10.929564 0.78487474 1.3454375
-10.924417 0.85353434 1.3454375
-10.928728 0.92298967 1.3466562
-8.5207348 0.77324313 1.0505137
-8.1008577 0.78577626 0.99932861
-7.8193598 0.80770558 0.96520519
-7.8042645 0.85573596 0.96398652
-7.8184175 0.90734404 0.96642387
-7.8321824 0.95954472 0.96886128
-7.8456759 1.0113599 0.97129864
-7.8195868 1.0572931 0.96886128
-7.7636642 1.0993606 0.96276778
-7.7761402 1.151703 0.96520519
-7.7589283 1.1991079 0.96398652
-7.7709484 1.250313 0.96642387
-7.8413186 1.311834 0.9761734
-7.823143 1.359375 0.97495472
-7.8339286 1.412326 0.97739214
-7.8345294 1.4640244 0.97861081
-7.8445911 1.5173765 0.98104823
-10.93073 2.3288805 1.3722488
-10.944963 2.4039047 1.3759049
-10.949006 2.4770033 1.3783423
-10.97493 2.6282632 1.3856544
-10.977475 2.7019157 1.3880918
-10.969905 2.7732654 1.3893105
-10.961762 2.8450468 1.3905292
-10.962599 2.9199274 1.3929666
-10.934449 3.0606642 1.3941853
-10.943625 3.1375158 1.3978413
-10.961791 3.2173927 1.4027162
-1.1654155 1.2338871 0.20839657
-1.1372703 1.2194661 0.20474049
-1.1295861 1.2265874 0.20474049
-1.1151789 1.2263176 0.2035218
-1.1008207 1.225915 0.20230311
-1.093096 1.2328076 0.20230311
-1.0787907 1.2321833 0.20108442
-1.071027 1.2389375 0.20108442
-1.0567781 1.2380928 0.19986571
-1.0425816 1.2371188 0.19864702
-1.0284399 1.2360152 0.19742833
-1.0143055 1.2348223 0.19620964
-1.0001677 1.233549 0.19499095
1.0013741 1.4434749 -0.21570873
1.0161325 1.4452741 -0.21692742
1.0251933 1.438861 -0.21692742
1.0400238 1.4404384 -0.21814612
1.0490538 1.4338753 -0.21814612
1.0639532 1.4352292 -0.21936481
1.0730122 1.4284691 -0.21936481
1.0820904 1.4216045 -0.21936481
1.1956007 1.2324723 -0.21083397
1.1963652 1.2178553 -0.20961526
1.2039936 1.2103144 -0.20961526
1.1974864 1.1887404 -0.20717788
1.1978439 1.1742448 -0.20595919
1.1980668 1.1597918 -0.20474049
1.1981558 1.1453828 -0.2035218
1.1981112 1.1310185 -0.20230311
1.1979338 1.1167004 -0.20108442
1.1976238 1.1024295 -0.19986571
1.1971823 1.0882068 -0.19864702
1.1966095 1.0740334 -0.19742833
1.2033807 1.0664412 -0.19742833
1.20268 1.052218 -0.19620964
1.2018018 1.0380998 -0.19499095
1.2007487 1.0240873 -0.19377226
1.1995673 1.0101295 -0.19255356
1.2058903 1.0025725 -0.19255356
1.2044939 0.98867857 -0.19133486
1.2029709 0.97484207 -0.19011617
1.2090721 0.96726435 -0.19011617
1.2229151 0.96580011 -0.19133486
1.2446147 0.97030234 -0.19377226
1.2585526 0.96851635 -0.19499095
1.2725168 0.96659327 -0.19620964
1.2944478 0.97048658 -0.19864702
1.3084986 0.96823812 -0.19986571
1.3305876 0.97170478 -0.20230311
1.3366667 0.96332532 -0.20230311
1.3669585 0.97216529 -0.20595919
1.3812065 0.96919852 -0.20717788
1.3955137 0.96602917 -0.20839657
1.4179906 0.96837586 -0.21083397
1.4405099 0.97053927 -0.21327135
1.4631119 0.97245741 -0.21570873
1.4774936 0.9686873 -0.21692742
1.4918854 0.96477467 -0.21814612
1.5146543 0.96605653 -0.22058351
1.5374975 0.96708995 -0.2230209
1.5604129 0.96787411 -0.22545828
1.5833981 0.96840799 -0.22789566
1.5979512 0.96356553 -0.22911437
1.6210375 0.96364999 -0.23155175
1.6441872 0.96348202 -0.23398913
1.6673981 0.9630608 -0.23642652
1.6992937 0.96729577 -0.24008261
1.7139944 0.96145558 -0.2413013
1.7460622 0.96507132 -0.24495737
1.7695252 0.96357489 -0.24739476
1.7930375 0.96182126 -0.24983215
1.8341488 0.96908343 -0.25470692
7.840425 -0.97379744 -0.97007996
7.5192108 -0.98191351 -0.93108177
7.2080503 -0.98738027 -0.89330226
6.93643 -0.99461246 -0.86039758
6.6650138 -0.99847102 -0.82749283
6.4330597 -1.0050893 -0.79946285
6.1914973 -1.0072397 -0.77021426
6.2046194 -1.0494324 -0.77265161
6.2370067 -1.0952631 -0.77752638
6.2639632 -1.2221299 -0.78361988
6.2756205 -1.2653869 -0.78605723
6.2675457 -1.3047926 -0.78605723
6.2689281 -1.3462309 -0.78727597
6.2700367 -1.3877378 -0.78849465
5.6445413 -1.3613873 -0.71293563
5.4335628 -1.3466835 -0.68734306
5.3191872 -1.3538663 -0.67393744
5.3202395 -1.3895371 -0.67515618
5.3594661 -1.4353125 -0.68124962
5.3025494 -1.4555879 -0.67515618
5.3219628 -1.4969383 -0.67881221
3.5422144 -1.6570332 -0.48016521
3.5227692 -1.6749947 -0.47894651
6.7338495 -3.4651871 -0.9298631
6.5977368 -3.4473808 -0.91402006
6.4008837 -3.3951755 -0.88964617
6.3883142 -3.4397531 -0.89086491
6.3927045 -3.4941041 -0.89452094
6.414021 -3.5582764 -0.90061444
6.737493 -3.7932835 -0.94936216
1.7472111 -1.1182476 -0.25470692
1.7068461 -1.107592 -0.24983215
1.6915613 -1.1128395 -0.24861346
1.6762784 -1.1179385 -0.24739476
1.6609983 -1.1228899 -0.24617606
1.637535 -1.1220832 -0.24373868
1.6141479 -1.1210264 -0.2413013
1.5776019 -1.4370172 -0.2620191
1.5758369 -1.4536313 -0.26323777
1.3028222 -1.2798324 -0.22423959
1.2666079 -1.2599934 -0.21936481
1.2446814 -1.2538384 -0.21692742
1.2506747 -1.2758102 -0.21936481
1.2426343 -1.2836429 -0.21936481
1.220827 -1.2770764 -0.21692742
1.2059658 -1.277504 -0.21570873
1.1844345 -1.2704842 -0.21327135
1.1630943 -1.2631946 -0.21083397
1.1485122 -1.2630839 -0.20961526
1.1405538 -1.270275 -0.20961526
1.1193253 -1.2626116 -0.20717788
1.1047226 -1.2622474 -0.20595919
1.0902798 -1.2616541 -0.20474049
1.0824423 -1.2683848 -0.20474049
1.0745068 -1.2751143 -0.20474049
1.0537781 -1.2665801 -0.20230311
1.0394988 -1.2655067 -0.20108442
1.0315273 -1.2720128 -0.20108442
1.0173112 -1.270721 -0.19986571
1.0093073 -1.2770875 -0.19986571
-1.0071992 -1.2913617 -0.20108442
-1.02139 -1.2928402 -0.20230311
-1.0294932 -1.286397 -0.20230311
-1.0438056 -1.2876136 -0.2035218
-1.0581743 -1.2887003 -0.20474049
-1.0726532 -1.2896109 -0.20595919
-1.0808468 -1.2827513 -0.20595919
-1.1018279 -1.2909865 -0.20839657
-1.1099172 -1.2840384 -0.20839657
-1.131039 -1.2919751 -0.21083397
-1.139134 -1.2848434 -0.21083397
-1.1537598 -1.2850962 -0.21205266
-1.168376 -1.2852677 -0.21327135
-1.1763729 -1.2779523 -0.21327135
-1.1979147 -1.2850565 -0.21570873
-1.2127789 -1.2847216 -0.21692742
-1.2276853 -1.2842511 -0.21814612
-2.473314 -1.4331533 -0.35098371
-2.4822695 -1.4175855 -0.35098371
-2.4825387 -1.3969847 -0.349765
-2.5000687 -1.3859537 -0.35098371
-2.5000758 -1.3653517 -0.349765
-2.4998648 -1.3449132 -0.34854633
-2.5170355 -1.3338279 -0.349765
-2.5077684 -1.3088013 -0.34732762
-2.5158858 -1.2931287 -0.34732762
-2.9994082 -1.2657666 -0.39973143
-2.9614594 -1.2278875 -0.39363798
-2.9691155 -1.2092568 -0.39363798
-4.6442633 -1.3036941 -0.59228498
-4.7002263 -1.2876011 -0.59837848
-5.4316173 -1.2699752 -0.68490571
-5.6621017 -1.2864003 -0.71293563
-5.7960749 -1.2785931 -0.72877866
-6.1809883 -1.282272 -0.77508903
-6.3932738 -1.2844683 -0.80068159
-7.9424934 0.77351964 -0.97982949
-7.8236594 0.86097509 -0.96642387
-7.8377733 0.91275096 -0.96886128
-7.8219481 0.96145415 -0.96764255
-7.8452835 1.014398 -0.97129864
-7.7306581 1.0483173 -0.95789301
-7.7435727 1.0996585 -0.96033043
-7.7462277 1.1504267 -0.9615491
-7.5721035 1.1732372 -0.9408313
-7.7998605 1.2580636 -0.97007996
-7.8212256 1.3116288 -0.97373605
-7.8421645 1.3658562 -0.97739214
-7.8333664 1.4154428 -0.97739214
-7.8339458 1.4671457 -0.97861081
-1.1435581 1.2271738 -0.20595919
-1.1358247 1.2343351 -0.20595919
-1.1280471 1.241447 -0.20595919
-1.1069672 1.2337352 -0.2035218
-1.105776 1.2480949 -0.20474049
-1.0913767 1.247548 -0.2035218
-1.0770288 1.2468691 -0.20230311
-1.0627321 1.24606 -0.20108442
-1.0484891 1.2451203 -0.19986571
-1.0406448 1.2516837 -0.19986571
-1.0264081 1.2505702 -0.19864702
-1.0121721 1.2493716 -0.19742833
1.011724 1.4378033 0.27845335
1.0207379 1.4314181 0.27845335
1.0354964 1.432982 0.28001767
1.0503147 1.4344164 0.28158203
1.0593066 1.4277889 0.28158203
1.0742615 1.4289472 0.28314638
1.0833428 1.4220747 0.28314638
1.0862757 1.4073794 0.28158203
1.1668638 1.2482337 0.27063161
1.1883117 1.2551775 0.27376032
1.1893394 1.2405567 0.27219597
1.1971105 1.2330595 0.27219597
1.1909857 1.2114272 0.26906729
1.1985737 1.2039201 0.26906729
1.1920899 1.1824543 0.26593858
1.19244 1.1680295 0.26437426
1.1926563 1.1536472 0.2628099
1.1998813 1.1461308 0.2628099
1.1926892 1.1250148 0.2596812
1.192507 1.1107668 0.25811687
1.192193 1.0965658 0.25655252
1.191748 1.0824128 0.25498816
1.1911726 1.0683091 0.25342384
1.190519 1.0541971 0.25185949
1.1972104 1.0465915 0.25185949
1.1963253 1.0325493 0.25029513
1.195272 1.0186058 0.24873079
1.2016485 1.0110757 0.24873079
1.1927826 0.99088299 0.2456021
1.198985 0.98336899 0.2456021
1.1897879 0.9633854 0.24247342
1.1958175 0.95589072 0.24247342
1.217307 0.96059525 0.2456021
1.2311105 0.95899737 0.24716645
1.2527713 0.96328431 0.25029513
1.2666664 0.96136516 0.25185949
1.2805867 0.95930916 0.25342384
1.2945307 0.95711601 0.25498816
1.3084975 0.95478523 0.25655252
1.330501 0.9580881 0.2596812
1.3445456 0.95543069 0.26124555
1.3667432 0.95823759 0.26437426
1.3809431 0.9551298 0.26593858
1.4032702 0.95751524 0.26906729
1.4174521 0.95419502 0.27063161
1.4398751 0.9561981 0.27376032
1.4541167 0.95254445 0.27532464
1.4683689 0.94874942 0.276889
1.4992892 0.95542848 0.28158203
1.5136253 0.95124483 0.28314638
1.5447584 0.95732439 0.28783941
1.5675988 0.95789951 0.29096809
1.5820466 0.9531281 0.29253244
1.6049881 0.95325643 0.29566112
1.6365165 0.95812392 0.30035415
1.6510589 0.95275909 0.30191851
1.6741836 0.95213199 0.30504721
1.6973652 0.95125139 0.30817589
1.720601 0.95011675 0.31130457
1.7438889 0.94872725 0.31443328
1.7672266 0.94708228 0.31756195
1.7906117 0.94518107 0.32069066
1.831569 0.95213455 0.32694802
7.8880644 3.7890656 1.3860093
8.0278025 3.7942965 1.4063458
8.1500006 3.7895899 1.4235536
8.2993984 3.7958198 1.4454545
8.4581995 3.8043711 1.4689196
8.6174297 3.8110745 1.4923848
8.7589579 3.8080485 1.5127213
8.9189472 3.8111558 1.5361865
9.0793171 3.8123996 1.5596516
9.2217875 3.8042431 1.5799881
9.3919716 3.8055723 1.6050175
9.5808849 3.8122137 1.6331757
9.7520342 3.8089621 1.6582053
9.9421101 3.810385 1.6863635
10.122974 3.8070557 1.7129574
10.322424 3.8092303 1.74268
10.541043 3.8152843 1.7755312
10.76028 3.8183422 1.8083824
11.007949 3.8285267 1.8459266
11.228115 3.8261907 1.8787779
11.373728 3.7962186 1.8991144
11.378579 3.7185445 1.8959857
11.373675 3.6373918 1.8912927
11.38719 3.5619147 1.8897283
11.381144 3.481194 1.8850353
11.374403 3.4011273 1.8803422
11.386068 3.326823 1.8787779
11.387751 3.2497959 1.8756492
11.388916 3.1728795 1.8725206
11.389565 3.0960784 1.8693918
11.389698 3.019393 1.8662632
11.379756 2.9403574 1.8615701
11.388429 2.8663878 1.8600057
11.387027 2.7900751 1.8568771
11.385118 2.7138932 1.8537483
11.392323 2.6400752 1.8521841
11.389415 2.5641048 1.8490553
11.395651 2.4903841 1.847491
11.39163 2.4151978 1.8443623
11.387027 2.3405924 1.8412336
11.391735 2.2675073 1.8396692
11.38636 2.192152 1.8365406
11.380488 2.1169541 1.8334119
11.383843 2.0436616 1.8318475
11.386824 1.9698513 1.8302832
11.389399 1.8956515 1.8287189
11.215848 1.7939788 1.7989963
10.826635 1.662027 1.7348582
10.827093 1.5925314 1.7332939
10.856446 1.5272235 1.7364225
10.855968 1.4581996 1.7348582
10.8452 1.3884003 1.7317295
10.843854 1.3194526 1.7301651
10.842118 1.2501615 1.7286009
10.83018 1.1793426 1.7254721
10.837473 1.1103264 1.7254721
10.834443 1.0408535 1.7239078
11.391662 1.0221909 1.811511
11.20794 -0.96923381 1.7817885
10.532875 -0.97756809 1.6754131
9.9269743 -0.98428178 1.5799881
9.4196539 -0.99378514 1.5002065
8.9322557 -0.99915028 1.4235536
8.5040331 -1.0053897 1.3562868
8.0663004 -1.0050681 1.2874557
7.7660289 -1.0172466 1.2405252
7.4170103 -1.0189716 1.1857733
7.1269479 -1.0247871 1.1404072
6.8566508 -1.0299329 1.0981699
6.5963387 -1.0332533 1.057497
6.3655105 -1.0381143 1.021517
6.2322693 -1.0566266 1.0011805
6.2255073 -1.095764 1.0011805
11.464794 -5.281096 1.9992324
2.3255141 -1.1794178 0.41298699
2.2917161 -1.1804379 0.40829393
2.2843127 -1.1947016 0.40829393
2.241972 -1.1903059 0.40203658
2.2258003 -1.1995977 0.40047222
1.7548563 -1.1241124 0.33007672
1.7477587 -1.1351162 0.33007672
1.7158444 -1.1297803 0.32538369
1.6840671 -1.1240886 0.32069066
1.6769711 -1.1346477 0.32069066
1.6453726 -1.1284035 0.3159976
1.6220299 -1.127445 0.31286892
1.5987648 -1.126238 0.30974025
1.5820707 -1.4605316 0.34102714
1.5800778 -1.4771883 0.34259146
1.5707651 -1.487087 0.34259146
1.5613905 -1.496927 0.34259146
1.5661274 -1.5204679 0.34572017
1.5635864 -1.5372024 0.3472845
1.5608965 -1.5539647 0.34884885
1.5650132 -1.5777661 0.35197753
1.5619804 -1.5946239 0.35354188
1.5656642 -1.6186049 0.35667059
1.5622854 -1.6355524 0.35823491
1.5723099 -1.6668909 0.36292794
1.5618876 -1.6766605 0.36292794
1.5648441 -1.7008426 0.36605665
1.5608339 -1.7178917 0.36762097
1.5500094 -1.7276648 0.36762097
1.5652344 -1.767019 0.37387836
1.5604477 -1.7843895 0.37544271
1.55568 -1.8016174 0.37700707
1.5508963 -1.818737 0.37857139
1.5585933 -1.8510525 0.38326442
1.5469321 -1.8608088 0.38326442
1.5540082 -1.8933958 0.38795745
1.5482992 -1.9107963 0.38952181
1.5486022 -1.9359124 0.39265051
1.5547714 -1.9688585 0.39734355
1.5545148 -1.9941679 0.40047222
-1.2233087 -1.2626874 0.27845335
-1.2450521 -1.2690772 0.28158203
-1.2599624 -1.2682362 0.28314638
-1.246891 -1.2394056 0.27845335
-1.2546538 -1.2315468 0.27845335
-1.2978268 -1.2580112 0.28627506
-1.2486254 -1.1951945 0.27376032
-1.270466 -1.200895 0.276889
-1.2924268 -1.2063677 0.28001767
-1.3217684 -1.2183053 0.28471074
-1.3586147 -1.2365693 0.29096809
-1.3883954 -1.2478151 0.29566112
-2.4450712 -1.5846643 0.46148166
-2.4633017 -1.5745898 0.46304601
-2.4703164 -1.4301213 0.4520956
-2.4706745 -1.409677 0.45053124
-2.4795513 -1.394004 0.45053124
-2.4970217 -1.3829651 0.4520956
-2.4970436 -1.3624226 0.45053124
-2.5055544 -1.3467064 0.45053124
-2.5139666 -1.330937 0.45053124
-2.5047636 -1.3059824 0.44740257
-2.5040705 -1.2858301 0.44583821
-2.4943612 -1.2613765 0.44270954
-2.8436179 -1.2623456 0.49276856
-2.9058075 -1.2681576 0.50215465
-2.9591031 -1.2693434 0.50997633
-3.0034254 -1.2660722 0.51623374
-2.9930706 -1.2396176 0.51310503
-2.9916515 -1.2170652 0.51154071
-2.9900675 -1.1945798 0.50997633
-4.6125312 -1.2928336 0.75870717
-4.687252 -1.2820677 0.76965755
-4.7811027 -1.2755048 0.78373665
-5.683054 -1.2888116 0.92296332
-5.8164353 -1.2806903 0.94329983
-6.0078883 -1.283319 0.97302234
-8.2403431 -1.3845071 1.3234355
-8.2781315 -1.3374281 1.3281286
-8.2766104 -1.2838771 1.3265642
-8.274745 -1.2303936 1.3249999
-11.421182 -1.6249681 1.8271545
-10.922244 -1.4840238 1.7458086
-10.921557 -1.414103 1.7442442
-10.930227 -1.3454504 1.7442442
-10.918844 -1.2744603 1.7411156
-10.907002 -1.2036606 1.7379869
-10.904526 -1.1340877 1.7364225
-10.901607 -1.0645876 1.7348582
-10.90808 -0.99607301 1.7348582
-10.904282 -0.92667699 1.7332939
-10.909889 -0.85814828 1.7332939
-10.915104 -0.78904504 1.7332939
-10.910053 -0.71884787 1.7317295
-10.904489 -0.6498158 1.7301651
-10.908305 -0.58223832 1.7301651
-10.911729 -0.51410383 1.7301651
-10.914743 -0.44553649 1.7301651
-10.917328 -0.37694576 1.7301651
-10.91948 -0.30834597 1.7301651
-10.911327 -0.23951145 1.7286009
-10.922493 -0.17110677 1.7301651
-10.913481 -0.10184534 1.7286009
-10.913908 -0.032321803 1.7286009
-10.933648 0.036734611 1.7317295
-10.943078 0.10552401 1.7332939
-10.942199 0.1742819 1.7332939
-10.940888 0.24302706 1.7332939
-10.929287 0.31095153 1.7317295
-10.927151 0.3786642 1.7317295
-10.924573 0.44689184 1.7317295
-10.931416 0.51598656 1.7332939
-10.927929 0.58519858 1.7332939
-10.933839 0.65539122 1.7348582
-10.929477 0.72449929 1.7348582
-10.934561 0.7938689 1.7364225
-10.929357 0.86255968 1.7364225
-10.933562 0.93204951 1.7379869
-8.5079403 0.77872574 1.3531581
-8.0704317 0.78913438 1.2843269
-7.8099275 0.81293297 1.243654
-7.8439345 0.86632282 1.2499113
-7.8382912 0.91597658 1.2499113
-7.8322973 0.96588975 1.2499113
-7.8260846 1.0149968 1.2499113
-7.8000722 1.0608063 1.2467827
-7.763906 1.1057018 1.2420896
-7.7762432 1.158047 1.2452183
-7.7688265 1.2067986 1.2452183
-7.8002014 1.2612177 1.2514757
-7.8311334 1.3164555 1.2577331
-7.8324375 1.3673302 1.2592974
-7.8430595 1.4204212 1.2624261
-7.8338518 1.4703547 1.2624261
-7.853487 1.5254991 1.2671192
-10.942513 2.1969593 1.7677094
-10.909149 2.2616622 1.7645807
-10.952675 2.3425531 1.7739668
-10.95703 2.4155798 1.7770954
-10.970532 2.4909348 1.7817885
-10.971486 2.7828374 1.7927389
-10.963202 2.8547463 1.7943033
-10.963879 2.9296262 1.7974319
-10.935592 3.0702505 1.7989963
-10.944561 3.1470914 1.8036894
-10.962472 3.226949 1.8099468
-10.979808 3.3071613 1.8162041
-1.9429313 1.4424376 0.38326442
-1.9337738 1.4546915 0.38326442
-1.9088849 1.4548385 0.38013574
-1.8685064 1.4425668 0.37387836
-1.709271 1.4812698 0.35823491
-1.6628134 1.4594047 0.3504132
-1.638847 1.4566997 0.3472845
-1.6296616 1.4669685 0.3472845
-1.5985152 1.4572167 0.34259146
-1.58207 1.4605324 0.34102714
-1.5656475 1.4636984 0.33946279
-1.5492471 1.4667168 0.33789843
-1.5471309 1.4832568 0.33946279
-1.1587336 1.2287712 0.26750293
-1.1307504 1.2143863 0.2628099
-1.1230983 1.2214668 0.2628099
-1.1154011 1.2284997 0.2628099
-1.1076607 1.2354833 0.2628099
-1.0933288 1.2350235 0.26124555
-1.0790474 1.234432 0.2596812
-1.0648162 1.2337106 0.25811687
-1.0506376 1.232859 0.25655252
-1.0428703 1.2394363 0.25655252
-1.0287511 1.2383667 0.25498816
-1.0146255 1.2372192 0.25342384
-1.0005093 1.2359806 0.25185949
1.000508 1.4398105 -0.1533941
1.0152707 1.4416405 -0.15426566
1.0300958 1.4433416 -0.15513723
1.0449821 1.444913 -0.15600878
1.0540401 1.4383187 -0.15600878
1.0689952 1.4396658 -0.15688033
1.0780979 1.4328619 -0.15688033
1.093244 1.433887 -0.15775189
1.0840086 1.4033024 -0.15513723
1.0928043 1.3964638 -0.15513723
1.1077455 1.3973765 -0.15600878
1.2009668 1.23606 -0.15077943
1.2087095 1.2284898 -0.15077943
1.2023418 1.2067569 -0.14903632
1.202825 1.1921659 -0.14816476
1.2031723 1.1776166 -0.14729321
1.1962217 1.1561872 -0.14555009
1.1962563 1.1417701 -0.14467853
1.1961571 1.1273986 -0.14380698
1.1959249 1.1130737 -0.14293541
1.2028949 1.1055375 -0.14293541
1.1950636 1.084568 -0.1411923
1.2018545 1.0770378 -0.1411923
1.2011955 1.062798 -0.14032075
1.2079415 1.0551244 -0.14032075
1.2070374 1.0409681 -0.13944918
1.2059695 1.0269051 -0.13857763
1.2047727 1.0128968 -0.13770607
1.2034478 0.99894428 -0.13683452
1.2019955 0.98504865 -0.13596296
1.2004163 0.97121102 -0.13509139
1.2142788 0.96986657 -0.13596296
1.2281713 0.96838599 -0.13683452
1.2499542 0.97288775 -0.13857763
1.263942 0.97108418 -0.13944918
1.2858937 0.97516257 -0.1411923
1.2999707 0.97303337 -0.14206386
1.3220841 0.97668487 -0.14380698
1.344294 0.9800964 -0.14555009
1.3585119 0.97744882 -0.14642164
1.3727493 0.97466099 -0.14729321
1.387058 0.97165698 -0.14816476
1.4014151 0.96846467 -0.14903632
1.4239659 0.97081751 -0.15077943
1.4383037 0.96741122 -0.151651
1.4609554 0.96937072 -0.1533941
1.4753526 0.96562767 -0.15426566
1.4897602 0.96174181 -0.15513723
1.5125799 0.96306312 -0.15688033
1.5354744 0.96413523 -0.15862344
1.5584415 0.96495724 -0.16036656
1.581479 0.96552831 -0.16210967
1.6045843 0.96584755 -0.1638528
1.6191883 0.96083039 -0.16472435
1.6423912 0.96069747 -0.16646747
1.674286 0.96528631 -0.16908213
1.6889794 0.95966882 -0.16995369
1.7123601 0.95877159 -0.17169681
1.7445182 0.96243012 -0.17431149
1.7680361 0.96096456 -0.1760546
1.7916039 0.95924103 -0.1777977
1.8240309 0.96190584 -0.18041238
7.9844437 3.8315039 -0.77481455
8.0714178 3.8110344 -0.78091544
8.212657 3.8148024 -0.79224569
8.3633175 3.8210835 -0.80444747
8.5325508 3.8337855 -0.8183924
8.6749306 3.8324323 -0.82972264
8.8359013 3.8373756 -0.84279603
8.9881077 3.8365355 -0.85499781
9.1039009 3.8185179 -0.86371338
9.2750835 3.8219678 -0.87765831
9.4374285 3.8196774 -0.89073169
10.331454 4.1061649 -0.9726581
10.35727 4.0406041 -0.9726581
10.35489 3.9638584 -0.97004342
10.360855 3.891938 -0.96830028
10.394117 3.8311145 -0.96917182
10.652075 3.8507414 -0.99096078
11.095152 1.8421376 -0.98398834
10.791764 1.7218006 -0.9560985
10.80237 1.6539602 -0.9560985
10.802692 1.5846088 -0.9552269
10.822301 1.5180864 -0.9560985
10.821672 1.4493258 -0.9552269
10.800799 1.3784655 -0.95261228
10.809204 1.3109293 -0.95261228
10.807331 1.2418503 -0.95174068
10.80508 1.1722567 -0.95086914
10.802419 1.1023892 -0.9499976
11.116582 1.0635529 -0.97701585
10.768156 -0.93546265 -0.94563979
10.117333 -0.94300848 -0.88898855
9.5560837 -0.95129663 -0.84018135
9.064496 -0.95991492 -0.79747504
8.6226969 -0.96795189 -0.75912648
8.2108488 -0.97399741 -0.72339267
7.8190508 -0.97737885 -0.68940192
7.5164437 -0.98755658 -0.66325521
7.1942916 -0.9912523 -0.63536537
6.9217019 -0.99804908 -0.61183327
6.6493216 -1.0014602 -0.58830124
6.4263887 -1.0092179 -0.56912696
6.2036295 -1.0142151 -0.54995275
6.2167768 -1.0565115 -0.55169582
6.2002053 -1.0938209 -0.55082428
5.3280191 -1.3605708 -0.48109969
5.3194413 -1.393731 -0.48109969
6.3981109 -3.1976523 -0.6257782
6.4045415 -3.2513177 -0.62839288
6.4459672 -3.3234506 -0.63449377
6.478096 -3.3912575 -0.63972312
6.5273356 -3.4687283 -0.64669561
6.658102 -3.6459584 -0.66412675
6.3651323 -3.5376949 -0.63710845
6.3861628 -3.6020889 -0.64146626
7.8300867 -4.5486465 -0.79224569
7.7582908 -4.5727186 -0.78788787
7.737957 -4.6264868 -0.78875947
7.7260265 -4.6849251 -0.79050255
1.7443653 -1.1183585 -0.18128394
1.7205993 -1.1184379 -0.17954083
1.6969017 -1.1182632 -0.1777977
1.6815586 -1.123369 -0.17692615
1.6497213 -1.117155 -0.17431149
1.6262428 -1.1162233 -0.17256837
1.6110195 -1.1207303 -0.17169681
1.5958041 -1.1250902 -0.17082526
1.5822674 -1.4435431 -0.18738484
1.5731663 -1.4534562 -0.18738484
1.2995006 -1.2785771 -0.15949501
1.2561562 -1.2515607 -0.15513723
1.2482677 -1.2594286 -0.15513723
1.2403299 -1.2672467 -0.15513723
1.2254198 -1.2678519 -0.15426566
1.2174295 -1.2755264 -0.15426566
1.2025584 -1.2759011 -0.1533941
1.1878006 -1.2760746 -0.15252255
1.1663872 -1.2687421 -0.15077943
1.1517382 -1.2686318 -0.14990787
1.1370947 -1.2684257 -0.14903632
1.1224304 -1.2681471 -0.14816476
1.107774 -1.2677703 -0.14729321
1.0998144 -1.2746816 -0.14729321
1.0789738 -1.2663059 -0.14555009
1.0774512 -1.2806481 -0.14642164
1.0566527 -1.2720666 -0.14467853
1.042322 -1.2709776 -0.14380698
1.0280472 -1.2697592 -0.14293541
1.0200489 -1.2761935 -0.14293541
1.0058393 -1.2747569 -0.14206386
-1.0138003 -1.281163 -0.14293541
-1.0280607 -1.2825408 -0.14380698
-1.0423781 -1.2837898 -0.14467853
-1.0567516 -1.284909 -0.14555009
-1.07125 -1.2858399 -0.14642164
-1.0858449 -1.2866024 -0.14729321
-1.1004223 -1.2872909 -0.14816476
-1.1084888 -1.2803514 -0.14816476
-1.129647 -1.288342 -0.14990787
-1.1443342 -1.2886678 -0.15077943
-1.1589994 -1.2889229 -0.151651
-1.1669632 -1.2817172 -0.151651
-1.1817042 -1.2817223 -0.15252255
-1.1965326 -1.2815537 -0.1533941
-1.2182494 -1.2884878 -0.15513723
-1.2332106 -1.2880034 -0.15600878
-1.2551479 -1.2945338 -0.15775189
-1.2632569 -1.286622 -0.15775189
-1.2642922 -1.271595 -0.15688033
-2.4527278 -1.6546968 -0.25885254
-2.454783 -1.633734 -0.257981
-2.4649994 -1.6182779 -0.257981
-2.4500329 -1.5865139 -0.25536633
-2.4515572 -1.5657265 -0.25449476
-2.4662879 -1.426496 -0.24926542
-2.4752021 -1.4109718 -0.24926542
-2.49278 -1.4001354 -0.25013697
-2.4929326 -1.3794036 -0.24926542
-2.501595 -1.363631 -0.24926542
-2.5013368 -1.3431733 -0.24839386
-2.518533 -1.3320881 -0.24926542
-2.5091827 -1.3070331 -0.24752231
-4.6335812 -1.2967707 -0.42096224
-4.728128 -1.2912521 -0.42880625
-5.4719868 -1.274884 -0.49155837
-5.674212 -1.2844646 -0.50898951
-7.8795648 -1.3207103 -0.69898903
-8.2712746 -1.3329889 -0.73297977
-8.2794867 -1.280995 -0.73297977
-8.2873716 -1.2289462 -0.73297977
-10.928397 -1.5504798 -0.96568561
-10.878693 -1.4737574 -0.96045625
-10.986538 -1.4181317 -0.96917182
-10.985344 -1.3478575 -0.96830028
-10.993595 -1.2788111 -0.96830028
-11.001413 -1.2097085 -0.96830028
-10.998888 -1.1395373 -0.96742874
-11.005831 -1.0704042 -0.96742874
-11.012339 -1.0012347 -0.96742874
-11.008487 -0.93118012 -0.96655715
-10.968067 -0.02811823 -0.95958471
-11.017836 0.041342568 -0.96394253
-10.987474 0.11026568 -0.96132785
-11.016446 0.17979009 -0.96394253
-11.035018 0.24945192 -0.96568561
-11.023293 0.31789806 -0.96481407
-11.011155 0.3858442 -0.96394253
-11.008529 0.4546549 -0.96394253
-11.015406 0.5242849 -0.96481407
-11.011862 0.59408724 -0.96481407
-11.007854 0.66422921 -0.96481407
-11.013378 0.73440343 -0.96568561
-11.008547 0.80358475 -0.96568561
-11.013211 0.87352788 -0.96655715
-10.888398 0.93250483 -0.9560985
-8.3725863 0.76960629 -0.73559445
-7.9215145 0.77766997 -0.69637436
-8.1741076 0.85408396 -0.71903485
-7.8220339 0.8670122 -0.68853039
-7.8361702 0.91888928 -0.69027346
-7.8499303 0.97123951 -0.6920166
-7.8535743 1.0216544 -0.69288814
-7.7681289 1.0595258 -0.68591571
-7.7810183 1.1112976 -0.68765879
-7.7343698 1.154961 -0.68417257
-7.5596509 1.1773036 -0.66935611
-7.7783837 1.2607809 -0.68940192
-7.7899985 1.312685 -0.691145
-7.8306618 1.370188 -0.69550282
-7.8512259 1.4251268 -0.69811749
-7.8419871 1.4751161 -0.69811749
-1.1400081 1.2252928 -0.14642164
-1.139027 1.2397671 -0.14729321
-1.1178273 1.2321433 -0.14555009
-1.1100639 1.2391422 -0.14555009
-1.0956556 1.2386311 -0.14467853
-1.0812985 1.2379876 -0.14380698
-1.0734982 1.2447574 -0.14380698
-1.0591979 1.2438928 -0.14293541
-1.0449504 1.2428985 -0.14206386
-1.0371207 1.2494392 -0.14206386
-1.0228673 1.2482817 -0.1411923
-1.0086292 1.2470273 -0.14032075
1.0066373 1.4281898 0.33963999
1.0155909 1.4218367 0.33963999
1.0302602 1.4233794 0.34154809
1.0449886 1.4247936 0.34345618
1.0597754 1.4260784 0.34536427
1.0747048 1.4271691 0.34727237
1.0837746 1.4202938 0.34727237
1.0867118 1.4056604 0.34536427
1.174109 1.253981 0.33391574
1.1887531 1.25367 0.33582383
1.1898078 1.2390956 0.33391574
1.2180994 1.2527086 0.33963999
1.2052842 1.2240466 0.33391574
1.1990891 1.2025472 0.33009955
1.1926718 1.1811745 0.32628337
1.1930518 1.1667939 0.32437527
1.1932985 1.1524556 0.32246721
1.200516 1.1449351 0.32246721
1.2005399 1.1306394 0.32055911
1.2004319 1.116389 0.31865102
1.2001927 1.1021849 0.31674293
1.1998225 1.0880281 0.31483483
1.1993221 1.0739195 0.31292674
1.20611 1.0662905 0.31292674
1.198087 1.0456759 0.30911058
1.2046618 1.0380946 0.30911058
1.2036843 1.0241439 0.30720249
1.2025791 1.0102469 0.30529439
1.208903 1.0026709 0.30529439
1.1999893 0.9826172 0.30147821
1.2061396 0.97505808 0.30147821
1.2122422 0.96746045 0.30147821
1.2105862 0.95374984 0.29957011
1.2320523 0.95817733 0.3033863
1.2458348 0.95639467 0.30529439
1.2674673 0.96040487 0.30911058
1.2891985 0.96418053 0.31292674
1.3031288 0.96189094 0.31483483
1.3170811 0.95946407 0.31674293
1.3310539 0.9568997 0.31865102
1.3530524 0.95987713 0.32246721
1.375198 0.96253288 0.32628337
1.3893796 0.95933026 0.32819146
1.4035186 0.95607007 0.33009955
1.4257928 0.95818335 0.33391574
