# .PCD v0.7 - Point Cloud Data file format
VERSION 0.7
FIELDS x y z
SIZE 4 4 4
TYPE F F F
COUNT 1 1 1
WIDTH 1492
HEIGHT 1
VIEWPOINT 0 0 0 1 0 0 0
POINTS 1492
DATA ascii
-11.762401 3.6191497 1.9491735
-3.4092348 1.2884132 0.57724315
-3.4102895 1.3133571 0.57880753
-3.402036 1.334591 0.57880753
-3.4120457 1.3629725 0.58193618
-1.9726355 1.2602197 0.37074968
-1.9979013 1.293969 0.37700707
-1.9650756 1.2900621 0.37231401
-1.932313 1.2858933 0.36762097
-1.9078195 1.2869616 0.3644923
-1.8915422 1.2933489 0.36292794
-1.8509068 1.2827042 0.35667059
-1.8266455 1.2829553 0.35354188
-1.8105021 1.2886791 0.35197753
-1.7782753 1.2827823 0.3472845
-1.7461478 1.2765967 0.34259146
-1.7301062 1.2817304 0.34102714
-1.6247698 1.3519069 0.33476976
-1.6464533 1.3875489 0.34102714
-1.6226782 1.3850416 0.33789843
-1.6587049 1.4340473 0.3472845
-1.431482 1.4038923 0.31756195
-1.4226333 1.4128585 0.31756195
-1.3997992 1.4077619 0.31443328
-1.3840067 1.4094815 0.31286892
-1.3682475 1.4110593 0.31130457
-1.352524 1.4124942 0.30974025
-1.336836 1.4137882 0.30817589
-1.3211862 1.4149404 0.30661154
-1.298879 1.4086914 0.30348286
-1.2833532 1.4095211 0.30191851
-1.2613338 1.402805 0.29878983
-1.2526177 1.4105934 0.29878983
-1.2307601 1.4035363 0.29566112
-1.2219175 1.4112413 0.29566112
-1.2001209 1.4039353 0.29253244
-1.1784136 1.3964552 0.28940377
-1.1696315 1.403819 0.28940377
-1.1546357 1.4034119 0.28783941
-1.1395526 1.4029849 0.28627506
-1.1305921 1.4102156 0.28627506
-1.1155252 1.4095898 0.28471074
-1.1005664 1.4087874 0.28314638
-1.0916927 1.4156748 0.28314638
-1.0767944 1.4146467 0.28158203
-1.0619516 1.4134881 0.28001767
-1.0471669 1.4121987 0.27845335
-1.0325097 1.4107289 0.276889
-1.0237489 1.4170994 0.276889
-1.0091453 1.4154229 0.27532464
1.0043908 0.95038646 0.21900825
1.0103424 0.94405705 0.21900825
1.0235131 0.94438803 0.22057259
1.0367274 0.94459057 0.22213693
5.3277774 4.4987364 1.1044273
5.3559384 4.4651723 1.1044273
5.3762622 4.4251552 1.102863
5.3732991 4.3663726 1.0966055
5.3698111 4.3078036 1.0903482
5.3810768 4.2619796 1.0872195
5.3684783 4.1981354 1.0793978
5.3633175 4.1403856 1.0731404
5.3578024 4.0826607 1.0668831
5.3596678 4.0311055 1.0621901
5.369029 3.9855762 1.0590613
5.3859978 3.9459257 1.057497
5.4106841 3.9120069 1.057497
5.4351568 3.8779335 1.057497
5.5692043 3.6648965 1.0559326
5.6335444 3.6567202 1.0637543
5.7227755 3.6641352 1.0762691
5.8038239 3.6655259 1.0872195
5.8770828 3.6602528 1.0966055
5.9507828 3.6537468 1.1059916
5.9651337 3.6112351 1.1044273
6.0637207 3.6197701 1.1185064
6.1800199 3.6366339 1.1357142
6.2799592 3.641784 1.1497933
6.3541279 3.6317296 1.1591793
6.4367447 3.6262257 1.1701298
6.528348 3.6243105 1.1826445
6.6116486 3.6163983 1.1935949
6.7124949 3.6169515 1.207674
6.8136058 3.6163783 1.2217531
6.9149718 3.614676 1.2358322
7.0078006 3.6073208 1.248347
7.1096168 3.6034052 1.2624261
7.2116575 3.598351 1.2765052
7.3227777 3.5965092 1.2921487
7.4341559 3.5934114 1.3077921
7.5546999 3.5932968 1.3249999
7.6934242 3.6001799 1.3453363
7.8145843 3.5971994 1.3625442
7.9450049 3.5969102 1.3813163
8.0845718 3.5995364 1.4016528
8.2062435 3.5929508 1.4188606
8.3555326 3.5963001 1.4407614
8.4598331 3.5783594 1.4548405
8.6098385 3.5782008 1.4767413
8.760169 3.5762975 1.4986422
8.9016447 3.5689678 1.5189786
9.0525589 3.5636172 1.5408795
9.203927 3.5560572 1.5627803
9.3741636 3.5533662 1.5878098
9.5536432 3.5530279 1.6144036
9.7146521 3.5445473 1.6378688
9.9039898 3.5437045 1.6660271
10.121785 3.5500536 1.6988783
10.302681 3.540962 1.7254721
10.502577 3.5360382 1.7551947
10.590249 3.4916277 1.7661451
10.593179 3.4189527 1.7630163
10.586197 3.3434029 1.7583233
10.588121 3.2709916 1.7551947
10.579942 3.1963522 1.7505016
10.599544 3.1307383 1.7505016
10.590419 3.0562677 1.7458086
10.5904 2.9843085 1.74268
10.580372 2.9098511 1.7379869
10.579367 2.838197 1.7348582
10.587436 2.76917 1.7332939
10.585484 2.6977146 1.7301651
10.583053 2.6263931 1.7270365
10.580144 2.5552089 1.7239078
10.576759 2.484165 1.7207791
10.572901 2.4132648 1.7176504
10.578097 2.3451684 1.716086
10.573112 2.2754261 1.7129574
10.577448 2.2073357 1.711393
10.562065 2.1349618 1.7067
10.565475 2.0671797 1.7051356
10.568377 1.9998405 1.7035713
10.561322 1.9297322 1.7004426
10.553946 1.8589869 1.6973139
10.555749 1.7905838 1.6957495
10.557043 1.7226344 1.6941853
10.557819 1.6552584 1.6926209
10.548339 1.5868723 1.6894922
10.382075 1.4956182 1.661334
9.9705296 1.3724419 1.5940672
10.008334 1.3136245 1.5987602
10.016391 1.2507147 1.5987602
10.014243 1.1865932 1.5971959
10.00187 1.1214477 1.5940672
9.9890747 1.0565046 1.5909384
9.9856873 0.99274367 1.5893742
9.9818935 0.92906713 1.5878098
9.9875336 0.86633235 1.5878098
9.9828949 0.80325955 1.5862454
10.125578 0.75162685 1.6081463
10.345025 -1.2486793 1.6503836
9.7490902 -1.2389438 1.5565228
9.2418804 -1.2330782 1.4767413
8.7547522 -1.2233405 1.4000884
8.316925 -1.215161 1.3312572
7.9185672 -1.2078216 1.2686834
7.5596638 -1.2017291 1.2123671
7.2109075 -1.1927882 1.1576151
6.92098 -1.1895529 1.112249
6.6605601 -1.187925 1.0715761
6.419868 -1.1866647 1.0340317
6.1794639 -1.1824284 0.9964875
5.9490647 -1.1771369 0.96050757
5.7576923 -1.1769105 0.93078506
5.5665646 -1.1743273 0.90106249
5.3274479 -1.158893 0.86351824
5.3297577 -1.1942415 0.86508256
5.3222561 -1.2272414 0.86508256
5.3240986 -1.2627339 0.86664695
2.6017301 -1.125313 0.44896692
2.5856669 -1.1374346 0.44740257
2.551466 -1.1414595 0.44270954
2.2926109 -1.2212971 0.41142264
2.3023152 -1.2449868 0.41455132
2.2338393 -1.22616 0.4036009
2.1656933 -1.2065233 0.39265051
6.673131 -4.8314285 -0.72077799
6.6346107 -4.8673687 -0.71990645
6.6438723 -4.938674 -0.7242642
6.6607294 -5.0159173 -0.72949356
6.9621878 -5.3108501 -0.76609898
6.9919181 -5.4029937 -0.77307141
6.9813643 -5.4652414 -0.77568609
6.9781098 -5.5337577 -0.7791723
7.1917286 -5.7771349 -0.80706215
7.1784692 -5.8410702 -0.80967683
7.3568754 -6.0634637 -0.83408046
7.2880425 -6.0840321 -0.83059424
7.1583853 -6.0525198 -0.82013553
6.5557656 -5.6841674 -0.75912648
6.5201097 -5.7250328 -0.75912648
6.4914536 -5.7725062 -0.75999808
6.4627767 -5.8194928 -0.76086962
6.6548028 -6.0674901 -0.78788787
6.3312898 -5.8454175 -0.75389719
6.1852851 -5.7830296 -0.74082381
6.1054254 -5.7806816 -0.73559445
6.0330305 -5.7844567 -0.7312367
5.9608302 -5.7875514 -0.72687888
5.9527626 -5.8528271 -0.7303651
5.8382163 -5.8127971 -0.72077799
5.7594872 -5.8069267 -0.71554863
5.6883516 -5.8071046 -0.71119082
5.6245556 -5.8135986 -0.7077046
5.567461 -5.827034 -0.70508993
5.5375752 -5.8691463 -0.70596153
5.5481253 -5.9548445 -0.71206242
5.5713048 -6.0555673 -0.71990645
5.5063519 -6.0609593 -0.71642017
5.4215956 -6.0435295 -0.71031928
3.7580531 -4.2965722 -0.4994024
3.7181954 -4.3048182 -0.4976593
3.6785223 -4.312614 -0.49591616
3.6386602 -4.3202829 -0.49417305
3.5923352 -4.3200808 -0.49155837
3.5398359 -4.3117685 -0.48807216
3.5001295 -4.3184462 -0.48632905
3.4482665 -4.309051 -0.4828428
3.4029744 -4.3068838 -0.48022813
-1.0016381 -1.227036 -0.13857763
-1.0156089 -1.2284513 -0.13944918
-1.0232006 -1.2221352 -0.13944918
-1.0372621 -1.2233142 -0.14032075
-1.0514182 -1.2243303 -0.1411923
-1.0656276 -1.2252165 -0.14206386
-1.0798895 -1.2259723 -0.14293541
-1.0942026 -1.226597 -0.14380698
-1.108566 -1.2270898 -0.14467853
-1.1229116 -1.2275115 -0.14555009
-1.1304955 -1.2205306 -0.14555009
-1.1449175 -1.2207066 -0.14642164
-1.1594253 -1.2207119 -0.14729321
-1.1739781 -1.2205828 -0.14816476
-1.1885748 -1.2203189 -0.14903632
-1.2032142 -1.2199193 -0.14990787
-1.2178953 -1.2193837 -0.15077943
-1.2326168 -1.2187115 -0.151651
-1.2402498 -1.2109427 -0.151651
-1.2765194 -1.2307847 -0.15513723
-1.2842274 -1.2227397 -0.15513723
-1.2845609 -1.2078929 -0.15426566
-1.2847207 -1.1931317 -0.1533941
-1.3362041 -1.2254784 -0.15862344
-1.3438776 -1.2170587 -0.15862344
-1.3589238 -1.2152314 -0.15949501
-1.3739998 -1.2132629 -0.16036656
-1.3891046 -1.2111527 -0.16123812
-1.4042367 -1.2089002 -0.16210967
-1.4193292 -1.2065828 -0.16298124
-1.4344075 -1.2041708 -0.1638528
-1.4495757 -1.201539 -0.16472435
-1.4725156 -1.2050256 -0.16646747
-1.4878068 -1.2020102 -0.16733903
-1.503118 -1.19885 -0.16821058
-1.526275 -1.2017072 -0.16995369
-1.541661 -1.1982069 -0.17082526
-1.557063 -1.1945605 -0.17169681
-1.5804216 -1.1967816 -0.17343992
-1.6038688 -1.198756 -0.17518304
-1.6193858 -1.1945686 -0.1760546
-1.6349133 -1.1902335 -0.17692615
-1.6504499 -1.18575 -0.1777977
-1.6740564 -1.1869711 -0.17954083
-1.6977025 -1.1879992 -0.18128394
-1.7132925 -1.1830251 -0.1821555
-1.7453907 -1.1890633 -0.18477017
-1.7693634 -1.1891872 -0.18651329
-1.7851031 -1.1835513 -0.18738484
-1.8091787 -1.1832172 -0.18912795
-1.83332 -1.1826267 -0.19087107
-1.8575246 -1.1817791 -0.19261418
-1.8817903 -1.1806737 -0.19435731
-1.9145864 -1.1845509 -0.19697197
-1.9390001 -1.182874 -0.19871509
-1.9548666 -1.1759088 -0.19958664
-1.9878194 -1.1790203 -0.20220132
-2.0123494 -1.1766292 -0.20394443
-2.0455964 -1.1788847 -0.20655911
-2.0790143 -1.1806548 -0.20917378
-2.1212685 -1.1868428 -0.21266001
-3.2806261 -1.2099617 -0.30591664
-3.3256357 -1.2028786 -0.30940288
-3.3612952 -1.1919478 -0.31201756
-3.8629563 -1.1292417 -0.35210919
-3.850817 -1.0994779 -0.35036609
-5.6149001 -1.0817678 -0.50027394
-5.6019988 -1.0428225 -0.49853083
-5.6084404 -1.0076022 -0.49853083
-5.6048446 -0.97064519 -0.4976593
-9.1404877 -0.99862784 -0.80444747
-9.136672 -0.94015491 -0.80357593
-9.0134478 1.0580349 -0.79398882
-9.0560541 1.120767 -0.79834658
-8.6141739 1.121075 -0.75999808
-8.6365709 1.1792225 -0.76261276
-8.6388531 1.2348715 -0.7634843
-8.6309233 1.2891287 -0.7634843
-8.5340643 1.329529 -0.75564027
-8.5550423 1.3879118 -0.75825495
-8.4872141 1.4316925 -0.75302559
-8.2327366 1.4420244 -0.7312367
-8.595974 1.5613749 -0.76435584
-8.6251545 1.6227239 -0.76784205
-8.624567 1.6787862 -0.76871365
-8.6333809 1.7368743 -0.77045673
-8.6222982 1.7910826 -0.77045673
-8.5719099 1.8368753 -0.76697052
-1.9565188 1.2855289 -0.204816
-1.9235717 1.2811661 -0.20220132
-1.8989716 1.2820778 -0.2004582
-1.8744358 1.2827325 -0.19871509
-1.8499682 1.283129 -0.19697197
-1.8174195 1.2775412 -0.19435731
-1.8012433 1.2831546 -0.19348575
-1.7849979 1.2887133 -0.19261418
-1.6611934 1.3833175 -0.18912795
-1.6143934 1.3616146 -0.18477017
-1.6285303 1.391142 -0.18738484
-1.6196809 1.4014353 -0.18738484
-1.6032288 1.4051584 -0.18651329
-1.5869491 1.4085559 -0.18564174
-1.5633725 1.4050437 -0.18389861
-1.5471922 1.4080828 -0.18302706
-1.5236642 1.4042733 -0.18128394
-1.5002451 1.4002249 -0.17954083
-1.4841781 1.4027803 -0.17866927
-1.4609411 1.398302 -0.17692615
-1.4449735 1.4005201 -0.1760546
-1.4290353 1.4025937 -0.17518304
-1.4201947 1.4115444 -0.17518304
-1.3972546 1.4063065 -0.17343992
-1.3883914 1.4150577 -0.17343992
-1.3586764 1.4022899 -0.17082526
-1.3498392 1.4107987 -0.17082526
-1.3272648 1.4047703 -0.16908213
-1.3116167 1.4057976 -0.16821058
-1.2960075 1.4066849 -0.16733903
-1.28044 1.407431 -0.16646747
-1.264991 1.4079686 -0.1655959
-1.249631 1.4083281 -0.16472435
-1.234239 1.4086186 -0.1638528
-1.2188466 1.4088117 -0.16298124
-1.1969533 1.4013582 -0.16123812
-1.1815797 1.4013394 -0.16036656
-1.1727827 1.4087099 -0.16036656
-1.1577054 1.408254 -0.15949501
-1.1425261 1.4077899 -0.15862344
-1.1335342 1.4150401 -0.15862344
-1.1183953 1.4143572 -0.15775189
-1.1033573 1.4135032 -0.15688033
-1.0883735 1.412517 -0.15600878
-1.0794774 1.4193273 -0.15600878
-1.0645572 1.4181151 -0.15513723
-1.0496958 1.4167712 -0.15426566
-1.040851 1.4232818 -0.15426566
-1.0261817 1.4216263 -0.1533941
-1.0114959 1.4198989 -0.15252255
1.001297 0.97083265 -0.12201804
1.0145726 0.97141165 -0.12288959
1.0278947 0.9718619 -0.12376115
1.0412624 0.97218275 -0.12463271
1.0473502 0.96562123 -0.12463271
1.060763 0.96572798 -0.12550427
1.0742183 0.96570396 -0.12637582
4.710423 3.7757857 -0.52816379
4.7807193 3.7834661 -0.53339314
4.8590178 3.7967079 -0.53949404
5.0013342 3.8079269 -0.54995275
5.0729437 3.8123369 -0.5551821
5.1688085 3.8337996 -0.56302607
5.2490635 3.8424375 -0.56912696
5.3134785 3.8385494 -0.57348478
5.3537154 3.8166537 -0.57522792
5.3531466 3.7657452 -0.57261324
5.4421716 3.7774794 -0.57958567
5.5206938 3.6797569 -0.58045721
5.5853243 3.6723621 -0.58481503
5.6667948 3.6751401 -0.59091592
5.7567096 3.6827199 -0.59788841
5.8215408 3.6735628 -0.60224617
5.8953357 3.6683633 -0.60747552
5.9780254 3.667197 -0.61357641
6.0179176 3.6400065 -0.61531955
6.1259127 3.6536794 -0.62403512
6.2089415 3.6503248 -0.63013601
6.2837882 3.640662 -0.63536537
6.8082089 3.8877647 -0.68591571
6.9363413 3.9041426 -0.69637436
7.030302 3.8993664 -0.70334685
7.1420817 3.9028881 -0.71206242
7.2717233 3.9146011 -0.72252107
7.2785735 3.8595006 -0.72077799
7.2496977 3.7860236 -0.71554863
7.2556243 3.7312863 -0.7138055
7.2611499 3.6766245 -0.71206242
7.2662764 3.6220405 -0.71031928
7.3336077 3.5982544 -0.7146771
7.4457793 3.5954237 -0.72339267
7.5671997 3.5955989 -0.73297977
7.7250099 3.6112635 -0.74605316
7.8471074 3.6084366 -0.75564027
7.9785471 3.6083212 -0.76609898
8.1009922 3.6030877 -0.77568609
8.2418137 3.6047218 -0.78701633
8.3648548 3.5964196 -0.7966035
8.4698744 3.578686 -0.80444747
8.6302023 3.5826902 -0.81752086
9.4735184 3.8631797 -0.89508945
9.636323 3.8591337 -0.90816283
9.6140261 3.7802839 -0.90380502
9.6284971 3.7156901 -0.90293348
9.6333389 3.647223 -0.90119034
9.6559868 3.586833 -0.90119034
9.7903423 3.5678689 -0.91164905
9.953166 3.5568917 -0.92472243
10.163354 3.5601521 -0.94215357
10.373969 3.5609088 -0.95958471
10.55666 3.5496321 -0.97440118
10.597678 3.489464 -0.97614431
10.60043 3.4166975 -0.97440118
10.593186 3.3410366 -0.9717865
10.594932 3.2685387 -0.97004342
10.59601 3.196728 -0.96830028
10.586947 3.1225612 -0.96568561
10.587113 3.0508106 -0.96394253
10.577304 2.9761353 -0.96132785
10.586188 2.9069798 -0.96045625
10.584999 2.8352528 -0.95871317
10.583327 2.7636557 -0.95697004
10.581174 2.6921916 -0.9552269
10.578542 2.6208642 -0.95348382
10.575431 2.5496759 -0.95174068
10.571844 2.4786305 -0.9499976
10.567783 2.4077313 -0.94825447
10.572848 2.3397086 -0.94738293
10.557922 2.26788 -0.94476825
10.56214 2.1998131 -0.94389665
10.565987 2.1314363 -0.94302511
10.579059 2.0655828 -0.94302511
10.572075 1.9963003 -0.94128203
10.564851 1.9260305 -0.9395389
10.557282 1.8552409 -0.93779576
10.568789 1.7885265 -0.93779576
10.560153 1.7188849 -0.93605268
10.560813 1.6515365 -0.93518108
10.334402 1.5505961 -0.91426373
9.9790459 1.4335589 -0.88201612
9.9977255 1.3721853 -0.88288766
10.025906 1.3119261 -0.8846308
10.024065 1.2476754 -0.8837592
10.031706 1.1846681 -0.8837592
10.009251 1.1182956 -0.88114452
10.006172 1.0543399 -0.88027298
9.9927721 0.98948544 -0.87852985
9.9888725 0.92576045 -0.87765831
9.9944925 0.86298192 -0.87765831
9.9996738 0.80071253 -0.87765831
10.232945 0.75561273 -0.89770412
10.097375 -1.2228103 -0.88986009
9.4965744 -1.2106429 -0.83756667
8.9852791 -1.2023844 -0.79311723
8.5435724 -1.1972044 -0.75476873
8.1219397 -1.18993 -0.71816331
7.7400999 -1.1837102 -0.68504411
7.3980246 -1.1790127 -0.65541118
7.0661545 -1.1716949 -0.6266498
6.81322 -1.1737862 -0.60486084
6.5311289 -1.167487 -0.58045721
6.2983727 -1.1667651 -0.56041139
6.0561085 -1.1612899 -0.53949404
5.8532581 -1.1605684 -0.5220629
5.6506639 -1.1573449 -0.50463176
5.4873347 -1.1598637 -0.49068683
5.3242035 -1.160377 -0.47674191
5.3363128 -1.1978812 -0.47848502
5.3482013 -1.2354052 -0.48022813
5.4042516 -1.5368922 -0.49155837
5.3658791 -1.56217 -0.4889437
2.6123898 -1.1118543 -0.24839386
2.6054137 -1.1281046 -0.24839386
2.5619059 -1.1281662 -0.24490763
2.1698699 -1.2081059 0.48274675
2.1622365 -1.2217158 0.48274675
2.1289699 -1.2206297 0.47702247
1.5300924 -1.2301159 0.38161799
1.5071099 -1.2273084 0.37780181
1.4917961 -1.2305073 0.37589371
1.4689689 -1.2272688 0.37207752
1.4387484 -1.2174517 0.36635327
1.4162363 -1.213607 0.36253709
1.4086897 -1.2223583 0.36253709
1.3862679 -1.2181873 0.3587209
1.3712536 -1.2203475 0.3568128
1.3490483 -1.2157147 0.35299665
1.3342384 -1.2174337 0.35108855
1.3265964 -1.2257565 0.35108855
1.2973653 -1.2139468 0.34536427
1.2825868 -1.2153226 0.34345618
1.2678428 -1.2165606 0.34154809
1.2531339 -1.2176617 0.33963999
1.2454584 -1.2255114 0.33963999
1.2307801 -1.2263839 0.33773193
1.2161404 -1.2271206 0.33582383
1.1947474 -1.2206348 0.33200765
1.1803386 -1.2209566 0.33009955
1.165899 -1.2212166 0.32819146
1.1514692 -1.2213753 0.32628337
-1.2005574 -1.2010813 0.33009955
-1.2499789 -1.2349079 0.34154809
-1.1593448 -1.131061 0.31483483
-1.2229826 -1.1782393 0.33009955
-1.2374731 -1.1772983 0.33200765
-1.2590835 -1.1830177 0.33582383
-1.2807802 -1.1885481 0.33963999
-1.2809534 -1.1738806 0.33773193
-1.3028609 -1.178982 0.34154809
-1.3175627 -1.1773132 0.34345618
-1.3102124 -1.1560225 0.33963999
-3.2331209 -1.190999 0.66973954
-3.3143988 -1.1973431 0.68500429
-3.3403625 -1.1830488 0.68882048
-3.8610117 -1.1007496 0.7804088
-3.8678517 -1.0764686 0.7804088
-5.4065433 -1.1454982 1.0742546
-5.4232492 -1.113481 1.0761627
-5.4108829 -1.075555 1.0723466
-5.4271736 -1.043391 1.0742546
-5.4529247 -1.0128546 1.0780708
-5.468843 -0.98030645 1.0799789
-5.6199894 -0.97099268 1.1086003
-7.2417293 -1.019372 1.421527
-7.2479916 -0.973849 1.421527
-7.7371373 -0.94074976 1.5150234
-8.1037102 -0.93369198 1.5856227
-8.5192795 -0.92737025 1.6657625
-8.9643679 -0.91886884 1.7516265
-9.3296814 1.0988736 1.8260421
-8.7381039 1.0849007 1.7115567
-8.653245 1.1296191 1.6962919
-8.645977 1.1839643 1.6962919
-8.6675177 1.2424458 1.7020162
-8.678957 1.2997861 1.7058324
-8.6706181 1.3542941 1.7058324
-8.3325138 1.3551674 1.6409574
-7.9850731 1.3502156 1.5741742
-7.6670432 1.3460412 1.5131153
-7.3590503 1.3396882 1.4539645
-1.9595455 1.2540259 0.45221731
-1.9599391 1.2715379 0.4541254
-1.9438212 1.2782639 0.45221731
-1.9276189 1.2849542 0.45030922
-1.9113734 1.2915449 0.44840112
-1.8789246 1.2868876 0.44267687
-1.8546739 1.2874728 0.43886068
-1.8224628 1.2821554 0.4331364
-1.7983848 1.2821841 0.42932025
-1.7663461 1.2763181 0.42359596
-1.6297418 1.3409494 0.41023934
-1.6288247 1.3574479 0.41214743
-1.6352663 1.3803182 0.41596359
-1.6190996 1.3841873 0.41405553
-1.6399705 1.4201324 0.42168787
-1.6161314 1.4176044 0.41787168
-1.4286045 1.4032724 0.38925034
-1.4127994 1.4052985 0.38734224
-1.3970262 1.407181 0.38543415
-1.3812846 1.4089217 0.38352609
-1.3655773 1.4105198 0.38161799
-1.3566875 1.4190725 0.38161799
-1.3275287 1.4061549 0.37589371
-1.3186671 1.4144685 0.37589371
-1.2964571 1.4082817 0.37207752
-1.2809796 1.4091365 0.37016943
-1.2656286 1.4097759 0.36826137
-1.2503569 1.4102457 0.36635327
-1.228578 1.4032687 0.36253709
-1.2133167 1.4035345 0.36062899
-1.2043896 1.4112025 0.36062899
-1.1890507 1.411339 0.3587209
-1.1739284 1.4111969 0.3568128
-1.1589311 1.4108584 0.35490471
-1.1376315 1.4029011 0.35108855
-1.1286716 1.4101195 0.35108855
-1.113665 1.4095118 0.34918046
-1.0987493 1.4087412 0.34727237
-1.0898767 1.4156168 0.34727237
-1.0750209 1.4146214 0.34536427
-1.0602217 1.4134949 0.34345618
-1.0454785 1.4122392 0.34154809
-1.0366703 1.4187176 0.34154809
-1.0221176 1.4171522 0.33963999
-1.00754 1.4155211 0.33773193
1.0072051 0.9635998 0.27094877
1.0132396 0.95725238 0.27094877
1.0264119 0.9575634 0.27285686
1.0396278 0.95774639 0.27476496
1.0601475 0.96440643 0.27858114
5.3211079 4.48595 1.3528358
5.3416438 4.4461484 1.3509277
5.3543062 4.4000335 1.3471115
5.3666005 4.3539357 1.3432953
5.363204 4.2955847 1.335663
5.3590336 4.2377701 1.3280306
5.354238 4.1803212 1.3203982
5.3569598 4.128767 1.3146739
5.3515458 4.0712528 1.3070416
5.3456216 4.0139713 1.2994093
5.3628502 3.9744599 1.2975011
5.3877163 3.9406857 1.2975011
5.4123697 3.9067562 1.2975011
5.4368095 3.8726726 1.2975011
5.4904084 3.6564577 1.2822365
5.5460911 3.6434476 1.2898688
5.634778 3.6512334 1.3051335
5.7152882 3.6531034 1.3184901
5.795938 3.6542695 1.3318467
5.8689218 3.6486866 1.3432953
5.9422626 3.6420028 1.3547438
5.9733119 3.6098673 1.3566519
6.0461588 3.6029384 1.3681005
6.136507 3.6044528 1.3833652
6.2443008 3.6144643 1.4024462
6.360559 3.6288731 1.4234351
6.4513707 3.6278863 1.4386998
6.5340433 3.6207614 1.4520564
6.6169748 3.6125624 1.4654131
6.7087045 3.6081128 1.4806777
6.8093109 3.6072466 1.4978505
6.9101682 3.6052577 1.5150234
7.0025349 3.5976558 1.5302881
7.1125946 3.5978956 1.549369
7.2141438 3.5925171 1.5665418
7.3335314 3.5946441 1.5875309
7.4443851 3.591146 1.6066117
7.555481 3.5863948 1.6256926
7.7112789 3.6011555 1.6543139
7.8229547 3.5936093 1.6733949
7.9527278 3.5928836 1.6962919
8.0825815 3.591151 1.719189
8.2036238 3.584235 1.740178
8.3611794 3.59095 1.7687993
8.4559269 3.5688806 1.7840641
8.6232653 3.5758417 1.8145936
8.7637463 3.5697291 1.8393987
8.913599 3.5656378 1.866112
9.0637426 3.5598009 1.8928252
9.2052135 3.5481324 1.9176303
9.4204464 3.5623317 1.9577003
9.5805769 3.5545998 1.9863216
9.9687653 1.3642224 1.9557922
9.9674063 1.3002903 1.9538841
9.975379 1.237638 1.9538841
10.002457 1.1772314 1.9577003
9.9998999 1.1132752 1.9557922
9.9871721 1.0483726 1.9519759
9.9837933 0.98463756 1.9500679
9.9800081 0.92098635 1.9481598
9.9758177 0.85742164 1.9462517
9.9809599 0.7953245 1.9462517
10.181494 0.74784958 1.9844135
9.6882925 -1.23895 1.8985494
9.1647558 -1.230014 1.7974207
8.7098036 -1.2239374 1.7096486
8.2746468 -1.2156221 1.6256926
7.8981366 -1.2110533 1.5531852
7.5317183 -1.2033521 1.4825859
7.1657228 -1.1910965 1.4119866
6.8679042 -1.1859844 1.3547438
6.6380816 -1.1892967 1.3108578
6.3891945 -1.1861849 1.2631556
6.1502576 -1.1818476 1.2173613
5.9405208 -1.1802951 1.1772915
5.7406702 -1.1781287 1.1391296
5.5506926 -1.1755329 1.1028759
5.3034391 -1.1580333 1.0551738
5.305707 -1.1931691 1.0570818
5.3173394 -1.2304454 1.0608979
5.3095379 -1.2636858 1.0608979
2.5939035 -1.1243137 0.54952991
2.5509586 -1.1245251 0.54189754
2.5259593 -1.1324301 0.53808135
2.277601 -1.2155666 0.50182766
2.287214 -1.2391433 0.50564384
2.2277746 -1.2251089 0.49419528
2.1771753 -1.2151616 0.48465484
2.1267905 -1.2046279 0.47511441
8.0163088 -5.3664513 -0.50556535
7.9741688 -5.4111056 -0.50504196
-1.011373 -1.2369772 -0.08373753
-1.0254136 -1.2383566 -0.084260888
-1.0394834 -1.2396313 -0.084784247
-1.0472244 -1.2330987 -0.084784247
-1.0614636 -1.2340655 -0.085307606
-1.075756 -1.2349017 -0.085830964
-1.0901004 -1.2356067 -0.086354323
-1.104496 -1.2361799 -0.086877689
-1.1189415 -1.2366208 -0.087401047
-1.1266088 -1.2296396 -0.087401047
-1.1409978 -1.2299566 -0.087924406
-1.1555139 -1.2300669 -0.088447765
-1.1701027 -1.2300178 -0.088971123
-1.177808 -1.2226416 -0.088971123
-1.1924402 -1.2223654 -0.089494482
-1.2071151 -1.2219534 -0.09001784
-1.214769 -1.2143447 -0.09001784
-1.2365886 -1.2207195 -0.091064565
-1.2513849 -1.2198966 -0.091587923
-1.2734135 -1.2258617 -0.092634641
-1.2883284 -1.2247169 -0.093157999
-1.2813575 -1.2030122 -0.092111282
-1.2741416 -1.1814697 -0.091064565
-1.3404343 -1.2274213 -0.095251441
-1.34812 -1.2189748 -0.095251441
-1.3557523 -1.2104803 -0.095251441
-1.3708221 -1.2085421 -0.0957748
-1.3859206 -1.206462 -0.096298158
-1.4010469 -1.2042397 -0.096821517
-1.4237344 -1.2084296 -0.097868234
-1.4311943 -1.1995852 -0.097868234
-1.4540641 -1.2033342 -0.098914959
-1.4693295 -1.2004927 -0.099438317
-1.4923891 -1.2037764 -0.10048503
-1.5077353 -1.2005963 -0.10100839
-1.5309511 -1.2034423 -0.10205511
-1.5384823 -1.1937994 -0.10205511
-1.5618087 -1.196254 -0.10310183
-1.57726 -1.1924398 -0.10362519
-1.6007285 -1.1944505 -0.10467191
-1.6242838 -1.196213 -0.10571863
-1.6479238 -1.1977262 -0.10676535
-1.6635317 -1.1931688 -0.10728871
-1.6872199 -1.194342 -0.10833543
-1.7109601 -1.1953037 -0.10938215
-1.7348549 -1.1959029 -0.11042886
-1.7505922 -1.190595 -0.11095223
-1.766331 -1.1851363 -0.11147559
-1.8070523 -1.196062 -0.11356902
-1.8312554 -1.1956031 -0.11461575
-1.8555235 -1.1948869 -0.11566246
-1.8798542 -1.1939125 -0.11670918
-1.9042453 -1.1926792 -0.1177559
-1.9286944 -1.191186 -0.11880262
-1.9617285 -1.1946262 -0.1203727
-1.9862411 -1.1926876 -0.12141941
-2.0021861 -1.1854455 -0.12194277
-2.0354431 -1.1879882 -0.12351286
-2.0601797 -1.1851348 -0.12455957
-2.1024129 -1.1917295 -0.12665302
-2.1448376 -1.1977881 -0.12874645
-2.1260221 -1.1699384 -0.12717637
-2.168345 -1.1757846 -0.12926981
-6.237535 -1.1966467 -0.33285668
-5.6066909 -1.0391393 -0.29883832
-5.6229396 -1.0056506 -0.29936168
-5.6291475 -0.97029948 -0.29936168
-6.4330449 -1.067726 -0.34175378
-6.5973206 -1.0530305 -0.35012755
-6.8604336 -1.0510225 -0.3637349
-7.1435542 -1.0485007 -0.37838897
-8.1130247 -1.0349885 -0.42863148
-8.7042799 -1.0548763 -0.4595097
-9.1571856 -1.0514289 -0.48306087
-9.1636114 -0.99386972 -0.48306087
-9.1696749 -0.93627614 -0.48306087
-11.728664 0.35040113 -0.6149475
-11.865957 0.42887789 -0.62227452
-11.843074 0.50258142 -0.6212278
-11.849656 0.57746631 -0.62175113
-11.845794 0.65191126 -0.62175113
-11.841464 0.7263242 -0.62175113
-11.836667 0.80071473 -0.62175113
-11.831403 0.87506741 -0.62175113
-11.835625 0.95019096 -0.62227452
-11.829421 1.0245341 -0.62227452
-11.82275 1.0988431 -0.62227452
-11.835565 1.1743003 -0.62332124
-11.81813 1.2465643 -0.62279785
-11.720774 1.3105465 -0.61808765
-8.9850559 1.061859 -0.47416374
-8.651186 1.0775577 -0.45689288
-8.6244411 1.1293024 -0.45584616
-8.6270685 1.1848252 -0.45636952
-8.6491079 1.2432719 -0.45793959
-8.6608772 1.3005548 -0.45898634
-8.5440073 1.3379542 -0.45322937
-8.584713 1.3996435 -0.45584616
-8.5068283 1.4418753 -0.45218265
-8.5074368 1.497025 -0.45270601
-8.5961027 1.5683756 -0.45793959
-8.6449556 1.6334777 -0.46107978
-8.6443214 1.6896811 -0.46160313
-8.6433239 1.7459363 -0.46212649
-8.6321831 1.8002115 -0.46212649
-14.805623 3.7739015 -0.80074012
-14.800941 3.8719115 -0.80178684
-11.694373 4.1021824 -0.64948922
-11.696573 4.1856761 -0.65105927
-1.9603022 1.2901895 -0.1229895
-1.9272643 1.2858108 -0.12141941
-1.9108747 1.2923009 -0.12089606
-1.8944808 1.298635 -0.1203727
-1.869881 1.2991174 -0.11932598
-1.8453515 1.2993414 -0.11827926
-1.8208927 1.29931 -0.11723254
-1.7964234 1.2991395 -0.11618582
-1.5934746 1.3633633 -0.1099055
-1.6149738 1.3996128 -0.11199895
-1.5985204 1.403284 -0.11147559
-1.5971974 1.419865 -0.11199895
-1.5661023 1.4096911 -0.11042886
-1.5424849 1.4060143 -0.10938215
-1.526282 1.408905 -0.10885879
-1.4955142 1.398008 -0.10728871
-1.4794482 1.4005121 -0.10676535
-1.4634109 1.402869 -0.10624199
-1.4474018 1.4050807 -0.10571863
-1.4314238 1.4071461 -0.10519527
-1.4154764 1.4090672 -0.10467191
-1.3925295 1.4037533 -0.10362519
-1.3766934 1.4053417 -0.10310183
-1.3608932 1.4067862 -0.10257848
-1.3451289 1.4080884 -0.10205511
-1.3294028 1.4092479 -0.10153175
-1.3137149 1.4102662 -0.10100839
-1.2980677 1.4111425 -0.10048503
-1.2757463 1.4044869 -0.099438317
-1.2669895 1.4123915 -0.099438317
-1.2515917 1.41274 -0.098914959
-1.2295713 1.4055163 -0.097868234
-1.2207156 1.4132144 -0.097868234
-1.2052397 1.413337 -0.097344875
-1.1897799 1.4133469 -0.096821517
-1.1745551 1.4130629 -0.096298158
-1.1594414 1.4125944 -0.0957748
-1.1441945 1.4121424 -0.095251441
-1.1289376 1.4116042 -0.094728082
-1.1200154 1.4186938 -0.094728082
-1.1049405 1.4178265 -0.094204716
-1.0899217 1.4168255 -0.093681358
-1.0749586 1.4156927 -0.093157999
-1.0660427 1.4224186 -0.093157999
-1.0511453 1.4210603 -0.092634641
-1.0364012 1.4195029 -0.092111282
-1.0275859 1.4258971 -0.092111282
-1.0128504 1.4241649 -0.091587923
1.0116833 0.97936273 -0.073793694
1.0250354 0.97988743 -0.074317053
1.0311719 0.97342765 -0.074317053
1.0372677 0.9669295 -0.074317053
1.0506699 0.96715641 -0.074840419
1.0641158 0.96725285 -0.075363778
1.0776038 0.96721822 -0.075887136
5.2649169 3.8476951 -0.34175378
5.3213863 3.8379049 -0.34384722
5.3616676 3.8159752 -0.34489393
5.5287685 3.6788712 -0.34803411
5.6018653 3.6769392 -0.35117427
5.683537 3.6796601 -0.35483778
5.7652206 3.6818755 -0.35850129
5.8386197 3.6780202 -0.36164144
5.9126711 3.6726222 -0.36478162
5.9955621 3.6713872 -0.36844513
6.0525484 3.6545532 -0.37053856
6.1437201 3.6578522 -0.37472543
6.2270288 3.6542895 -0.37838897
6.3106952 3.6495426 -0.38205248
6.8278656 3.8919797 -0.41188398
6.9563241 3.9082983 -0.41816428
7.0592895 3.9081979 -0.42287451
7.1713753 3.9115851 -0.42810813
7.2573891 3.8995359 -0.43177164
7.2640944 3.844517 -0.43072492
7.2349734 3.7711048 -0.42758477
7.240756 3.7164524 -0.42653805
7.2639642 3.6708841 -0.42653805
7.2690034 3.6162748 -0.4254913
7.3633318 3.6056657 -0.4296782
7.4578104 3.594012 -0.43386507
7.6065702 3.6069849 -0.44119209
7.7467322 3.614006 -0.44799578
7.8872781 3.619406 -0.45479944
8.0099888 3.6149647 -0.46055642
8.1418419 3.6137066 -0.46683672
8.2739058 3.6111271 -0.47311702
8.3881283 3.598623 -0.47835064
8.5209961 3.592402 -0.48463094
8.644887 3.5808299 -0.49038789
9.5089626 3.8689246 -0.53801364
9.6258183 3.8461554 -0.54324722
9.6312008 3.7783051 -0.54220051
9.6363544 3.709909 -0.54115379
9.6504507 3.6449168 -0.5406304
9.6449137 3.5742216 -0.53906035
9.8264236 3.5723996 -0.54795748
9.9896965 3.5611 -0.55580783
10.190995 3.5608497 -0.56575167
10.402124 3.5614424 -0.57621884
10.594721 3.5531695 -0.58563936
10.635812 3.492764 -0.58668607
10.629026 3.4167004 -0.58511597
10.631231 3.343858 -0.58406925
10.613853 3.2652488 -0.58197582
10.614823 3.1934371 -0.5809291
10.615245 3.121973 -0.57988238
10.615389 3.0499299 -0.57883567
10.615112 2.977777 -0.57778895
10.614348 2.9057481 -0.57674223
10.6131 2.8338468 -0.57569551
10.611367 2.7620761 -0.5746488
10.599473 2.6879842 -0.57307869
10.606458 2.6189392 -0.57255536
10.603283 2.5475795 -0.57150865
10.599632 2.4763634 -0.57046193
10.595505 2.4052939 -0.56941521
10.600503 2.3372183 -0.56889182
10.59525 2.2673154 -0.56784511
10.599461 2.1989021 -0.56732178
10.593487 2.1283267 -0.56627506
10.577107 2.0566993 -0.56470495
10.579833 1.9892808 -0.56418163
10.582381 1.920521 -0.56365824
10.584564 1.8513477 -0.56313491
10.576331 1.7812582 -0.56208813
10.577456 1.7131737 -0.5615648
10.578036 1.6458385 -0.56104141
10.410246 1.5537331 -0.55162096
10.004561 1.429206 -0.52963984
10.023238 1.3676677 -0.53016323
10.021731 1.3033752 -0.52963984
10.039634 1.2416071 -0.53016323
10.037318 1.1773386 -0.52963984
10.024667 1.1120473 -0.52859312
10.011592 1.0469614 -0.52754641
10.008034 0.98306018 -0.52702308
10.014013 0.9201588 -0.52702308
10.009646 0.85636973 -0.52649969
10.004823 0.79332745 -0.52597636
10.507534 0.76770717 -0.55214435
13.062946 0.87222028 -0.68612438
13.078136 0.79072922 -0.68664771
13.10279 0.70962352 -0.68769443
13.116965 0.62775999 -0.68821782
13.120615 0.54618955 -0.68821782
13.123747 0.46488628 -0.68821782
13.116444 0.3815549 -0.68769443
13.118608 0.2979888 -0.68769443
13.110241 0.21510807 -0.6871711
13.111334 0.13273016 -0.6871711
13.111906 0.051204257 -0.6871711
13.101985 -0.030012654 -0.68664771
13.101541 -0.11204949 -0.68664771
13.110563 -0.19451442 -0.6871711
13.109082 -0.27688628 -0.6871711
13.107083 -0.35924721 -0.6871711
13.114549 -0.44192854 -0.68769443
13.111513 -0.52432054 -0.68769443
13.107999 -0.60583311 -0.68769443
13.103994 -0.68703604 -0.68769443
13.099435 -0.76907259 -0.68769443
13.10431 -0.85201108 -0.68821782
13.108659 -0.93504119 -0.68874115
13.102525 -1.0173864 -0.68874115
13.095874 -1.0996916 -0.68874115
13.098652 -1.1828514 -0.68926454
13.090961 -1.265129 -0.68926454
13.092688 -1.3483795 -0.68978786
13.08405 -1.4297591 -0.68978786
10.65439 -1.2311054 -0.56208813
10.051699 -1.2252895 -0.53068662
9.4693041 -1.2147249 -0.50033176
8.9667158 -1.2069696 -0.47416374
8.4844131 -1.1956149 -0.4490425
8.1013327 -1.1934118 -0.42915484
7.7186017 -1.186628 -0.40926716
7.3855939 -1.182981 -0.39199629
7.092351 -1.1817636 -0.37681887
6.8191066 -1.1803155 -0.36268818
6.5166831 -1.170188 -0.3469874
6.2735748 -1.1672683 -0.33442676
6.0699944 -1.1688958 -0.32395956
5.8666487 -1.1680127 -0.31349236
5.6733432 -1.1666334 -0.30354854
5.4998317 -1.1670183 -0.29465142
5.3558125 -1.1716728 -0.2873244
5.3581657 -1.2071463 -0.28784776
5.4162483 -1.5449028 -0.29517478
5.4257102 -1.5841477 -0.29622149
2.6200662 -1.1368592 -0.14968084
2.5672908 -1.1329122 -0.14706403
2.2888453 -1.2045385 -0.13555013
2.2725301 -1.2139912 -0.13502677
2.2385483 -1.2139153 -0.13345669
2.2308769 -1.2279565 -0.13345669
1.4646243 -1.2255934 0.44090405
1.4420285 -1.222172 0.43640503
1.4196204 -1.218415 0.43190601
1.3899809 -1.2080125 0.42515749
1.3896977 -1.2231368 0.427407
1.3747115 -1.225361 0.42515749
1.3526062 -1.2208205 0.42065847
1.3306308 -1.2160317 0.41615945
1.3086817 -1.2111102 0.41166043
1.2939367 -1.2126461 0.40941092
1.2792244 -1.2140447 0.40716141
1.2645462 -1.2153063 0.40491191
1.2429199 -1.2096362 0.40041286
1.2352951 -1.2174218 0.40041286
1.2276213 -1.2251593 0.40041286
1.2061925 -1.2189962 0.39591384
-1.229242 -1.1676295 0.39141482
-1.2577904 -1.17997 0.39816335
-1.2722248 -1.1787764 0.40041286
-1.2795868 -1.1707807 0.40041286
-1.265228 -1.1431214 0.39366433
-1.2941978 -1.1546088 0.40041286
-1.3160496 -1.1593359 0.40491191
-1.3306596 -1.1574388 0.40716141
-1.3526893 -1.1617519 0.41166043
-2.0591629 -1.1488677 0.54438156
-2.0918937 -1.1501026 0.55113006
-2.1418157 -1.1603261 0.56237763
-2.1662374 -1.1560564 0.56687665
-2.1734583 -1.1424228 0.56687665
-2.1805935 -1.1287441 0.56687665
-2.2310481 -1.1371442 0.57812423
-3.2519538 -1.2886895 0.80757427
-3.2236636 -1.2541008 0.79857624
-3.210146 -1.1796733 0.7895782
-3.2999945 -1.1892104 0.80982381
-3.3349631 -1.1781896 0.81657231
-3.3607149 -1.1635882 0.82107133
-3.3771057 -1.1458186 0.82332087
-3.7539623 -1.118214 0.90430325
-3.7983363 -1.1054968 0.91330129
-3.8708143 -1.1002579 0.92904782
-3.8682618 -1.0733101 0.92679834
-4.8207998 -0.98584211 1.1360028
-4.9607139 -0.98202413 1.167496
-5.1103354 -0.97831523 1.2012386
-5.2696805 -0.97453851 1.2372308
-5.4579515 -0.97392899 1.2799715
-5.6368122 -0.96934235 1.3204627
-6.1522045 -1.0186658 1.4396868
-6.1487756 -0.97899467 1.4374372
-6.546216 -0.95820093 1.5274177
-6.8222976 -0.95486587 1.5904039
-7.1179004 -0.95068133 1.6578892
-7.4137092 -0.94281447 1.7253746
-7.7580547 -0.93711281 1.8041074
-8.1413307 -0.93154609 1.8918383
-8.5442028 -0.92329633 1.9840683
-8.3179331 1.3595046 1.9458265
-7.9730153 1.354616 1.8670937
-7.666883 1.3522229 1.7973589
-7.3706923 1.3477869 1.7298735
-7.094018 1.3433141 1.6668873
-6.8463883 1.3410345 1.6106495
-6.5990763 1.3357019 1.5544118
-6.3902621 1.3352846 1.507172
-6.1055207 1.3158782 1.4419363
-6.0876207 1.3520999 1.4396868
-6.0505095 1.3838072 1.4329382
-6.0416961 1.4217945 1.4329382
-5.9663501 1.4436879 1.4171916
-5.8909712 1.4646882 1.401445
-3.4068086 1.2936153 0.84131694
-3.407701 1.3185104 0.84356642
-3.4085097 1.3432262 0.84581596
-3.4001217 1.3643198 0.84581596
-3.4095447 1.3929715 0.85031497
-1.9604865 1.2567989 0.537633
-1.9771515 1.2848815 0.54438156
-1.9610153 1.2917475 0.54213202
-1.9204687 1.2823683 0.53313398
-1.9123738 1.294409 0.53313398
-1.8800988 1.289863 0.52638549
-1.8479582 1.2849622 0.51963693
-1.8239183 1.2853228 0.51513791
-1.7999482 1.2854315 0.51063889
-1.7759583 1.285416 0.50613987
-1.6249647 1.3221488 0.48364475
-1.6316855 1.3447 0.48814377
-1.6232047 1.354925 0.48814377
-1.6295408 1.3776792 0.49264279
-1.6208528 1.3878902 0.49264279
-1.6488048 1.430083 0.50389034
-1.4536339 1.4122393 0.46789819
-1.4308398 1.4076785 0.46339917
-1.4081618 1.4028866 0.45890015
-1.3924596 1.4047869 0.45665064
-1.3767903 1.4065448 0.45440114
-1.3679252 1.4151679 0.45440114
-1.3455513 1.4096382 0.44990209
-1.3233007 1.4038844 0.44540307
-1.3078156 1.4050386 0.44315356
-1.2989613 1.4132284 0.44315356
-1.2769594 1.4069318 0.43865454
-1.2616913 1.4075816 0.43640503
-1.2400286 1.4007806 0.43190601
-1.2248131 1.4011881 0.42965651
-1.2096189 1.4014796 0.427407
-1.1943698 1.4017211 0.42515749
-1.1791441 1.4018444 0.42290798
-1.1641644 1.401666 0.42065847
-1.1492783 1.4013184 0.41840896
-1.134243 1.4010011 0.41615945
-1.1252953 1.4081981 0.41615945
-1.1103667 1.4076095 0.41390994
-1.0955145 1.4068701 0.41166043
-1.086653 1.413726 0.41166043
-1.0600812 1.397238 0.40491191
-1.0571213 1.4116707 0.40716141
-1.0366484 1.4026129 0.40266237
-1.0279154 1.4090255 0.40266237
-1.0134715 1.4074605 0.40041286
-1.0046312 1.4137841 0.40041286
1.0064949 0.94938523 0.3194305
1.0195699 0.94968373 0.32168001
1.0326883 0.94985509 0.32392952
1.0458487 0.94989884 0.32617903
5.3374462 4.4925575 1.6106495
5.3655682 4.4589329 1.6106495
5.3633475 4.4004111 1.6016514
5.3681755 4.3482265 1.594903
5.3573408 4.2839861 1.5836554
5.3532605 4.2264709 1.5746573
5.3486056 4.16926 1.5656593
5.3437395 4.1118917 1.5566612
5.353951 4.0664482 1.5521623
5.3482103 4.0093503 1.5431643
5.3654633 3.969872 1.5409147
5.382432 3.9303355 1.5386652
5.4070206 3.8964393 1.5386652
5.4313955 3.8623893 1.5386652
5.5094657 3.6629064 1.5274177
5.5731106 3.6549346 1.5386652
5.6532335 3.6568913 1.5544118
5.7251258 3.6531491 1.5679088
5.7971282 3.6487479 1.5814059
5.8780894 3.6478994 1.5971525
5.9593897 3.6459749 1.6128991
6.0070124 3.6238852 1.6196476
6.0879688 3.6214666 1.6353941
6.1864481 3.6271641 1.6556398
6.2769227 3.6266768 1.6736358
6.3586583 3.6212635 1.6893824
6.4404497 3.6151822 1.7051289
6.5311894 3.6124787 1.7231251
6.6222053 3.6086698 1.7411212
6.7220125 3.6084669 1.7613667
6.8134623 3.602596 1.7793628
6.9223852 3.6047177 1.8018579
7.0316005 3.6056113 1.824353
7.1323986 3.6008813 1.8445987
7.2334118 3.5950255 1.8648442
7.3433824 3.5923226 1.8873394
7.4536018 3.5883777 1.9098344
7.5992799 3.5998735 1.9413276
7.7188973 3.5973303 1.9660722
7.8476357 3.5974848 1.9930663
8.2510796 -1.2187816 1.925581
7.8773193 -1.2141951 1.8400996
7.5328193 -1.2095968 1.7613667
7.1983113 -1.2023246 1.6848834
6.8642049 -1.1908979 1.6084
6.6456151 -1.196034 1.5589107
6.3793468 -1.1895411 1.498174
6.1517015 -1.1871364 1.4464352
5.9434576 -1.1857324 1.3991956
5.7354827 -1.1817598 1.3519558
5.5563917 -1.181301 1.3114647
5.3109155 -1.1640371 1.2552269
5.3130865 -1.1991522 1.2574763
5.3245368 -1.2364568 1.2619754
5.3072066 -1.2675368 1.2597259
2.6274841 -1.141287 0.66135609
2.5668855 -1.1339214 0.64785904
2.5330651 -1.1380062 0.64111048
-1.2759304 -1.2263553 -0.030890759
-1.2763586 -1.2114311 -0.030716235
-1.2546746 -1.1761339 -0.030018138
-1.2692747 -1.1751299 -0.030192662
-3.2945595 -1.2092251 -0.061257947
-3.3397229 -1.2020452 -0.061956041
-3.3566384 -1.1843643 -0.062130567
-5.4789162 -1.1540917 -0.097733475
-5.554635 -1.1336381 -0.09895514
-5.6106925 -1.1084055 -0.099827766
-5.6241779 -1.0378137 -0.099827766
-5.6305881 -1.002454 -0.099827766
-5.6269207 -0.96536732 -0.099653237
-6.4811773 -1.0705578 -0.11466231
-6.665431 -1.058609 -0.11780374
-6.9190483 -1.0544397 -0.12216684
-9.1592464 -1.0443754 -0.16091119
-9.1556854 -0.98573804 -0.16073667
-9.1616993 -0.92818958 -0.16073667
-11.75531 -1.1163839 -0.20611292
-11.871646 -1.0522083 -0.20803268
-11.878022 -0.97759932 -0.20803268
-11.873961 -0.90218788 -0.20785816
-11.842909 -0.60188341 -0.20698553
-11.866388 -0.52938354 -0.20733458
-11.879466 -0.45532733 -0.20750912
-11.862105 -0.38004065 -0.20716006
-11.86426 -0.30549854 -0.20716006
-11.875941 -0.23114525 -0.20733458
-12.57218 0.3853471 -0.21955127
-11.830132 0.43688959 -0.20663649
-11.837143 0.51164013 -0.20681101
-11.863653 0.58749133 -0.20733458
-8.9753218 1.0678542 -0.15776975
-8.6509676 1.0844331 -0.15218498
-8.6538963 1.1400707 -0.1523595
-8.6465626 1.1944243 -0.1523595
-8.6586781 1.2515869 -0.15270856
-8.6605291 1.3074608 -0.15288308
-8.5731287 1.3494111 -0.15148689
-8.6434164 1.4161863 -0.15288308
-8.545639 1.4553565 -0.15131237
-8.5658627 1.5142452 -0.15183593
-8.55618 1.5680336 -0.15183593
-8.6247435 1.6366775 -0.15323213
-8.6241016 1.6927593 -0.15340665
-8.6426926 1.7528769 -0.15393022
-8.6217222 1.8050945 -0.15375569
-1.9449972 1.2822763 -0.040664107
-1.9202904 1.2833394 -0.040315058
-1.8956336 1.2841636 -0.03996601
-1.8545573 1.2734109 -0.039267913
-1.8383132 1.2793264 -0.03909339
-1.813897 1.2793267 -0.038744342
-1.797689 1.284884 -0.038569819
-1.7732869 1.2845594 -0.038220771
-1.6171227 1.3857968 -0.037173625
-1.6082768 1.396053 -0.037173625
-1.5843337 1.3930653 -0.036824577
-1.5681742 1.39624 -0.036650054
-1.5446407 1.39254 -0.036301006
-1.528492 1.3954595 -0.03612648
-1.5050112 1.3914601 -0.035777431
-1.4889396 1.3940556 -0.035602909
-1.4728959 1.3965037 -0.035428386
-1.3632852 1.393842 -0.034032192
-1.3545002 1.4023806 -0.034032192
-1.3387616 1.4036279 -0.03385767
-1.3230604 1.4047337 -0.033683144
-1.307399 1.4056972 -0.033508621
-1.2917775 1.4065205 -0.033334095
-1.2761981 1.4072025 -0.033159573
-1.2540979 1.4002006 -0.032810524
-1.2387737 1.4004552 -0.032635998
-1.2299653 1.4081975 -0.032635998
-1.2080337 1.4007542 -0.032286953
-1.1926194 1.4007955 -0.032112427
-1.177238 1.4007107 -0.031937905
-1.1621213 1.400309 -0.031763379
-1.1470851 1.3997493 -0.031588856
-1.1318876 1.3992298 -0.03141433
-1.1229503 1.4064124 -0.03141433
-1.1078868 1.4055998 -0.031239808
-1.0928938 1.4046416 -0.031065283
-1.0779561 1.4035513 -0.030890759
-1.0691165 1.4102963 -0.030890759
-1.0542439 1.4089806 -0.030716235
-1.039431 1.4075334 -0.030541711
-1.0306748 1.4139578 -0.030541711
-1.0160546 1.4122007 -0.030367186
-1.0013887 1.4103932 -0.030192662
1.0053576 0.95956635 -0.024258845
1.0186429 0.96008837 -0.024433369
1.0246551 0.95366913 -0.024433369
1.0379887 0.95397806 -0.024607893
1.0513661 0.95415676 -0.024782417
1.0647866 0.9542048 -0.024956942
5.1135554 3.8303022 -0.11152087
5.1938004 3.839704 -0.11274254
5.2582088 3.8364608 -0.11361516
5.3390083 3.844243 -0.11483683
5.3793573 3.8222041 -0.11518588
5.5300751 3.6734779 -0.11588398
5.6032252 3.6715386 -0.11693112
5.6849647 3.6742508 -0.11815279
5.7666759 3.6765199 -0.11937446
5.8316641 3.6673331 -0.12024708
5.9143124 3.6671183 -0.12146875
5.9972701 3.6658695 -0.12269042
6.0542002 3.6491556 -0.12338851
6.1454539 3.652441 -0.1247847
6.228909 3.6487279 -0.12600638
6.3126421 3.6439629 -0.12722804
6.8565903 3.9013212 -0.13769948
6.9591174 3.9027801 -0.1392702
7.0709715 3.907413 -0.14101544
7.1656342 3.9011545 -0.14241163
7.2516832 3.8891337 -0.14363331
7.2759762 3.8434935 -0.14363331
7.2733717 3.7838581 -0.14310972
7.2614079 3.7198491 -0.14241163
7.2667823 3.6651459 -0.14206259
7.2717566 3.6105223 -0.14171354
7.38413 3.6086626 -0.14345878
7.5147843 3.6141984 -0.14555307
7.6006079 3.5968487 -0.14677474
7.7590213 3.6123219 -0.14939259
7.8906522 3.6134551 -0.15148689
7.9861331 3.5966518 -0.15288308
8.1271477 3.599653 -0.15515189
8.2684631 3.6011298 -0.15742071
8.3828049 3.5885451 -0.15916595
8.5157804 3.5823276 -0.16126023
8.6674862 3.5822179 -0.16370358
9.5328655 3.8699265 -0.17958526
9.6405811 3.843277 -0.18115598
9.6552277 3.7789836 -0.18098146
9.6510639 3.7067506 -0.18045788
9.6464128 3.6346173 -0.17993431
9.6406908 3.5641677 -0.17941074
9.8317785 3.5657268 -0.18255217
9.9858389 3.5508881 -0.1849955
10.215665 3.5604694 -0.18883504
10.398687 3.5511436 -0.19180195
10.600953 3.546 -0.19511791
10.613522 3.4762118 -0.19494338
10.60659 3.4002998 -0.1944198
10.608665 3.327605 -0.19407076
10.600688 3.2520862 -0.19354719
10.601515 3.1804817 -0.19319813
10.601829 3.109107 -0.19284908
10.601897 3.0370419 -0.19250004
10.591883 2.9622896 -0.19197647
10.590995 2.8904159 -0.19162741
10.579961 2.8160985 -0.19110385
10.587768 2.7470565 -0.19092932
10.585432 2.6755774 -0.19058028
10.592325 2.6066253 -0.19040576
10.579323 2.5330362 -0.18988217
10.585292 2.4642477 -0.18970765
10.581061 2.3932784 -0.18935861
10.57618 2.3232682 -0.18900956
10.570815 2.253525 -0.18866052
10.565159 2.1831315 -0.18831146
10.568863 2.1147439 -0.18813694
10.562153 2.0453036 -0.18778789
10.574622 1.9798219 -0.18778789
10.5673 1.9090935 -0.18743885
10.559546 1.8383075 -0.1870898
10.561047 1.7701557 -0.18691526
10.56209 1.7021732 -0.18674074
10.562571 1.6350549 -0.18656622
10.364806 1.5387449 -0.18290122
10.007987 1.4216745 -0.17644383
10.046446 1.3627967 -0.1769674
10.034978 1.297083 -0.17661835
10.023082 1.2315674 -0.17626931
10.010759 1.1662525 -0.17592025
10.007952 1.1022357 -0.17574573
10.004734 1.0383004 -0.1755712
10.001109 0.97444898 -0.17539668
10.007034 0.91159254 -0.17539668
10.002602 0.84785432 -0.17522216
10.007671 0.78575331 -0.17522216
10.55086 0.76265711 -0.18464646
13.079563 0.86301225 -0.22880104
13.084727 0.78081429 -0.22880104
13.089375 0.69858551 -0.22880104
13.093506 0.61632913 -0.22880104
13.097078 0.5350495 -0.22880104
13.09015 0.45354435 -0.22862652
13.092766 0.37043196 -0.22862652
13.09486 0.2870169 -0.22862652
13.096407 0.20459121 -0.22862652
13.097434 0.12230044 -0.22862652
13.09794 0.041005932 -0.22862652
13.087945 -0.040118232 -0.228452
13.097434 -0.12230147 -0.22862652
13.096407 -0.20459226 -0.22862652
13.094863 -0.28687498 -0.22862652
13.092802 -0.36914635 -0.22862652
13.090224 -0.45140141 -0.22862652
13.08713 -0.53364038 -0.22862652
13.083565 -0.61485833 -0.22862652
13.089489 -0.69644272 -0.22880104
13.094844 -0.77912319 -0.22897556
13.079713 -0.8607282 -0.22880104
13.08402 -0.94361228 -0.22897556
13.077832 -1.0258026 -0.22897556
13.091054 -1.1096413 -0.22932462
13.083824 -1.1918726 -0.22932462
13.086028 -1.2750263 -0.22949915
13.067814 -1.3561906 -0.22932462
13.069083 -1.4383665 -0.22949915
10.616772 -1.2350926 -0.18656622
10.003448 -1.2273831 -0.17592025
9.4104824 -1.2146938 -0.16562334
8.9073582 -1.2060039 -0.15689713
8.4641342 -1.1994444 -0.14921807
8.0608215 -1.1939129 -0.14223711
7.6776757 -1.1865093 -0.1356052
7.3541851 -1.1838748 -0.13002042
7.0310426 -1.1772242 -0.12443566
6.7772412 -1.1785518 -0.12007255
6.4941912 -1.1714146 -0.11518588
6.2508225 -1.1681157 -0.1109973
6.0372114 -1.1675016 -0.1073323
5.8238626 -1.164251 -0.10366729
5.6401768 -1.1644317 -0.10052586
5.4665046 -1.1644347 -0.097558953
5.3321252 -1.1708804 -0.095290139
5.354012 -1.2105681 -0.095813707
5.3190546 -1.2725744 -0.095464662
5.3109536 -1.3059698 -0.095464662
5.3909082 -1.3976978 -0.097209901
5.3628039 -1.425992 -0.096860856
2.6132107 -1.1362902 -0.049739357
2.5512545 -1.1281974 -0.048692212
2.507653 -1.1277733 -0.047994118
2.300806 -1.231388 -0.045550779
2.2403238 -1.2171559 -0.044503637
2.2151213 -1.2215517 -0.044154588
4.0173225 -3.1576321 1.3691528
3.952064 -3.1467113 1.3536236
1.4137065 -1.2152419 0.49952075
1.40615 -1.2239776 0.49952075
1.3911929 -1.2263932 0.49693257
1.3690488 -1.2222444 0.49175617
1.3542774 -1.2242334 0.48916799
1.3324155 -1.2195578 0.48399159
1.3176492 -1.2213317 0.48140341
1.295864 -1.2163652 0.47622705
1.2811947 -1.2178285 0.47363883
3.2702739 -4.0510845 1.3950347
3.2450886 -4.0712872 1.3950347
-1.2545407 -1.1897873 0.46328607
-1.2548451 -1.1753813 0.46069789
-3.3525281 -1.1814344 0.95245409
-3.3781452 -1.1666528 0.95763046
-4.8365765 -0.98511302 1.3225653
-4.9943008 -0.98459619 1.3639764
-5.1237373 -0.97671151 1.3976228
-5.300766 -0.97598088 1.4442103
-5.4684696 -0.97137648 1.4882095
-5.6363192 -0.96469909 1.5322087
-5.8709302 -0.96742231 1.5943253
-6.0866976 -0.96427798 1.6512655
-6.3122716 -0.95943362 1.7107939
-6.5666966 -0.95592982 1.7780868
-6.8213167 -0.94926882 1.8453797
-7.1239791 -0.94579709 1.9256136
-7.3342648 1.3470814 1.998083
-7.0789371 1.3462161 1.9307901
-6.8239193 1.3422011 1.8634971
-6.5976391 1.3408039 1.8039687
-6.3905606 1.3405877 1.7496167
-6.183754 1.3378205 1.6952647
-5.9866695 1.3346142 1.6435009
-5.8181205 1.3354652 1.5995017
-5.6310015 1.3298155 1.5503261
-5.4723511 1.3287029 1.5089151
-5.2587218 1.34703 1.454563
-5.2594962 1.3825018 1.4571512
-5.2507062 1.4155194 1.4571512
-5.1299844 1.4176103 1.4260929
-5.1023884 1.4445509 1.4209166
-3.4033587 1.2953634 0.97574776
-3.4131634 1.3237079 0.98092419
-1.9833153 1.2910728 0.63410664
-1.9591529 1.2926973 0.62893027
-1.9349418 1.2942301 0.62375391
-1.9027866 1.2901008 0.61598933
-1.8787222 1.2910889 0.61081296
-1.8547204 1.291827 0.60563654
-1.8228934 1.2867435 0.59787196
-1.7990599 1.2869326 0.59269559
-1.7673715 1.2813482 0.58493102
-1.6323298 1.3302439 0.56422549
-1.623947 1.3404647 0.56422549
-1.6303133 1.3630334 0.56940186
-1.6143459 1.3670076 0.56681371
-1.6203886 1.3897007 0.57199007
-1.633387 1.4189897 0.57975465
-1.6098118 1.4166037 0.57457829
-1.5865649 1.4137161 0.56940186
-1.5706033 1.4170489 0.56681371
-1.5402839 1.4073342 0.55904913
-1.5243207 1.4104246 0.55646092
-1.5013322 1.4067647 0.55128455
-1.4854563 1.4095218 0.54869634
-1.4696062 1.4121344 0.54610819
-1.4468586 1.4078683 0.54093182
-1.4379846 1.4169309 0.54093182
-1.4222155 1.4191158 0.53834361
