# .PCD v0.7 - Point Cloud Data file format
VERSION 0.7
FIELDS x y z
SIZE 4 4 4
TYPE F F F
COUNT 1 1 1
WIDTH 1493
HEIGHT 1
VIEWPOINT 0 0 0 1 0 0 0
POINTS 1493
DATA ascii
-2.2617917 -1.119352 -0.58262324
-2.3037333 -1.1223623 -0.59162128
-2.3370981 -1.1205027 -0.59836978
-2.3705416 -1.1182417 -0.60511833
-2.4041333 -1.1154199 -0.61186683
-2.437772 -1.1122422 -0.61861539
-2.4713819 -1.1088696 -0.62536395
-2.5139592 -1.1090509 -0.63436198
-2.5476959 -1.1048635 -0.64111048
-2.581466 -1.1003237 -0.64785904
-2.6151948 -1.0956025 -0.65460753
-2.666995 -1.0978951 -0.66585511
-2.7009406 -1.0920736 -0.67260367
-2.743973 -1.0894639 -0.6816017
-2.7870777 -1.0863562 -0.69059974
-2.8393509 -1.0862306 -0.70184726
-2.8826084 -1.0820662 -0.71084529
-2.9350679 -1.0807673 -0.72209287
-2.8155956 1.3620214 -0.72209287
-2.7632604 1.3581942 -0.71084529
-2.7198024 1.3581184 -0.70184726
-2.3999307 1.454308 -0.64785904
-2.3575404 1.4489514 -0.638861
-2.3318522 1.4534268 -0.63436198
-2.2897282 1.4472268 -0.62536395
-2.2559793 1.4458119 -0.61861539
-2.2305095 1.4493407 -0.61411637
-2.196949 1.4472456 -0.60736781
-2.1472969 1.4339654 -0.5961203
-2.1382451 1.4474283 -0.5961203
-2.1050048 1.4442976 -0.58937174
-2.0878894 1.4519316 -0.58712226
-2.0548317 1.4481827 -0.5803737
-2.0219052 1.4440752 -0.57362521
-2.0048828 1.4510598 -0.57137567
-1.9798852 1.452276 -0.56687665
-1.9471496 1.4473993 -0.56012809
-1.922451 1.4478807 -0.55562907
-1.8900928 1.4421786 -0.54888058
-1.8734112 1.4479036 -0.54663104
-1.8490429 1.4474921 -0.54213202
-1.8170085 1.440918 -0.53538352
-1.8003224 1.4462044 -0.53313398
-1.7685272 1.4390379 -0.52638549
-1.7444121 1.4377277 -0.52188641
-1.7203847 1.4361708 -0.51738739
-1.6964303 1.4343883 -0.51288837
-1.6798582 1.4388274 -0.51063889
-1.6559544 1.4367107 -0.50613987
-1.6322559 1.4342235 -0.50164086
-1.6159489 1.437956 -0.49939135
-1.5925307 1.4348963 -0.4948923
-1.583594 1.4447532 -0.4948923
-1.531545 1.4150013 -0.48139524
-1.5368538 1.4379107 -0.48589426
-1.5207162 1.4408365 -0.48364475
-1.4975711 1.4368716 -0.47914574
-1.4815255 1.4394624 -0.47689623
-1.465506 1.4419094 -0.47464672
-1.4564177 1.4510885 -0.47464672
-1.433553 1.4463704 -0.4701477
-1.4176217 1.4483852 -0.46789819
-1.3949498 1.443252 -0.46339917
-1.379127 1.4449394 -0.46114966
-1.3700051 1.4535911 -0.46114966
-1.3474416 1.4480233 -0.45665064
-1.3316295 1.4493731 -0.45440114
-1.3095282 1.4431645 -0.44990209
-1.3005457 1.4512646 -0.44990209
-1.2720308 1.4375161 -0.44315356
-1.2629732 1.4454803 -0.44315356
-1.2475017 1.4460094 -0.44090405
-1.2257546 1.4389845 -0.43640503
-1.2166893 1.4466574 -0.43640503
-1.2013508 1.4467776 -0.43415552
-1.1860597 1.4467617 -0.43190601
-1.1646858 1.4390379 -0.427407
-1.1556215 1.4463271 -0.427407
-1.1344271 1.4382713 -0.42290798
-1.1252412 1.4454693 -0.42290798
-1.1041692 1.4371306 -0.41840896
-1.0952435 1.4439445 -0.41840896
-1.07458 1.4351155 -0.41390994
-1.0655421 1.4418386 -0.41390994
-1.0507197 1.4406331 -0.41166043
-1.0359557 1.439298 -0.40941092
-1.0212339 1.4378459 -0.40716141
-1.0064623 1.4363426 -0.40491191
2.6956806 -1.6053145 -0.72434241
2.6439793 -1.5967997 -0.71309483
2.6506357 -1.6233573 -0.71759385
2.6321065 -1.6348386 -0.71534437
2.6217828 -1.6513442 -0.71534437
1.7131634 -1.1714908 -0.47914574
1.7057689 -1.1822317 -0.47914574
1.6823734 -1.1817064 -0.47464672
1.6591424 -1.1808081 -0.4701477
1.635975 -1.1796852 -0.46564868
1.6049286 -1.1726955 -0.45890015
1.5896977 -1.1769586 -0.45665064
1.5666825 -1.1752298 -0.45215163
1.5437651 -1.1732419 -0.44765258
1.5287452 -1.1768408 -0.44540307
1.5060437 -1.1743237 -0.44090405
7.8982325 -14.050054 0.8447023
7.785604 -14.055723 0.84208554
7.7545414 -14.209556 0.84836584
7.7171226 -14.354752 0.85412282
7.6828561 -14.508861 0.86040312
7.6007786 -14.574555 0.86144984
7.486485 -14.577484 0.85883301
2.8148751 -6.4422297 0.36844513
2.7664604 -6.4414372 0.36739841
2.7181671 -6.4402914 0.36635169
2.6661725 -6.4295692 0.36478162
2.6257219 -6.4461942 0.36478162
2.5814586 -6.4532928 0.36425826
2.5336659 -6.4507532 0.36321154
2.4828701 -6.438375 0.36164144
2.4357545 -6.4349957 0.36059472
2.391798 -6.4408112 0.36007136
2.3410294 -6.4275622 0.35850129
2.2938809 -6.4233356 0.35745457
2.2435787 -6.4093447 0.35588449
1.7491753 -6.3753233 0.34646404
1.7169346 -6.4151001 0.34803411
1.6721091 -6.4062901 0.3469874
1.6223276 -6.3778682 0.34489393
1.572064 -6.3492994 0.3428005
1.527012 -6.3397427 0.34175378
1.4848708 -6.339489 0.34123042
1.4406815 -6.329195 0.34018371
1.3992816 -6.3282495 0.33966035
1.3557507 -6.3172922 0.33861363
1.311965 -6.3061318 0.33756691
1.270344 -6.304461 0.33704355
1.228796 -6.3025165 0.3365202
1.1873227 -6.3002992 0.33599684
1.1459258 -6.2978101 0.33547348
1.1047111 -6.2950315 0.33495012
1.0640203 -6.2919092 0.33442676
1.0233085 -6.2885408 0.3339034
-1.41581 -1.1868478 0.096821517
-1.4386256 -1.190663 0.097868234
-4.9699621 -0.85564226 0.26429656
-5.1032557 -0.84598333 0.27110025
-6.5031714 -0.86915505 0.34384722
-6.528317 -0.83079708 0.34489393
-6.5334082 -0.78976399 0.34489393
-7.2525864 -0.83049619 0.38257584
-10.071397 -0.70647162 0.52911651
-10.065671 -0.64253867 0.52859312
-12.722357 0.068278007 0.66676009
-12.741651 0.14823888 0.6678068
-12.710533 0.22665007 0.6662367
-12.688913 0.30512401 0.66518998
-12.723006 0.86680686 0.66833013
-12.717308 0.94673377 0.66833013
-12.701155 1.0258125 0.6678068
-12.694477 1.1053894 0.6678068
-12.687385 1.1840241 0.6678068
-12.689721 1.2638055 0.66833013
-12.681531 1.3435087 0.66833013
-12.672838 1.4231656 0.66833013
-12.673563 1.5039363 0.66885352
-12.663863 1.58354 0.66885352
-10.070844 1.3880404 0.53278005
-9.5183029 1.3728776 0.50399524
-9.4699898 1.4267071 0.50190181
-9.4904346 1.4908271 0.50347191
-9.5005903 1.5536534 0.50451863
-9.4906416 1.6133139 0.50451863
-9.3918076 1.6572973 0.49980837
-9.4205027 1.7234608 0.50190181
-9.3898354 1.7790571 0.50085509
-9.4371099 1.8503653 0.50399524
-9.4741297 1.9200557 0.50661206
-9.4620504 1.9787213 0.50661206
-9.4495764 2.0374618 0.50661206
-9.4560862 2.1011245 0.50765878
-15.582047 3.6683652 0.83894539
-15.568395 3.7685509 0.83946872
-15.554101 3.8687012 0.83999211
-15.548837 3.9713004 0.84103882
-15.542898 4.0739775 0.84208554
-12.589238 3.5568297 0.685601
-12.60533 3.6458638 0.68769443
-2.7867098 1.3710786 0.16276482
-2.7333767 1.3662374 0.16014802
-2.4334822 1.4759459 0.14915748
-2.390137 1.4702781 0.14706403
-2.346961 1.4641235 0.1449706
-2.3123968 1.4628253 0.14340052
-2.2863488 1.4665415 0.1423538
-2.2519739 1.4645454 0.14078373
-2.217716 1.4621748 0.13921364
-2.1918797 1.4649824 0.13816692
-2.1495619 1.4563198 0.13607349
-2.1239045 1.4584916 0.13502677
-2.0901093 1.454693 0.13345669
-2.0564463 1.4505291 0.1318866
-2.0310438 1.4518064 0.13083988
-1.997595 1.4469982 0.12926981
-1.9802867 1.4537843 0.12874645
-1.9549854 1.4544157 0.12769973
-1.9298595 1.4546481 0.12665302
-1.9048319 1.4545922 0.1256063
-1.715212 1.4514412 0.1177559
-1.6907673 1.4493394 0.11670918
-1.6664436 1.4469582 0.11566246
-1.5453811 1.447027 0.11095223
-1.5290126 1.4498366 0.11042886
-1.5126692 1.4524988 0.1099055
-1.4963539 1.4550122 0.10938215
-1.4729505 1.4503725 0.10833543
-1.4567374 1.4525471 0.10781207
-1.4405545 1.4545761 0.10728871
-1.4174224 1.4493192 0.10624199
-1.4013504 1.4510137 0.10571863
-1.385314 1.4525629 0.10519527
-1.3624426 1.4467216 0.10414855
-1.353199 1.4553713 0.10414855
-1.330441 1.4492055 0.10310183
-1.3147284 1.4500232 0.10257848
-1.2923719 1.4432831 0.10153175
-1.2832785 1.4513744 0.10153175
-1.2609981 1.4443637 0.10048503
-1.2453781 1.444694 0.099961676
-1.2298033 1.4448861 0.099438317
-1.2078514 1.437294 0.098391593
-1.1924199 1.4371697 0.097868234
-1.1833668 1.4446331 0.097868234
-1.1617072 1.4365103 0.096821517
-1.1526588 1.4437809 0.096821517
-1.1373589 1.4431705 0.096298158
-1.1220113 1.442504 0.0957748
-1.1067654 1.4416648 0.095251441
-1.0917796 1.440536 0.094728082
-1.0768275 1.4392943 0.094204716
-1.0618312 1.4379979 0.093681358
-1.0468934 1.4365709 0.093157999
-1.0378469 1.44312 0.093157999
-1.0171766 1.4333413 0.092111282
-1.0080253 1.4397918 0.092111282
1.5406383 6.1821795 0.3339034
1.5847404 6.1916399 0.33495012
1.6256087 6.1913614 0.33547348
1.6640396 6.1811433 0.33547348
1.9587895 6.4603076 0.35379106
1.904799 6.1426167 0.33704355
1.955965 6.1684346 0.33913699
1.9981991 6.1653819 0.33966035
2.0400362 6.1621852 0.34018371
2.0787137 6.1492457 0.34018371
2.1238241 6.1549439 0.34123042
2.165771 6.1508975 0.34175378
2.2043755 6.1371684 0.34175378
2.2497621 6.1419506 0.3428005
2.2918022 6.1370492 0.34332386
2.3374214 6.1411943 0.34437057
2.383183 6.1450081 0.34541729
2.4217458 6.1299129 0.34541729
2.4676685 6.1331048 0.34646404
2.5099406 6.12672 0.3469874
2.5522301 6.1200457 0.34751076
2.5984359 6.1222739 0.34855747
2.6447701 6.1241627 0.34960419
2.6912303 6.12571 0.35065091
2.7337401 6.1177969 0.35117427
2.7762566 6.1095915 0.35169762
2.9124293 6.1012387 0.35431442
2.9594238 6.1007891 0.35536113
3.0065272 6.0999889 0.35640785
3.0537372 6.0988374 0.35745457
3.1010511 6.097332 0.35850129
3.143883 6.0866003 0.35902464
3.1913412 6.0844135 0.36007136
3.2388954 6.0818706 0.36111808
3.2865436 6.0789695 0.36216483
3.3150649 6.0406904 0.36111808
3.2071733 5.7580142 0.34541729
3.2039757 5.668201 0.34123042
3.2246208 5.6219702 0.33966035
3.249835 5.5843363 0.33861363
3.2797811 5.5552077 0.33809027
3.3197515 5.5430579 0.33861363
3.349329 5.513555 0.33809027
3.3996203 5.5179086 0.33966035
3.4765556 5.5641918 0.34384722
3.5007582 5.5253668 0.3428005
3.5569956 5.53687 0.34489393
2.6332426 3.6784134 0.23708187
2.6504984 3.6536691 0.23655851
2.6618896 3.6206186 0.23551179
2.7146132 3.6437163 0.2381286
4.6916614 5.8253541 0.39199629
4.6839819 5.7415948 0.38833278
4.681798 5.6658621 0.38519263
4.6788487 5.5903854 0.38205248
4.6751375 5.5151715 0.37891233
4.6771722 5.4478035 0.37629551
4.6719055 5.3731699 0.37315536
4.6655135 5.2991481 0.3700152
4.6584702 5.225338 0.36687505
4.6577487 5.1589041 0.36425826
4.6564612 5.0926108 0.36164144
4.654881 5.0262098 0.35902464
4.652564 4.960113 0.35640785
4.6492496 4.8945799 0.35379106
4.6522193 4.8364825 0.35169762
4.6476755 4.771389 0.34908083
4.6424222 4.7066207 0.34646404
4.6432681 4.6495023 0.34437057
4.6365604 4.5854568 0.34175378
4.6367025 4.5283246 0.33966035
4.6363106 4.4713726 0.33756691
4.6281557 4.4077187 0.33495012
4.6266603 4.3511863 0.33285668
4.6319556 4.3016434 0.33128661
4.6220922 4.2387075 0.32866979
4.6264267 4.1894732 0.32709971
4.6228814 4.1336956 0.32500628
4.6188188 4.0781298 0.32291284
4.6218352 4.0292654 0.32134277
4.6171331 3.9736836 0.31924933
4.6194582 3.9248679 0.31767926
4.6134238 3.8700936 0.31558582
4.6453404 3.8474002 0.31610918
4.6616917 3.8118155 0.31558582
4.6777177 3.7762539 0.31506246
4.701025 3.7471991 0.31506246
4.6765041 3.6330276 0.31035221
4.6754651 3.5853422 0.30878213
5.0717564 3.739563 0.33023989
4.8529105 3.5313487 0.3145391
4.9236717 3.535737 0.31767926
4.9946775 3.5393744 0.32081941
5.0413694 3.5250897 0.32238948
5.0962982 3.5160284 0.32448292
5.1595654 3.5120349 0.32709971
5.2146921 3.5018163 0.32919315
5.2782178 3.496558 0.33180997
5.3418818 3.4906383 0.33442676
5.4056783 3.4840555 0.33704355
5.4696012 3.4768081 0.33966035
5.5505667 3.4795022 0.34332386
6.0055332 3.712352 0.3700152
6.0969577 3.7161241 0.37420207
6.188664 3.7188921 0.37838897
6.280643 3.7206528 0.38257584
6.3556385 3.7113314 0.38571599
6.456728 3.7161582 0.39042622
6.488636 3.6804433 0.39094958
6.5116324 3.6396015 0.39094958
6.4993825 3.5793462 0.38885614
6.5041885 3.5289142 0.38780943
6.5085611 3.4786701 0.38676271
6.5034809 3.4243193 0.38519263
6.5601435 3.4021356 0.38728607
6.6884136 3.4147666 0.39356637
6.7902818 3.4125576 0.39827663
6.8831959 3.4052513 0.4024635
6.9942403 3.4056544 0.40769708
7.4567838 3.5730925 0.43334171
7.6195726 3.362618 0.43648186
7.723002 3.3504465 0.44119209
7.8265753 3.3371077 0.44590235
7.9394941 3.3264563 0.45113593
8.7451801 3.5995948 0.4956215
8.8787241 3.5894918 0.50190181
8.8825388 3.5262651 0.50085509
8.867301 3.4558799 0.49876165
8.8795128 3.3965294 0.4982383
8.8819799 3.3336527 0.49719158
8.9308643 3.288131 0.49876165
9.0828466 3.2794309 0.50608867
9.2727232 3.2822781 0.51550919
9.4441185 3.27632 0.52388293
9.6063433 3.2651219 0.53173333
9.7593203 3.2488587 0.53906035
9.8554983 3.2122335 0.54324722
9.8469448 3.1411419 0.54167712
9.8474207 3.0732598 0.5406304
9.8474331 3.005496 0.53958368
9.8374147 2.9349985 0.53801364
9.8364868 2.8675408 0.53696692
9.8254509 2.7976372 0.53539681
9.8137321 2.7286801 0.53382677
9.8112621 2.6622715 0.53278005
9.818368 2.5971611 0.53225666
9.8056202 2.5274062 0.53068662
9.8017206 2.4617376 0.52963984
9.7974234 2.3960555 0.52859312
9.7928543 2.3298266 0.52754641
9.7878408 2.2637501 0.52649969
9.7823849 2.1978288 0.52545297
9.7764864 2.132067 0.52440625
9.7799196 2.068531 0.52388293
9.7731247 2.0031915 0.52283621
9.7657585 1.9387103 0.52178949
9.7678375 1.8759626 0.5212661
9.7599525 1.8100566 0.52021939
9.7613974 1.7464067 0.51969606
9.7523489 1.6824965 0.51864934
9.7527618 1.6202441 0.51812595
9.7528877 1.5573593 0.51760262
9.7427378 1.4930243 0.51655591
9.7420464 1.4303291 0.51603252
9.7409515 1.3677015 0.51550919
9.531601 1.2772906 0.50399524
9.499814 1.2123202 0.50190181
9.1701784 1.1117435 0.48410758
9.186903 1.0552447 0.48463094
9.1734962 0.99534667 0.48358423
9.1895037 0.9387033 0.48410758
9.1852798 0.87999338 0.48358423
9.1806669 0.8215239 0.48306087
9.1656771 0.76296848 0.48201415
9.1602831 0.7052483 0.48149079
9.1545725 0.64697492 0.48096743
9.1484909 0.58880115 0.48044407
9.1420403 0.53072941 0.47992072
9.2548971 0.47895533 0.48567766
9.8363314 0.44709569 0.51603252
12.2438 0.47945544 0.64216214
12.23659 0.40218824 0.64163882
12.238875 0.32529593 0.64163882
12.250663 0.24859335 0.64216214
12.232012 0.17133753 0.64111543
12.232847 0.094478525 0.64111543
12.233199 0.017816154 0.64111543
12.233074 -0.057980325 0.64111543
12.222492 -0.13386393 0.6405921
12.22141 -0.2106571 0.6405921
12.219845 -0.28744194 0.6405921
12.217798 -0.36421546 0.6405921
12.215268 -0.44097456 0.6405921
12.212256 -0.51771629 0.6405921
12.198789 -0.59395194 0.64006871
12.204786 -0.67113537 0.6405921
12.190373 -0.74699605 0.64006871
12.185512 -0.82251251 0.64006871
12.180166 -0.89819527 0.64006871
12.184237 -0.9755044 0.6405921
12.177867 -1.0520406 0.6405921
12.171017 -1.1285353 0.6405921
12.173624 -1.2059681 0.64111543
12.175737 -1.28348 0.64163882
12.167433 -1.3599567 0.64163882
12.158648 -1.4363798 0.64163882
12.159292 -1.5139799 0.64216214
12.159442 -1.5916449 0.64268553
12.149228 -1.6678141 0.64268553
12.158431 -1.7458968 0.64373225
12.147351 -1.8213936 0.64373225
12.145534 -1.8992242 0.64425564
9.3636818 -1.5245523 0.49719158
8.8714533 -1.5016879 0.47154695
8.3995714 -1.4761584 0.44694906
7.9971499 -1.4572936 0.42601466
7.6051259 -1.4352849 0.40560365
7.3117218 -1.4275464 0.39042622
6.9991488 -1.4122283 0.37420207
6.6968451 -1.3950789 0.35850129
6.4731517 -1.3909727 0.3469874
6.2302833 -1.3797938 0.33442676
6.0267649 -1.3745021 0.32395956
5.7749557 -1.3553007 0.31087556
5.5819035 -1.3469564 0.30093175
5.4086704 -1.3406708 0.29203463
5.2357144 -1.332377 0.28313753
5.0726447 -1.3248703 0.27476376
4.9291959 -1.3204566 0.26743674
4.4675813 -1.5337334 0.24754907
4.4578562 -1.5617737 0.24754907
4.4761667 -1.5998352 0.24911915
9.2329006 -4.0351939 0.52806979
9.2256155 -4.1012392 0.52911651
9.254262 -4.1838074 0.53225666
9.273159 -4.2627254 0.53487349
9.2733345 -4.3335896 0.53644353
9.2549429 -4.3960547 0.53696692
9.2271395 -4.4541168 0.53696692
9.3424253 -4.5823669 0.54534066
9.4271584 -4.770586 0.55371439
9.432869 -4.8473144 0.55580783
9.4376402 -4.9249673 0.55790126
9.4241571 -4.9935193 0.55894798
9.4189796 -5.0668268 0.56051809
9.4220171 -5.145052 0.56261152
9.4157076 -5.2186737 0.56418163
9.4001398 -5.2875228 0.56522834
9.2539835 -5.282125 0.55842465
9.1169128 -5.280107 0.55214435
9.341588 -5.567944 0.56993854
9.3240032 -5.6360488 0.57098526
9.3058386 -5.7043004 0.57203197
9.3715868 -5.8259258 0.57831228
9.3770361 -5.9113216 0.5809291
9.3733654 -5.9916363 0.58302253
9.3606758 -6.0667048 0.58459264
9.3557558 -6.1473346 0.58668607
9.3418808 -6.2226057 0.58825612
1.2834858 -1.2584871 0.094204716
1.2827505 -1.2734512 0.094728082
1.2677715 -1.274316 0.094204716
1.2457426 -1.2680091 0.093157999
1.2377509 -1.2758112 0.093157999
1.2158934 -1.269141 0.092111282
1.2010322 -1.2695012 0.091587923
1.1862147 -1.2697252 0.091064565
1.171442 -1.2698133 0.090541206
1.1567154 -1.2697663 0.09001784
8.6890697 -10.554753 0.71647924
8.6794434 -10.678742 0.72118944
2.7076283 -4.3618555 -0.997931
2.6596701 -4.3452921 -0.99029869
2.6373875 -4.3703218 -0.99220675
2.6049526 -4.3783135 -0.99029869
2.5728087 -4.3859024 -0.98839056
2.5307467 -4.3763213 -0.98266631
2.4934785 -4.3750792 -0.97885013
2.4515193 -4.3649831 -0.97312587
2.4145389 -4.3631229 -0.96930969
2.3776791 -4.3609705 -0.9654935
2.3409421 -4.3585281 -0.96167731
2.3043301 -4.3557968 -0.95786113
2.2678449 -4.352778 -0.95404494
2.2360654 -4.3581586 -0.95213687
2.2001653 -4.3544073 -0.94832069
2.1686761 -4.3592138 -0.94641262
2.1326096 -4.3551221 -0.94259644
2.0966818 -4.350749 -0.93878025
2.0608921 -4.3460979 -0.93496406
2.0294893 -4.3500209 -0.933056
1.994307 -4.3446693 -0.92923981
1.991492 -4.410665 -0.94068831
1.9517901 -4.3961754 -0.93496406
1.920203 -4.3993554 -0.933056
1.8809127 -4.3842702 -0.92733169
1.8495151 -4.3869562 -0.92542362
1.8181581 -4.3894215 -0.9235155
1.7646465 -4.337111 -0.91015887
1.7191496 -4.3025355 -0.90061843
1.6885912 -4.3040771 -0.89871037
1.6477779 -4.2778158 -0.891078
1.6176767 -4.2787962 -0.88916993
1.5839331 -4.2704687 -0.88535374
1.5470026 -4.2526622 -0.87962943
1.5169542 -4.2530522 -0.87772137
1.4837226 -4.2439671 -0.87390518
1.4570278 -4.2532058 -0.87390518
1.4240297 -4.2436643 -0.87008899
1.3942736 -4.2432017 -0.86818093
1.3645798 -4.2425337 -0.86627281
1.3349494 -4.2416606 -0.86436474
1.308272 -4.2499642 -0.86436474
1.2843721 -4.2675004 -0.86627281
1.2576268 -4.2754588 -0.86627281
1.2284009 -4.2737341 -0.86436474
1.2018046 -4.2812896 -0.86436474
1.1722873 -4.2792888 -0.86245662
1.1429362 -4.2770615 -0.86054856
1.1362166 -4.3600531 -0.87581325
1.0969095 -4.3194861 -0.86627281
1.0740808 -4.3454452 -0.87008899
1.0510623 -4.3712649 -0.87390518
1.0213414 -4.3682241 -0.87199712
-1.0082473 -1.2170309 -0.30720249
-1.0158741 -1.2106719 -0.30720249
-1.0298178 -1.2117449 -0.30911058
-1.0438149 -1.2126904 -0.31101865
-1.0514138 -1.206108 -0.31101865
-1.0719647 -1.2141955 -0.31483483
-1.0795462 -1.2074598 -0.31483483
-1.0935946 -1.2080252 -0.31674293
-1.1077175 -1.2084384 -0.31865102
-1.1152885 -1.2014546 -0.31865102
-1.1295388 -1.2015756 -0.32055911
-1.1438345 -1.2015647 -0.32246721
-1.1581481 -1.2014465 -0.32437527
-1.1724263 -1.2012725 -0.32628337
-1.1867726 -1.2009418 -0.32819146
-1.2012385 -1.2004001 -0.33009955
-1.2087567 -1.1928291 -0.33009955
-1.2232578 -1.1920618 -0.33200765
-1.2448698 -1.1979655 -0.33582383
-1.2523723 -1.1901202 -0.33582383
-1.2741414 -1.1956623 -0.33963999
-1.288829 -1.1943052 -0.34154809
-1.3035495 -1.1928104 -0.34345618
-1.3183018 -1.1911775 -0.34536427
-1.3404094 -1.1959413 -0.34918046
-1.3405317 -1.1810067 -0.34727237
-1.3479 -1.17259 -0.34727237
-1.3923688 -1.1961998 -0.3568128
-1.4072648 -1.1938697 -0.3587209
-1.4222635 -1.1913073 -0.36062899
-1.44485 -1.1948591 -0.36444518
-1.4599327 -1.1919655 -0.36635327
-1.4750615 -1.1888974 -0.36826137
-1.4826055 -1.1794764 -0.36826137
-1.4977843 -1.1761024 -0.37016943
-1.5129027 -1.1726822 -0.37207752
-1.5280117 -1.1691515 -0.37398562
-1.5508918 -1.1714951 -0.37780181
-1.5581456 -1.1618296 -0.37780181
-1.5891333 -1.1694714 -0.38352609
-1.6043924 -1.1652319 -0.38543415
-1.6196607 -1.1608467 -0.38734224
-1.6429513 -1.1619837 -0.39115843
-1.6663195 -1.1628734 -0.39497462
-1.6897631 -1.1635147 -0.39879081
-1.7051601 -1.1583909 -0.40069887
-1.7287134 -1.1585842 -0.40451506
-1.7523358 -1.158527 -0.40833125
-1.7678027 -1.152856 -0.41023934
-1.7832673 -1.1470363 -0.41214743
-1.8153063 -1.1515841 -0.41787168
-1.8308281 -1.1453618 -0.41977978
-1.8546723 -1.1441839 -0.42359596
-1.8784982 -1.1428751 -0.42741215
-1.9024034 -1.1412729 -0.43122831
-1.9348844 -1.1442879 -0.43695259
-1.958997 -1.1419955 -0.44076878
-1.9831564 -1.1394449 -0.44458497
-2.0159025 -1.1414722 -0.45030922
-2.040179 -1.1383494 -0.4541254
-2.0644953 -1.1349663 -0.45794159
-2.0888491 -1.1313221 -0.46175775
-2.1132376 -1.1274163 -0.46557394
-2.1463487 -1.1278144 -0.47129822
-2.1795471 -1.1278404 -0.47702247
-2.2040832 -1.1230367 -0.48083866
-2.2198458 -1.1136159 -0.48274675
-2.2619078 -1.1172296 -0.4903791
-2.3041227 -1.1203138 -0.49801147
-2.3376808 -1.118525 -0.50373572
-2.371331 -1.1163064 -0.50946003
-2.4051178 -1.1135501 -0.51518428
-2.43894 -1.1104618 -0.52090853
-2.4727468 -1.10715 -0.52663285
-2.5066073 -1.1034565 -0.5323571
-2.5405178 -1.0993809 -0.53808135
-2.5834842 -1.0988204 -0.54571372
-2.6174133 -1.0941498 -0.55143797
-2.6604862 -1.092773 -0.55907035
-2.7037134 -1.0907251 -0.56670272
-2.7378924 -1.0845613 -0.57242697
-2.7995458 -1.0886841 -0.58387554
-2.8338439 -1.0815732 -0.58959979
-2.8773549 -1.0775167 -0.59723216
-2.9301398 -1.0763401 -0.6067726
-2.9830215 -1.074542 -0.61631304
-3.0267384 -1.0688528 -0.62394542
-3.0612237 -1.0594455 -0.62966967
-4.6297593 -0.97564322 -0.91969937
-4.7512121 -0.97010088 -0.94259644
-4.8610487 -0.86599511 -0.95976925
-5.0114403 -0.86078531 -0.98839056
-5.0554342 -0.83601695 -0.99602294
-2.8089883 1.3615476 -0.6067726
-2.7563465 1.3574858 -0.59723216
-2.7126479 1.3572078 -0.58959979
-2.4258239 1.4518249 -0.54952991
-2.39148 1.4517571 -0.5438056
-2.3572347 1.4513143 -0.53808135
-2.3314159 1.4556993 -0.53426516
-2.2890494 1.4493141 -0.52663285
-2.255116 1.4477592 -0.52090853
-2.2212942 1.4458343 -0.51518428
-2.1875861 1.4435436 -0.50946003
-2.1621552 1.4463435 -0.50564384
-2.1367753 1.4488827 -0.50182766
-2.1033602 1.4455992 -0.49610338
-2.078126 1.4475656 -0.49228719
-1.9121132 1.4424506 -0.46557394
-1.8796464 1.4365124 -0.45984969
-1.8707097 1.4481312 -0.45984969
-1.8462195 1.4476211 -0.4560335
-1.8140274 1.4408768 -0.45030922
-1.7896427 1.4399385 -0.44649303
-1.7653412 1.4387522 -0.44267687
-1.7486967 1.4435661 -0.44076878
-1.7245302 1.4419321 -0.43695259
-1.7004232 1.440088 -0.4331364
-1.6688641 1.4317162 -0.42741215
-1.6523318 1.4358432 -0.42550406
-1.6359082 1.4397119 -0.42359596
-1.6122057 1.4368639 -0.41977978
-1.5959842 1.4402491 -0.41787168
-1.5797522 1.4435225 -0.41596359
-1.527422 1.4134178 -0.40451506
-1.532837 1.4364109 -0.40833125
-1.5237812 1.446014 -0.40833125
-1.507588 1.4487575 -0.40642315
-1.4914201 1.4513558 -0.40451506
-1.4752802 1.4538075 -0.40260696
-1.4591677 1.4561146 -0.40069887
-1.4430856 1.4582764 -0.39879081
-1.4201727 1.4532738 -0.39497462
-1.3973809 1.4480406 -0.39115843
-1.3882546 1.4567924 -0.39115843
-1.3588613 1.4440694 -0.38543415
-1.3496339 1.4526972 -0.38543415
-1.3337805 1.4539729 -0.38352609
-1.324746 1.4622092 -0.38352609
-1.3025385 1.4557863 -0.3797099
-1.2868662 1.4565855 -0.37780181
-1.2776892 1.464642 -0.37780181
-1.2492418 1.4503286 -0.37207752
-1.2401049 1.4581488 -0.37207752
-1.2246059 1.4583946 -0.37016943
-1.2028887 1.4509459 -0.36635327
-1.1937481 1.4584755 -0.36635327
-1.1722219 1.4506767 -0.36253709
-1.156962 1.4503398 -0.36062899
-1.1417221 1.4498931 -0.3587209
-1.1264383 1.4493866 -0.3568128
-1.1112715 1.4486954 -0.35490471
-1.0963477 1.4477276 -0.35299665
-1.0814481 1.4466537 -0.35108855
-1.0665089 1.4455214 -0.34918046
-1.0574057 1.4521935 -0.34918046
-1.0368037 1.4428657 -0.34536427
-1.0220084 1.4413662 -0.34345618
-1.0128058 1.4478475 -0.34345618
2.5722833 3.6872821 -0.87390518
2.5727329 3.6389856 -0.86627281
2.6126978 3.6466877 -0.87199712
2.6644745 3.6698594 -0.88153756
2.6994343 3.6686242 -0.88535374
2.7343261 3.6672113 -0.88916993
2.7629116 3.6580322 -0.891078
3.0482035 3.7334738 -0.93687212
3.077857 3.7218125 -0.93878025
3.1200907 3.7249761 -0.9445045
3.1561344 3.7202692 -0.94832069
3.1858442 3.7078111 -0.95022881
3.2283287 3.7100065 -0.95595306
3.2642329 3.7046628 -0.95976925
3.3068099 3.7062693 -0.9654935
3.3497746 3.7072694 -0.97121775
4.9762707 -1.3017879 -0.99983913
4.835289 -1.297308 -0.97312587
4.4654427 -1.5036551 -0.91588318
4.4651899 -1.5348735 -0.91779125
1.7249955 -1.1815714 -0.40642315
1.7094738 -1.1867884 -0.40451506
1.6779244 -1.1805234 -0.39879081
1.6705779 -1.1908969 -0.39879081
1.6392683 -1.1840179 -0.39306653
1.6159538 -1.1826992 -0.38925034
1.5927213 -1.1811347 -0.38543415
1.5774208 -1.1852221 -0.38352609
1.5465363 -1.1772388 -0.37780181
1.5314388 -1.1808044 -0.37589371
1.5163311 -1.1842613 -0.37398562
4.2217474 -6.7124619 0.69375968
4.19524 -6.7642531 0.69637436
4.1682487 -6.8159752 0.69898903
3.9504507 -6.5519695 0.66935611
3.9602895 -6.6621861 0.67807168
3.9592335 -6.7553525 0.68504411
3.9320674 -6.805738 0.68765879
5.4912553 -9.6438084 0.97091496
5.4256787 -9.6694326 0.97004342
5.3503566 -9.6771774 0.96742874
5.2656212 -9.6668625 0.96307093
5.1859384 -9.6646442 0.95958471
5.1111465 -9.6706152 0.95697004
5.0272861 -9.6583557 0.95261228
4.944047 -9.6452894 0.94825447
4.8617435 -9.6312723 0.94389665
4.7662416 -9.5899744 0.93692422
4.3994646 -8.99333 0.87591523
4.3342285 -9.0028429 0.87417209
2.7074084 -6.2095647 0.59265906
2.6565673 -6.1989837 0.59004438
2.6214321 -6.2247338 0.59091592
2.574652 -6.2226715 0.58917284
2.524251 -6.2110391 0.58655816
2.4740982 -6.1990199 0.58394349
2.4316356 -6.2051005 0.58307189
2.3824117 -6.1921549 0.58045721
1.5178427 -6.1513 0.5543105
1.4834442 -6.1801777 0.55605364
1.4400555 -6.1699739 0.5543105
1.4014297 -6.1788621 0.5543105
1.3566883 -6.1582408 0.55169582
1.3162552 -6.1568227 0.55082428
1.2755251 -6.1552162 0.54995275
1.2348657 -6.1533418 0.54908115
1.1942801 -6.1511998 0.54820961
1.1537704 -6.1487913 0.54733807
1.1133382 -6.1461167 0.54646647
1.0731537 -6.1431479 0.54559493
1.0334163 -6.1398559 0.54472339
-4.9781418 -0.85308141 0.4418796
-5.1013031 -0.8415451 0.45233831
-6.4076457 -0.933348 0.56651235
-6.4824505 -0.90268874 0.57261324
-6.5571208 -0.87112248 0.57871413
-6.532815 -0.82615805 0.57609946
-6.5477681 -0.78628105 0.57697099
-9.9236116 -0.75095356 0.87068588
-10.077206 -0.69892365 0.8837592
-10.071456 -0.63496906 0.88288766
-12.959572 -0.735331 1.1356393
-12.675389 -0.63968402 1.1103642
-12.67911 -0.56113416 1.1103642
-12.672401 -0.48184645 1.1094925
-12.695092 -0.40284282 1.1112357
-12.677456 -0.32256624 1.1094925
-12.689192 -0.24309289 1.1103642
-12.670551 -0.16275592 1.108621
-12.661369 -0.081973694 1.1077495
-12.651672 -0.0016587343 1.1068779
-12.681318 0.078020945 1.1094925
-12.66066 0.15710305 1.1077495
-12.659444 0.23554638 1.1077495
-12.647774 0.31407046 1.1068779
-12.635593 0.39322567 1.1060064
-12.632874 0.47260594 1.1060064
-12.629655 0.55197424 1.1060064
-12.625937 0.6313141 1.1060064
-12.621721 0.71063566 1.1060064
-12.617007 0.78992254 1.1060064
-12.621733 0.86986983 1.1068779
-12.616018 0.9491536 1.1068779
-12.609806 1.0284066 1.1068779
-12.603126 1.10727 1.1068779
-12.596023 1.1853386 1.1068779
-12.598315 1.2646919 1.1077495
-12.600025 1.3448848 1.108621
-12.591327 1.4240228 1.108621
-12.592023 1.504293 1.1094925
-12.582322 1.5833776 1.1094925
-12.582001 1.6637123 1.1103642
-9.9958611 1.3857034 0.88288766
-9.4742994 1.3741298 0.83756667
-9.4950275 1.438104 0.84018135
-9.4858046 1.4977369 0.84018135
-9.4663763 1.5556901 0.83930981
-9.4662342 1.6168178 0.84018135
-9.4068441 1.6675669 0.83582354
-9.4059782 1.7284416 0.83669513
-9.3753109 1.7840399 0.834952
-9.4419498 1.8591231 0.84192449
-9.4593058 1.9246793 0.84453911
-9.4666977 1.9873463 0.84628224
-9.4541473 2.0462162 0.84628224
-9.4411039 2.1055803 0.84628224
-12.515232 2.8738408 1.1234375
-12.526012 2.9592941 1.1260521
-12.545894 3.0473406 1.1295384
-12.507168 3.1212873 1.1277953
-12.496961 3.2022796 1.1286669
-12.486227 3.2832735 1.1295384
-12.484497 3.3671851 1.1312815
-12.510801 3.4599228 1.1356393
-12.507869 3.5443027 1.1373824
-12.514371 3.6300602 1.1399971
-12.510637 3.7135391 1.1417402
-12.482118 3.8760254 1.1434833
-12.476853 3.9593174 1.1452265
-12.480293 4.0464363 1.1478411
-2.7963555 1.3567802 0.27192593
-2.787775 1.3743241 0.27192593
-2.7434559 1.3739685 0.26843968
-2.4709675 1.4382806 0.25013697
-2.4447255 1.4436475 0.24839386
-2.4612448 1.4743365 0.25100854
-2.4349051 1.4794269 0.24926542
-2.391638 1.473791 0.24577919
-2.3485384 1.467672 0.24229296
-2.3224416 1.4717339 0.24054985
-2.2880054 1.4701424 0.23793517
-2.2536826 1.4681755 0.23532051
-2.219475 1.4658374 0.23270583
-2.1936655 1.4686688 0.23096271
-2.1596649 1.4656414 0.22834805
-2.1257908 1.4622442 0.22573337
-2.1002169 1.4641782 0.22399026
-2.0665679 1.4600995 0.22137558
-2.0330532 1.4556575 0.21876091
-2.0077012 1.4567562 0.2170178
-1.9823294 1.4577129 0.21527468
-1.9650551 1.4643052 0.21440312
-1.931964 1.4586159 0.21178845
-1.9148889 1.4646211 0.21091689
-1.6930522 1.4536369 0.19522886
-1.6762806 1.4578094 0.19435731
-1.5477458 1.4515234 0.18564174
-1.5385947 1.4612199 0.18564174
-1.5222034 1.4639524 0.18477017
-1.4987015 1.4595873 0.18302706
-1.4682229 1.4479893 0.18041238
-1.4520468 1.4501467 0.17954083
-1.4359026 1.4521574 0.17866927
-1.4197899 1.4540236 0.1777977
-1.3967968 1.4485729 0.1760546
-1.3807976 1.4501065 0.17518304
-1.3647951 1.4515337 0.17431149
-1.3487432 1.4528973 0.17343992
-1.3260772 1.4466995 0.17169681
-1.3104022 1.447503 0.17082526
-1.2947298 1.4482025 0.16995369
-1.2790117 1.448841 0.16908213
-1.2567919 1.4418292 0.16733903
-1.241209 1.4421473 0.16646747
-1.2256728 1.4423259 0.1655959
-1.2101828 1.4423673 0.16472435
-1.1947416 1.4422706 0.1638528
-1.1793489 1.4420378 0.16298124
-1.1640074 1.4416682 0.16210967
-1.1425073 1.4333735 0.16036656
-1.1334392 1.4405549 0.16036656
-1.1181295 1.4398777 0.15949501
-1.1029528 1.4390044 0.15862344
-1.0880045 1.4378667 0.15775189
-1.0730745 1.436628 0.15688033
-1.058115 1.4353236 0.15600878
-1.0490762 1.4419433 0.15600878
-1.0341851 1.4404144 0.15513723
-1.0193158 1.4387833 0.15426566
1.5732082 6.2915173 0.56738389
1.6253011 6.3297005 0.57174164
1.6644881 6.3195086 0.57174164
1.7037832 6.3090281 0.57174164
1.915604 6.3000531 0.57609946
1.9523637 6.278327 0.57522792
2.0074129 6.31323 0.57958567
2.0474179 6.3003697 0.57958567
2.0869637 6.2873812 0.57958567
2.1296248 6.2835793 0.58045721
2.1723204 6.279489 0.58132881
2.2150481 6.2751098 0.58220035
2.2611818 6.2798142 0.58394349
2.3040276 6.2748346 0.58481503
2.3469002 6.2695637 0.58568656
2.3897977 6.2640018 0.58655816
2.4327176 6.2581477 0.5874297
2.4793255 6.2612634 0.58917284
2.5223427 6.2548008 0.59004438
2.5691602 6.2572603 0.59178746
2.6122663 6.2501855 0.59265906
2.6592841 6.2519832 0.59440213
2.7024705 6.2442937 0.59527373
2.7496793 6.2454252 0.59701681
2.7970088 6.2462091 0.59875995
2.8403275 6.2375784 0.59963149
2.9831829 6.2368555 0.60486084
3.0266659 6.2269478 0.60573238
3.0745533 6.2256722 0.60747552
3.1225436 6.22404 0.60921866
3.1661117 6.2131739 0.6100902
3.2188234 6.2196999 0.61270487
3.2671075 6.21699 0.61444795
3.3107948 6.2051287 0.61531955
3.3639512 6.2104821 0.61793423
3.4125051 6.2066827 0.61967731
3.461144 6.202517 0.62142044
3.5098648 6.1979847 0.62316352
3.5586648 6.1930847 0.62490666
3.6125591 6.1964211 0.62752134
3.666635 6.1993237 0.63013601
3.7157643 6.1932483 0.63187915
3.7649615 6.1867995 0.63362223
3.8142238 6.1799765 0.63536537
3.8688343 6.181222 0.63798004
3.9182718 6.1736131 0.63972312
3.9731572 6.1740041 0.6423378
4.0227575 6.1656046 0.64408094
2.6355083 3.6754766 0.39568707
2.6527939 3.650713 0.3948155
2.6996255 3.6658256 0.39830175
2.7405982 3.6726542 0.4009164
4.8223886 5.9780536 0.67197078
4.8220348 5.9013505 0.66674143
4.8209085 5.8248897 0.66151208
4.8190136 5.7486782 0.65628272
4.8228002 5.680316 0.65192497
4.8064342 5.5894747 0.64495248
4.8151379 5.5292468 0.64146626
4.8031826 5.4470034 0.63536537
4.7971768 5.3724227 0.63013601
4.7974296 5.3052306 0.6257782
4.7971711 5.2381186 0.62142044
4.7965684 5.1709347 0.61706263
4.7883458 5.0968423 0.61183327
4.79281 5.037786 0.60834706
4.7828979 4.9645276 0.6031177
4.78617 4.9058557 0.59963149
4.7817616 4.8403831 0.59527373
4.7764359 4.7754455 0.59091592
4.7777071 4.7176309 0.5874297
4.7787247 4.6596999 0.58394349
4.772028 4.5950332 0.57958567
4.7719278 4.5375009 0.57609946
4.7640319 4.4733334 0.57174164
4.762825 4.4162183 0.56825542
4.7610893 4.3592963 0.56476921
4.7588272 4.3025718 0.56128299
4.756042 4.2460485 0.55779672
4.6630611 4.1106796 0.54385185
4.6287937 4.0288496 0.53687936
4.6241422 3.9733109 0.53339314
4.6188655 3.9181223 0.52990693
4.620481 3.8698347 0.52729225
4.6447043 3.8407273 0.52729225
4.6610274 3.8051682 0.52642065
4.6769848 3.7696831 0.52554911
4.7002516 3.7406328 0.52554911
4.6679468 3.6205049 0.51683354
4.6747832 3.5789921 0.51509041
4.7273731 3.5259223 0.515962
4.8055925 3.5374894 0.5220629
4.8438435 3.5189357 0.52380598
4.9306278 3.5348666 0.53077847
4.9934039 3.532584 0.53513622
5.0481753 3.5239487 0.5386225
5.103034 3.5147636 0.54210871
5.1662149 3.5106263 0.54646647
5.2295437 3.5058334 0.55082428
5.2763958 3.4893913 0.55343896
5.3399343 3.4833841 0.55779672
5.4119816 3.4821053 0.56302607
5.4758101 3.4747198 0.56738389
5.5566478 3.4772377 0.57348478
6.0277085 3.7195199 0.61967731
6.1190438 3.7229977 0.6266498
6.2021155 3.7203484 0.63275069
6.2853928 3.7168007 0.63885158
6.3602614 3.7073355 0.64408094
6.4611707 3.7119625 0.65192497
6.5017037 3.6811094 0.65366805
6.5073051 3.6304784 0.65192497
6.5125279 3.5799227 0.65018183
6.5173726 3.5294449 0.64843869
6.5041676 3.4698479 0.64495248
6.5079045 3.4202135 0.6432094
6.5733905 3.4023657 0.64756715
6.6836925 3.4056494 0.65628272
6.7853017 3.4033828 0.66412675
6.8958769 3.4047859 0.67284232
7.0067339 3.4049318 0.68155789
7.010015 3.3522446 0.67981476
7.621861 3.3564785 0.72862202
7.7342205 3.3480985 0.73733759
7.8284388 3.3306375 0.74431002
7.9319315 3.3159659 0.75215405
8.7543211 3.5953183 0.82797956
8.8598862 3.5737817 0.83582354
8.891428 3.5217116 0.83669513
8.8762407 3.4513352 0.83320886
8.8884439 3.3919444 0.83233732
8.9002504 3.3325367 0.83146578
8.9397163 3.2834184 0.83320886
9.0913858 3.2744441 0.8454107
9.2902584 3.2802753 0.86197031
9.4518995 3.2707036 0.87504363
9.61378 3.2592292 0.88811702
9.7853394 3.248986 0.90206194
9.8624039 3.2059169 0.90729129
9.8538733 3.1348264 0.90467662
9.854352 3.0669305 0.90293348
9.8448362 2.9962518 0.9003188
9.8443708 2.9286549 0.89857566
9.8434458 2.8611822 0.89683259
9.8324032 2.7913852 0.89421791
9.8399086 2.7277508 0.89334637
9.8279171 2.6583905 0.89073169
9.8157549 2.5881083 0.88811702
9.8126078 2.5211034 0.88637388
9.7990484 2.4530005 0.8837592
9.8044462 2.3896124 0.88288766
9.79988 2.3233662 0.88114452
9.7948694 2.2572732 0.87940145
9.7894163 2.1913338 0.87765831
9.7835217 2.1255522 0.87591523
9.7771883 2.0599313 0.87417209
9.7801228 1.9967334 0.87330055
9.7727613 1.9322349 0.87155741
9.7748623 1.8692424 0.87068588
9.7669792 1.8033162 0.86894274
9.7585592 1.7380992 0.8671996
9.7593222 1.6759176 0.86632806
9.7499065 1.6119009 0.86458498
9.759841 1.5506089 0.86458498
9.7595434 1.4877545 0.86371338
9.7588415 1.424965 0.86284184
9.7478695 1.3608657 0.86109871
9.4106121 1.2535534 0.83059424
9.4479504 1.1981615 0.83320886
9.1684685 1.1042304 0.80793375
9.1752262 1.0466018 0.80793375
9.1717157 0.98786491 0.80706215
9.1876526 0.93122268 0.80793375
9.1834049 0.87253457 0.80706215
9.1787615 0.81418723 0.80619061
9.1637726 0.75566441 0.80444747
9.1583652 0.69786453 0.80357593
9.162569 0.64030737 0.80357593
9.1564693 0.58209282 0.80270439
9.1500006 0.52398032 0.8018328
9.3023472 0.47408473 0.81490618
12.234229 0.46945623 1.0711441
12.236938 0.39257741 1.0711441
12.249121 0.31594157 1.0720156
12.250864 0.23897222 1.0720156
12.242163 0.16186172 1.0711441
12.223015 0.084800899 1.0694009
12.233268 0.0083405944 1.0702724
12.233085 -0.067454502 1.0702724
12.222467 -0.14346562 1.0694009
12.221324 -0.22025844 1.0694009
12.219699 -0.29704258 1.0694009
12.217591 -0.37381497 1.0694009
12.215002 -0.45057261 1.0694009
12.201977 -0.52688271 1.0685294
12.198425 -0.60353917 1.0685294
12.194392 -0.68017185 1.0685294
12.189898 -0.75644493 1.0685294
12.194917 -0.83263528 1.0694009
12.189499 -0.90851098 1.0694009
12.18355 -0.98508155 1.0694009
12.187045 -1.0624768 1.0702724
12.180128 -1.1390289 1.0702724
12.172731 -1.2155361 1.0702724
12.17476 -1.2930473 1.0711441
12.166395 -1.3695177 1.0711441
12.167442 -1.4471105 1.0720156
12.167994 -1.5247705 1.0728872
12.158174 -1.6011938 1.0728872
12.157787 -1.6785848 1.0737587
12.157014 -1.7553034 1.0746303
12.145855 -1.8309253 1.0746303
12.143952 -1.9087503 1.0755018
9.3593168 -1.5313892 0.82972264
8.8584642 -1.5066479 0.78614479
8.387742 -1.4808726 0.74518156
7.9961052 -1.4635937 0.71119082
7.605032 -1.4414536 0.67720014
7.2829981 -1.4278771 0.64931029
6.9809747 -1.4142691 0.62316352
6.6794214 -1.3969245 0.59701681
6.4270635 -1.3863515 0.57522792
6.2237339 -1.3834728 0.55779672
6.0109916 -1.3758727 0.53949404
5.7792053 -1.3610884 0.51944822
5.5769339 -1.3503292 0.50201708
5.4137807 -1.3463887 0.48807216
5.2315555 -1.3356949 0.47238412
5.0688734 -1.3281395 0.4584392
4.9257765 -1.3236307 0.44623739
4.4649048 -1.5367361 0.41311821
4.4551611 -1.5647595 0.41311821
4.4733758 -1.6028016 0.41573289
8.9301987 -3.8452001 0.85064006
8.9334717 -3.9126902 0.85325474
8.9269104 -3.976851 0.85499781
8.9198952 -4.0410838 0.85674095
8.912425 -4.1053848 0.85848403
8.9315643 -4.1824241 0.86284184
8.9320936 -4.2513037 0.86545652
8.9052057 -4.3073416 0.86545652
1.2943697 -1.2553173 0.15775189
1.2935991 -1.27037 0.15862344
1.2786387 -1.2713369 0.15775189
1.2636817 -1.2722018 0.15688033
1.2486874 -1.2730048 0.15600878
1.2337332 -1.2736698 0.15513723
1.2188201 -1.2741976 0.15426566
1.2039495 -1.2745886 0.1533941
1.1891223 -1.2748432 0.15252255
1.1743397 -1.2749621 0.151651
6.8315425 -8.3116798 0.94128203
6.7543044 -8.3233118 0.93779576
6.7088342 -8.3727741 0.93866736
2.8077064 -4.4063663 -0.82753831
2.7431791 -4.3653812 -0.81658787
2.7156966 -4.3825307 -0.81658787
2.6829574 -4.3910794 -0.81502354
2.650218 -4.3993897 -0.81345922
2.6075375 -4.3903923 -0.80876619
2.5703037 -4.3894176 -0.80563748
2.528101 -4.3796797 -0.80094445
2.4907651 -4.3783078 -0.79781574
2.4535468 -4.3766403 -0.79468709
2.4164481 -4.3746786 -0.79155838
2.3794713 -4.3724246 -0.78842968
2.3426185 -4.3698788 -0.78530103
2.305892 -4.3670435 -0.78217232
2.2738509 -4.3726826 -0.78060794
2.2374704 -4.3692279 -0.77747929
2.2014618 -4.3653688 -0.77435058
2.1654444 -4.3613033 -0.77122188
2.1336622 -4.3659492 -0.76965755
2.0976276 -4.3614669 -0.76652884
2.0617325 -4.3567052 -0.7634002
2.0302911 -4.3605533 -0.76183581
2.0279155 -4.4269261 -0.77122188
1.9840732 -4.4034514 -0.76496452
1.9523656 -4.4068003 -0.7634002
1.9167507 -4.4008698 -0.76027149
1.8498082 -4.397296 -0.75557846
1.7844173 -4.3175516 -0.73993498
1.7461089 -4.3012233 -0.73524195
1.7117341 -4.2937603 -0.7321133
1.6740625 -4.276783 -0.72742027
1.6439892 -4.277854 -0.72585589
1.6103412 -4.2695274 -0.72272724
1.5834833 -4.2795615 -0.72272724
1.5531937 -4.2801418 -0.72116286
1.5196487 -4.2712054 -0.71803421
1.4895298 -4.2713432 -0.71646982
1.4594693 -4.2712712 -0.7149055
1.4294686 -4.2709908 -0.71334118
1.3995292 -4.2705026 -0.71177679
1.3666357 -4.2604017 -0.70864809
1.3368822 -4.259481 -0.70708376
1.3071945 -4.2583547 -0.70551944
1.2804128 -4.2664838 -0.70551944
1.2509407 -4.264926 -0.70395505
1.224492 -4.2725949 -0.70395505
1.1951942 -4.2706275 -0.70239073
1.1683376 -4.2780528 -0.70239073
1.1415741 -4.2852721 -0.70239073
1.1125182 -4.2827029 -0.70082641
1.1026448 -4.3566098 -0.71177679
1.0701439 -4.3443651 -0.70864809
1.0471932 -4.3702703 -0.71177679
1.0219545 -4.3863826 -0.71334118
-1.0091271 -1.2161475 -0.25029513
-1.0167484 -1.209783 -0.25029513
-1.0307317 -1.2108917 -0.25185949
-1.0383196 -1.2043916 -0.25185949
-1.0588586 -1.212724 -0.25498816
-1.0664574 -1.2060471 -0.25498816
-1.0805637 -1.2067157 -0.25655252
-1.0946538 -1.2073147 -0.25811687
-1.1021523 -1.2004732 -0.25811687
-1.1163987 -1.200758 -0.2596812
-1.1306918 -1.2009108 -0.26124555
-1.1450306 -1.2009312 -0.2628099
-1.1593751 -1.2008562 -0.26437426
-1.1736972 -1.2007129 -0.26593858
-1.1881012 -1.200399 -0.26750293
-1.2026119 -1.1998864 -0.26906729
-1.2171625 -1.1992389 -0.27063161
-1.2317525 -1.1984552 -0.27219597
-1.2392583 -1.1906923 -0.27219597
-1.2538801 -1.1896806 -0.27376032
-1.2757456 -1.1952847 -0.276889
-1.2904805 -1.193953 -0.27845335
-1.2979568 -1.1858212 -0.27845335
-1.3273827 -1.1974905 -0.28314638
-1.3422555 -1.1956965 -0.28471074
-1.3423256 -1.1807159 -0.28314638
-1.3571365 -1.1787792 -0.28471074
-1.3869042 -1.1896396 -0.28940377
-1.4093604 -1.1937454 -0.29253244
-1.4244097 -1.1912028 -0.2940968
-1.4394825 -1.1885179 -0.29566112
-1.4545773 -1.1856904 -0.29722548
-1.4697317 -1.1826721 -0.29878983
-1.477236 -1.1732852 -0.29878983
-1.5001884 -1.1760868 -0.30191851
-1.5231706 -1.1787271 -0.30504721
-1.538357 -1.1751795 -0.30661154
-1.5534945 -1.1715727 -0.30817589
-1.5686842 -1.1677717 -0.30974025
-1.5919096 -1.1695883 -0.31286892
-1.607223 -1.1653608 -0.31443328
-1.6225458 -1.1609868 -0.3159976
-1.6459452 -1.1621629 -0.31912631
-1.6613188 -1.1574444 -0.32069066
-1.684837 -1.1581733 -0.32381934
-1.7084293 -1.1586519 -0.32694802
-1.7238846 -1.1533871 -0.32851237
-1.7475841 -1.1534141 -0.33164105
-1.7713513 -1.1531885 -0.33476976
-1.7951841 -1.1527092 -0.33789843
-1.8190801 -1.1519756 -0.34102714
-1.8346597 -1.1457551 -0.34259146
-1.8670152 -1.1498033 -0.3472845
-1.8909872 -1.1484677 -0.3504132
-1.9065775 -1.1417416 -0.35197753
-1.9307244 -1.139782 -0.35510623
-1.9549212 -1.1375635 -0.35823491
-1.9877336 -1.1399993 -0.36292794
-2.0120542 -1.1372073 -0.36605665
-2.0450463 -1.13896 -0.37074968
-2.0694802 -1.135591 -0.37387836
-2.0939515 -1.1319597 -0.37700707
-2.1184583 -1.1280651 -0.38013574
-2.1517451 -1.1284944 -0.38482878
-2.1851199 -1.1285493 -0.38952181
-2.2273831 -1.132706 -0.39577919
-2.2255878 -1.1143399 -0.39421484
-2.267885 -1.1179979 -0.40047222
-2.3014624 -1.1167864 -0.40516526
-2.3440855 -1.1193278 -0.41142264
-2.3779271 -1.1170993 -0.41611567
-2.4118936 -1.1143558 -0.4208087
-2.4368918 -1.1072195 -0.42393738
-2.4798715 -1.1080027 -0.43019477
-2.5139129 -1.1043165 -0.4348878
-2.5570724 -1.1041613 -0.44114518
-2.5911999 -1.0997324 -0.44583821
-2.6253109 -1.0950636 -0.45053124
-2.6686373 -1.0936723 -0.45678863
-2.7029438 -1.0879471 -0.46148166
-2.7556539 -1.0890942 -0.4693034
-2.7992749 -1.0860486 -0.47556075
-2.8429651 -1.0824972 -0.48181814
-2.8774674 -1.0749828 -0.48651117
-4.8820119 -0.86582941 -0.78530103
-5.0430532 -0.86219501 -0.81033051
-2.816371 1.3678596 -0.49589723
-2.7634356 1.3636738 -0.48807552
-2.7194943 1.3633054 -0.48181814
-2.4396539 1.4627066 -0.45053124
-2.3966599 1.4574778 -0.44427386
-2.3706417 1.4621385 -0.44114518
-2.3279133 1.4560537 -0.4348878
-2.2936962 1.4547819 -0.43019477
-2.2595887 1.453137 -0.42550173
-2.2255926 1.4511228 -0.4208087
-2.1999526 1.4541844 -0.41768003
-2.1661563 1.4514848 -0.41298699
-2.1406534 1.453967 -0.40985829
-2.1233397 1.4617882 -0.40829393
-2.0898135 1.4581448 -0.4036009
-2.0564167 1.4541397 -0.39890787
-2.023155 1.449772 -0.39421484
-1.9979742 1.4509139 -0.39108616
-1.9807361 1.4577576 -0.38952181
-1.9397875 1.4466627 -0.38326442
-1.9227797 1.4528673 -0.3817001
-1.6780211 1.4418931 -0.3504132
-1.6539487 1.4395303 -0.3472845
-1.6374623 1.4433624 -0.34572017
-1.6210403 1.4469918 -0.34415582
-1.6047161 1.4503853 -0.34259146
-1.581079 1.4470156 -0.33946279
-1.5284921 1.4166373 -0.33007672
-1.533964 1.4397322 -0.3332054
-1.524888 1.4493414 -0.3332054
-1.5086349 1.4520451 -0.33164105
-1.4994822 1.461495 -0.33164105
-1.4762101 1.4570117 -0.32851237
-1.4530551 1.4522935 -0.32538369
-1.4369593 1.4543691 -0.32381934
-1.4208957 1.4562992 -0.32225499
-1.4048641 1.4580859 -0.32069066
-1.382059 1.4525726 -0.31756195
-1.3660942 1.4540743 -0.3159976
-1.3568029 1.4627478 -0.3159976
-1.3408828 1.4639895 -0.31443328
-1.3185344 1.4576201 -0.31130457
-1.3028499 1.4584386 -0.30974025
-1.2805938 1.4517814 -0.30661154
-1.2649593 1.4523512 -0.30504721
-1.2493694 1.4527817 -0.30348286
-1.2338234 1.4530743 -0.30191851
-1.2183241 1.4532287 -0.30035415
-1.202871 1.4532467 -0.29878983
-1.1874669 1.4531275 -0.29722548
-1.1659095 1.4451858 -0.2940968
-1.1568066 1.4524826 -0.2940968
-1.1354011 1.4442306 -0.29096809
-1.1261772 1.4514346 -0.29096809
-1.1049931 1.4428232 -0.28783941
-1.0960321 1.4496421 -0.28783941
-1.0810741 1.4485252 -0.28627506
-1.0660943 1.4473364 -0.28471074
-1.0511714 1.4460176 -0.28314638
-1.0420655 1.4525934 -0.28314638
-1.0271637 1.4510845 -0.28158203
-1.0122442 1.4495006 -0.28001767
2.5458202 3.6432467 -0.70395505
2.5800774 3.6432998 -0.70708376
2.6317112 3.6671388 -0.7149055
2.6780567 3.6823955 -0.72116286
2.7073207 3.6732111 -0.72272724
2.9671543 3.722883 -0.75401413
3.0091002 3.7272215 -0.75870717
3.0512168 3.7311788 -0.7634002
3.0872011 3.7271469 -0.76652884
3.1296027 3.730376 -0.77122188
3.1593745 3.7181654 -0.77278626
3.202002 3.7207 -0.77747929
3.238174 3.7155054 -0.78060794
3.2807388 3.7175872 -0.78530103
3.316993 3.7118104 -0.78842968
3.360132 3.7128654 -0.79312271
3.4102092 3.7206941 -0.79938012
3.440562 3.7061329 -0.80094445
3.4842782 3.7058403 -0.80563748
3.5347366 3.7124877 -0.81189483
3.6087089 3.6960449 -0.81815225
3.6525724 3.694488 -0.82284528
3.7033424 3.6997085 -0.82910264
3.7474072 3.6973808 -0.83379567
3.7988613 3.7013328 -0.84005308
3.8291595 3.6842391 -0.84161741
3.8737135 3.6805167 -0.84631044
4.3614106 3.7445402 -0.91044855
4.4377961 3.7615278 -0.921399
4.484066 3.7525866 -0.92609203
4.5532398 3.7620854 -0.93547809
4.6074018 3.7583752 -0.94173545
4.6231108 3.7233081 -0.94017112
4.6534758 3.653384 -0.93704242
4.6763387 3.6240735 -0.93704242
4.7754946 3.5588956 -0.94329983
4.8216305 3.5463765 -0.94799286
4.8997698 3.5566256 -0.95894325
4.9541373 3.5487759 -0.96520066
5.016664 3.5460837 -0.97302234
5.0712495 3.5370946 -0.97927976
5.1259189 3.5275588 -0.98553711
5.188839 3.5230227 -0.99335885
6.0447221 -1.3461715 -0.98084408
5.8532314 -1.3421817 -0.95112151
5.6524234 -1.3335724 -0.91983461
5.4616041 -1.3246437 -0.8901121
5.2903643 -1.3178707 -0.86351824
5.119381 -1.3091966 -0.83692437
4.9773068 -1.3062363 -0.81502354
4.8259826 -1.2988183 -0.79155838
4.4731097 -1.5101491 -0.74775672
4.4822087 -1.5446607 -0.75088543
3.5450668 -1.5809611 -0.61478746
3.5350633 -1.6032041 -0.61478746
3.4890435 -1.6088405 -0.60853004
3.5146382 -1.6474993 -0.61478746
3.5220509 -1.6780457 -0.61791611
4.846303 -2.4976153 -0.86351824
4.769258 -2.4959579 -0.85256779
4.7360373 -2.5166054 -0.84943914
4.7114391 -2.5416236 -0.84787476
4.6693873 -2.5569446 -0.84318173
4.6532297 -2.5862327 -0.84318173
4.636888 -2.6154184 -0.84318173
4.6203632 -2.6445012 -0.84318173
4.6036563 -2.6734793 -0.84318173
1.718424 -1.179054 -0.33007672
1.7109818 -1.1898278 -0.33007672
1.6873646 -1.1891198 -0.32694802
1.6638883 -1.1880726 -0.32381934
1.6324494 -1.1810451 -0.31912631
1.6090652 -1.1795995 -0.3159976
1.5857641 -1.1779071 -0.31286892
1.5704402 -1.1819082 -0.31130457
1.5551677 -1.1857126 -0.30974025
1.5321572 -1.1832514 -0.30661154
1.5169779 -1.1866862 -0.30504721
4.5295172 -6.5579491 0.97861081
4.4826341 -6.5780768 0.97739214
4.430141 -6.5896368 0.97495472
4.1060333 -6.5398712 0.94814348
4.0544114 -6.5486631 0.94570607
4.0080137 -6.5655365 0.94448739
3.9513273 -6.5650778 0.9408313
3.9051876 -6.5810895 0.93961263
3.8442891 -6.5708909 0.93473786
3.783416 -6.5603366 0.9298631
3.7323127 -6.566721 0.92742568
3.6764288 -6.5640626 0.92376959
3.6159306 -6.5522728 0.91889483
3.5604672 -6.5487027 0.91523874
3.5098784 -6.5534453 0.91280138
3.4547398 -6.5490327 0.9091453
3.3997958 -6.5441866 0.90548921
3.3498192 -6.5476184 0.90305179
3.2957895 -6.5416555 0.89939576
3.2461228 -6.5442915 0.89695835
3.1918781 -6.5377998 0.89330226
3.1378417 -6.5308867 0.88964617
1.3045489 -6.1255937 0.76899552
1.2620239 -6.1142282 0.76655817
1.2294183 -6.1512356 0.77021426
1.1888607 -6.1490941 0.76899552
1.1465559 -6.136929 0.76655817
1.1079739 -6.144012 0.76655817
1.0661817 -6.1312542 0.76412076
1.0281732 -6.137742 0.76412076
-4.9899187 -0.8511222 0.62153363
-5.093071 -0.83607745 0.63372058
-6.2375622 -0.90357292 0.77387029
