# .PCD v0.7 - Point Cloud Data file format
VERSION 0.7
FIELDS x y z
SIZE 4 4 4
TYPE F F F
COUNT 1 1 1
WIDTH 1504
HEIGHT 1
VIEWPOINT 0 0 0 1 0 0 0
POINTS 1504
DATA ascii
4.1311207 3.3987782 -0.46802634
4.1755919 3.3915968 -0.47064102
4.2279072 3.3902221 -0.47412723
4.2725577 3.3821397 -0.47674191
4.2937236 3.3552279 -0.47674191
4.3618646 3.3649282 -0.48197126
4.406405 3.3559456 -0.48458591
4.4593291 3.3520398 -0.48807216
4.5205975 3.3532388 -0.49242994
4.5497241 3.3305049 -0.49330148
4.6109366 3.3310208 -0.4976593
4.9968009 3.5622103 -0.53687936
5.0598235 3.5594029 -0.54123718
5.1311903 3.5616236 -0.54646647
5.1945634 3.5574577 -0.55082428
5.2498307 3.5470576 -0.5543105
5.3134604 3.5416279 -0.55866832
5.3772273 3.535538 -0.56302607
5.4411259 3.528785 -0.56738389
5.5135422 3.526736 -0.57261324
5.5692945 3.5132842 -0.57609946
5.5743418 3.4676981 -0.57435632
5.5365777 3.3961434 -0.56825542
5.544591 3.3058956 -0.56476921
5.5480762 3.2608972 -0.56302607
5.5512156 3.2159858 -0.56128299
5.6318703 3.2156198 -0.56738389
5.7040553 3.2094808 -0.57261324
5.7938085 3.2122211 -0.57958567
5.8750758 3.2091835 -0.58568656
5.9565306 3.2052503 -0.59178746
6.038166 3.2004185 -0.59788841
6.1197991 3.1950202 -0.6039893
6.1926332 3.184375 -0.60921866
6.2748027 3.176765 -0.61531955
6.3662429 3.172271 -0.62229198
6.4485884 3.1630571 -0.62839288
6.5398302 3.1576941 -0.63536537
6.6315942 3.1505969 -0.6423378
6.6695805 3.1167221 -0.64408094
6.7885294 3.1206706 -0.65366805
6.8985047 3.1195967 -0.66238362
6.9815855 3.1047528 -0.66848451
7.6490226 3.344162 -0.7303651
7.7614098 3.3353682 -0.73908067
7.8923388 3.3330436 -0.74953938
7.9315276 3.2910249 -0.75128251
7.926187 3.1721544 -0.7469247
7.9369617 3.1179547 -0.74605316
7.9286113 3.0570121 -0.74343848
8.0035667 3.0282872 -0.74866784
8.0783081 2.9991801 -0.75389719
8.2090597 2.9899831 -0.76435584
8.3589296 2.9855254 -0.77655768
8.499753 2.9757397 -0.78788787
8.6407795 2.9642997 -0.79921812
8.7819939 2.9512031 -0.81054837
8.8760653 2.9208777 -0.81752086
8.8657961 2.8558872 -0.81490618
8.864563 2.794136 -0.81316304
8.8629036 2.7325134 -0.81141996
8.851284 2.6681471 -0.80880529
8.8392057 2.6040349 -0.80619061
8.8362465 2.5429351 -0.80444747
8.8232775 2.4792809 -0.8018328
8.8194666 2.4185247 -0.80008972
8.8152418 2.3579147 -0.79834658
8.8106031 2.2974534 -0.7966035
8.8055544 2.2371449 -0.79486036
8.8000956 2.1769893 -0.79311723
8.7942295 2.116991 -0.79137415
8.7879581 2.0571527 -0.78963101
8.7812824 1.9974767 -0.78788787
8.7740993 1.938444 -0.78614479
8.7762003 1.8819554 -0.78527325
8.7682848 1.8230083 -0.78353012
8.7600346 1.7639468 -0.78178698
8.7513885 1.7050612 -0.7800439
8.7521391 1.6481975 -0.7791723
8.7427197 1.5896099 -0.77742922
8.7427225 1.5329261 -0.77655768
8.7423582 1.4763052 -0.77568609
8.7317953 1.4181525 -0.77394301
8.730691 1.361726 -0.77307141
8.7193699 1.3038974 -0.77132833
8.7174606 1.2481499 -0.77045673
8.7151566 1.1927634 -0.76958519
8.7026854 1.1356888 -0.76784205
8.6997633 1.079759 -0.76697052
8.1622267 0.96100849 -0.71903485
8.148303 0.90749967 -0.71729177
8.1439829 0.85479963 -0.71642017
8.1492634 0.8029021 -0.71642017
8.1442108 0.75094551 -0.71554863
8.1487074 0.70047116 -0.71554863
8.1429958 0.64873368 -0.7146771
8.1171055 0.59537095 -0.71206242
8.1107464 0.54369187 -0.71119082
8.1040583 0.49211627 -0.71031928
8.1069908 0.4411875 -0.71031928
8.0897017 0.38928473 -0.7085762
8.0919886 0.3384482 -0.7085762
8.0839996 0.28724456 -0.7077046
8.0756865 0.23615469 -0.70683306
8.3259945 0.19112469 -0.72862202
11.16674 0.11596806 -0.97701585
11.167249 0.045803409 -0.97701585
11.167316 -0.024363043 -0.97701585
11.156986 -0.093836583 -0.97614431
11.156191 -0.16296129 -0.97614431
11.154954 -0.23268874 -0.97614431
11.143313 -0.3025021 -0.97527272
11.141192 -0.3725113 -0.97527272
11.138633 -0.44250578 -0.97527272
11.125681 -0.51202482 -0.97440118
11.122244 -0.58191758 -0.97440118
11.118368 -0.65178889 -0.97440118
11.104113 -0.72098899 -0.97352964
11.099363 -0.79074359 -0.97352964
11.094175 -0.86046702 -0.97352964
11.088601 -0.92955256 -0.97352964
11.09255 -0.9991312 -0.97440118
11.086089 -1.0684445 -0.97440118
11.079157 -1.138079 -0.97440118
11.071788 -1.2076687 -0.97440118
11.073877 -1.278353 -0.97527272
11.065626 -1.3479066 -0.97527272
11.056939 -1.417407 -0.97527272
11.057688 -1.4881803 -0.97614431
11.04812 -1.557628 -0.97614431
11.038203 -1.6264132 -0.97614431
11.037761 -1.6962857 -0.97701585
11.026942 -1.7652429 -0.97701585
11.015634 -1.8344907 -0.97701585
11.013706 -1.9053655 -0.97788739
11.011322 -1.9762886 -0.97875899
10.998688 -2.0454354 -0.97875899
10.995401 -2.1163843 -0.97963053
10.981886 -2.1854284 -0.97963053
10.977696 -2.2563918 -0.98050207
8.5235014 -1.8720632 1.6962919
8.1094494 -1.8346084 1.6161522
7.7440224 -1.8031586 1.5455528
7.3984179 -1.7717648 1.4787697
7.0916543 -1.7454865 1.4196188
6.8331084 -1.727456 1.3700086
6.5561781 -1.7009236 1.3165821
6.298871 -1.6758895 1.2669717
6.0704474 -1.6558474 1.2230856
5.8519387 -1.6358173 1.1811076
5.6529007 -1.6181744 1.1429459
5.4732008 -1.6034899 1.1086003
5.2561994 -1.5756854 1.0666223
5.1148057 -1.5683908 1.039909
4.9736233 -1.559682 1.0131958
4.8607626 -1.5583687 0.99220675
4.6923394 -1.5367811 0.95976925
3.4025838 -1.4301398 0.7174418
3.2762015 -1.401306 0.69263667
8.1716127 -5.1318197 1.8756524
8.1724691 -5.2039294 1.8832848
8.156105 -5.2658248 1.8871009
8.1547241 -5.4113197 1.9023657
8.1449976 -5.4788871 1.9080899
8.1266336 -5.5410151 1.9119061
8.1320353 -5.6198707 1.9214466
8.1206856 -5.6877489 1.9271709
8.1171522 -5.760901 1.9348031
8.1052122 -5.8282752 1.9405274
8.0923939 -5.8962078 1.9462517
8.0946732 -5.976089 1.9557922
8.088769 -6.0498657 1.9634246
8.0505657 -6.3414311 1.9920459
8.041256 -6.4163766 1.9996783
4.7688341 -5.1497035 1.3642843
4.6702805 -5.1069956 1.3452034
5.0141697 -6.9979105 1.6733949
5.0211062 -7.1014132 1.6905676
5.010088 -7.1811252 1.7020162
5.0149632 -7.285234 1.719189
5.0076971 -7.3734426 1.7325456
4.8627076 -7.7726183 1.782156
4.8397598 -7.8446574 1.7916964
4.8209844 -7.9252305 1.8031449
4.8064356 -8.0142937 1.8165016
4.8009477 -8.1203842 1.8336744
-1.0266411 -6.058619 1.1944643
-1.0646881 -6.0520487 1.1944643
-1.1044545 -6.0548968 1.1963724
-1.1424766 -6.0478377 1.1963724
-1.1823362 -6.0501738 1.1982805
-1.220327 -6.0426259 1.1982805
-1.2582697 -6.0348392 1.1982805
-1.2958015 -6.0268917 1.1982805
-1.3352425 -6.0283308 1.2001885
-1.7509873 -5.9311895 1.2020967
-1.7456427 -5.7791166 1.1734753
-1.7265332 -5.5899382 1.1372216
-1.7168118 -5.4387188 1.1086003
-1.7055999 -5.2877383 1.0799789
-1.695781 -5.1463928 1.0532657
-1.6842549 -5.0053844 1.0265523
-1.6742146 -4.8740134 1.0017473
-1.6625915 -4.7429709 0.97694206
-1.3847835 -1.540254 0.40260696
-1.4010426 -1.5387812 0.40451506
-1.4040287 -1.5227314 0.40260696
-1.40008 -1.499614 0.39879081
-1.3958582 -1.4766431 0.39497462
-1.3914928 -1.4536997 0.39115843
-1.3869348 -1.4308312 0.38734224
-1.2663468 -1.0410223 0.31865102
-1.2728627 -1.0330451 0.31865102
-1.309971 -1.0495787 0.32628337
-1.3319379 -1.0535064 0.33009955
-1.3462681 -1.051158 0.33200765
-1.3606211 -1.0486708 0.33391574
-1.3749957 -1.0460446 0.33582383
-1.3893907 -1.0432788 0.33773193
-1.4116914 -1.046218 0.34154809
-1.4260978 -1.0432081 0.34345618
-1.4325339 -1.0343523 0.34345618
-1.4469707 -1.031067 0.34536427
-1.4614505 -1.0276012 0.34727237
-2.4352949 -1.0459082 0.51518428
-2.4418185 -1.0305862 0.51518428
-5.7868848 -0.79090458 1.1353135
-5.8306756 -0.75960308 1.1429459
-5.8645587 -0.72657228 1.1486701
-5.8690081 -0.68971157 1.1486701
-5.8634696 -0.65173608 1.146762
-5.8576493 -0.61421007 1.1448539
-6.134872 -0.6048727 1.1982805
-6.2851567 -0.58001345 1.2269018
-6.5918636 -0.56656849 1.2860526
-6.8399587 -0.54421186 1.3337549
-7.0978293 -0.51925004 1.3833652
-7.4045625 -0.49517673 1.442516
-7.6622434 -0.46473974 1.4921263
-8.0962801 -0.44024929 1.5760822
-8.4812784 -0.40775698 1.6504978
-8.905405 -0.37208268 1.7325456
-9.3588314 -0.33213377 1.8203177
-9.9003983 -0.28908455 1.9252627
-9.6048679 1.9781498 1.9061818
-9.131361 1.9405131 1.8145936
-8.7066679 1.9075171 1.7325456
-8.3114929 1.8757427 1.6562221
-7.9553223 1.84797 1.5875309
-7.5425577 1.8021077 1.5073911
-7.5596848 1.8564885 1.5131153
-7.5002809 1.8919437 1.5035748
-5.2559586 1.6103241 1.0685303
-5.2458797 1.6428596 1.0685303
-5.2448492 1.6786364 1.0704385
-5.2528582 1.7176607 1.0742546
-5.2139254 1.7416153 1.0685303
-3.6113715 1.4905293 0.7594198
-3.5385847 1.4865758 0.74606317
-3.475018 1.4856282 0.73461461
-3.4656153 1.5074321 0.73461461
-3.4740288 1.537122 0.7384308
-3.4822061 1.566975 0.74224699
-3.1119006 1.5683563 0.67737192
-3.0582955 1.5655125 0.66783148
-3.0048499 1.5620596 0.65829104
-2.8099689 1.5516659 0.62394542
-2.7573485 1.5452946 0.61440498
-2.7049201 1.5383259 0.60486448
-2.6611927 1.5356652 0.59723216
-2.6260772 1.5374775 0.59150785
-2.5910459 1.5389082 0.5857836
-1.6109414 1.0697999 0.37589371
-1.5879014 1.0689375 0.37207752
-1.5649371 1.0678275 0.36826137
-1.5339758 1.0608886 0.36253709
-1.5112035 1.0592371 0.3587209
-1.4805098 1.0516578 0.35299665
-1.4579394 1.0494692 0.34918046
-1.435455 1.0470399 0.34536427
-1.412997 1.0444542 0.34154809
-1.3984584 1.047549 0.33963999
-1.3762443 1.0444013 0.33582383
-1.3541814 1.0409436 0.33200765
-1.339898 1.0433637 0.33009955
-1.3256086 1.0456827 0.32819146
-1.3036752 1.0417349 0.32437527
-1.2818438 1.0375541 0.32055911
-1.2752995 1.0455873 0.32055911
-1.2460492 1.034766 0.31483483
-1.232011 1.0362557 0.31292674
-1.2254754 1.0439765 0.31292674
-1.2039649 1.0389029 0.30911058
-1.1825407 1.0336308 0.30529439
-1.1686449 1.0345656 0.3033863
-1.1548123 1.0353354 0.30147821
-1.141017 1.035972 0.29957011
-1.120033 1.0298328 0.29575393
-1.1064179 1.0300943 0.29384586
-1.0928712 1.0301965 0.29193777
-1.0793045 1.0302353 0.29002967
-1.0657518 1.0301743 0.28812158
-1.0522434 1.0299834 0.28621349
-1.0318079 1.0227532 0.2823973
-1.0253618 1.0292158 0.2823973
-1.0119902 1.0286406 0.28048921
-1.5765215 8.6728897 1.7134647
-1.5236899 8.6922932 1.7153728
-1.4723153 8.7210541 1.719189
-1.4190614 8.7398224 1.7210971
-1.3626097 8.7388659 1.719189
-1.3076775 8.7472553 1.719189
-1.2526937 8.7552986 1.719189
-1.198985 8.7727222 1.7210971
1.0263585 6.1283488 1.2078209
1.0668936 6.1313858 1.209729
1.1059315 6.124465 1.209729
1.1463625 6.1270132 1.2116371
1.1867027 6.1293268 1.2135452
1.2251908 6.1217494 1.2135452
1.2616435 6.1043172 1.2116371
1.3020202 6.1058702 1.2135452
1.342466 6.1071563 1.2154533
1.4619136 6.0998597 1.2192695
1.5002109 6.0905542 1.2192695
1.5384492 6.081008 1.2192695
1.5790939 6.0807228 1.2211776
1.6197959 6.0801663 1.2230856
1.6579665 6.069869 1.2230856
1.6987176 6.0687847 1.2249937
1.7395204 6.0674276 1.2269018
1.7803731 6.0657973 1.22881
1.821274 6.0638928 1.230718
1.862221 6.0617132 1.2326261
1.9002708 6.0498929 1.2326261
1.9412462 6.0471802 1.2345341
1.9822623 6.0441914 1.2364423
2.0233171 6.040925 1.2383504
2.0644093 6.0373812 1.2402585
2.1055365 6.0335593 1.2421665
2.146697 6.0294585 1.2440746
2.1878893 6.0250783 1.2459828
2.229111 6.0204182 1.2478908
2.270721 6.0153413 1.2497989
2.3125203 6.0099149 1.251707
2.3575652 6.0134807 1.2555232
2.3989425 6.0076652 1.2574313
2.4440372 6.0106602 1.2612474
2.4855094 6.0042553 1.2631556
1.6538643 3.604455 0.7708683
1.6806285 3.6028883 0.77277642
1.7116439 3.609997 0.77659261
1.7470758 3.625701 0.78231686
1.7698221 3.6146522 0.78231686
1.7968705 3.6122496 0.78422499
1.8239584 3.6096497 0.78613305
1.8421202 3.589385 0.78422499
3.2851193 5.9344482 1.3184901
3.3319573 5.9308066 1.3223063
3.3740175 5.918282 1.3242145
3.4160514 5.9054627 1.3261225
3.4630258 5.9008145 1.3299387
3.5150979 5.9042435 1.335663
3.5572002 5.8904438 1.337571
3.6043947 5.8847194 1.3413873
3.6516573 5.878633 1.3452034
3.7042174 5.8804903 1.3509277
3.7516606 5.8736458 1.3547438
3.7991633 5.866436 1.35856
3.8413355 5.8506556 1.3604681
3.8345077 5.7610312 1.3452034
3.8321977 5.679863 1.3318467
3.8234794 5.5908513 1.3165821
3.8137956 5.5021758 1.3013173
3.8087926 5.4218774 1.2879606
3.8029327 5.3418617 1.2746041
3.7962191 5.262136 1.2612474
3.7886558 5.1827073 1.2478908
3.7863948 5.1112447 1.2364423
3.7776253 5.0320683 1.2230856
3.773648 4.9612513 1.2116371
3.7628038 4.8830147 1.1982805
3.7571676 4.8128495 1.186832
3.7568884 4.7506499 1.1772915
3.7437027 4.6733227 1.1639348
3.748251 4.6192183 1.1563025
3.7398021 4.5500755 1.1448539
3.730634 4.4812231 1.1334054
3.7270775 4.4201722 1.123865
3.7229025 4.359344 1.1143246
3.7181113 4.2987442 1.104784
3.7191751 4.2457619 1.0971518
3.7064412 4.1784735 1.0857031
3.706022 4.1262169 1.0780708
3.7254035 4.0954661 1.0761627
3.7780235 4.1005278 1.0837951
3.8306119 4.1053133 1.0914274
3.7012684 3.9170613 1.0475414
3.6918738 3.8582666 1.0380009
3.6818883 3.7997458 1.0284605
3.6781895 3.7485106 1.0208281
3.6947503 3.7183628 1.0189201
3.7110779 3.6881552 1.0170119
3.7341778 3.6647651 1.0170119
3.7500811 3.6343989 1.0151038
3.7657509 3.6039777 1.0131958
3.7317994 3.4827001 0.99220675
3.7175157 3.4259224 0.98266631
3.7961135 3.3682747 0.9864825
3.8541188 3.3767004 0.99602294
3.9049547 3.3781068 1.0036553
3.9708872 3.3917575 1.0151038
4.0071278 3.3793979 1.0189201
4.0659995 3.38556 1.0284605
4.1023574 3.3724132 1.0322766
4.1463313 3.3651285 1.0380009
4.1980357 3.3635616 1.0456333
4.2421837 3.3553872 1.0513575
4.2863941 3.3467901 1.0570818
4.3226876 3.3320363 1.0608979
4.3666844 3.3230233 1.0666223
4.4425282 3.3366435 1.0799789
4.4794664 3.3199651 1.0837951
4.5320201 3.3148122 1.0914274
4.5845957 3.3092523 1.0990598
4.6372786 3.3031619 1.1066922
4.6900654 3.2965391 1.1143246
4.7510166 3.2949765 1.123865
4.8040304 3.2872336 1.1314974
4.8652692 3.2844462 1.1410378
4.9184909 3.2755768 1.1486701
4.9799962 3.2715573 1.1582106
5.0334053 3.261555 1.1658429
5.0951557 3.2562959 1.1753834
5.1653414 3.2556226 1.186832
5.2190433 3.2438312 1.1944643
5.2895389 3.2417512 1.2059128
5.3518109 3.2338355 1.2154533
5.4141908 3.2252643 1.2249937
5.4766722 3.2160363 1.2345341
5.5477452 3.2110665 1.2459828
5.6189704 3.2053292 1.2574313
5.6817837 3.1940124 1.2669717
5.753262 3.1867883 1.2784202
5.833488 3.1834931 1.2917769
5.8879595 3.1653705 1.2994093
6.0031576 3.1788437 1.3203982
6.0924516 3.1777411 1.335663
6.1556807 3.1623602 1.3452034
6.2368484 3.1544309 1.35856
6.3271184 3.1496315 1.3738247
6.4172001 3.1445787 1.3890895
6.4896088 3.1303468 1.400538
6.5890641 3.1271763 1.4177108
6.6622205 3.1100516 1.4291594
6.7261324 3.0888324 1.4386998
6.8435454 3.091552 1.4596888
6.961432 3.0925167 1.4806777
7.0526915 3.0801458 1.4959425
7.1530876 3.0706222 1.5131153
7.2445951 3.0561409 1.52838
7.3452682 3.0443883 1.5455528
7.4460769 3.0314898 1.5627257
7.5563059 3.0206339 1.5818065
7.6667757 3.0082908 1.6008874
7.7955313 3.0021851 1.6237845
7.906065 2.9878473 1.6428654
8.0349522 2.9795442 1.6657625
8.1639557 2.9699748 1.6886595
8.3118153 2.9650178 1.7153728
8.441474 2.9516146 1.7382699
8.5712891 2.9366987 1.761167
8.6919394 2.9171419 1.782156
8.8313284 2.9023132 1.8069612
8.8774242 2.8557856 1.8126854
8.8764658 2.7940564 1.8088692
8.875082 2.7324522 1.8050531
8.8638763 2.6681466 1.7993288
8.8616314 2.6068602 1.7955126
8.8495321 2.5429964 1.7897884
8.8369818 2.479388 1.7840641
8.8334503 2.4186304 1.7802479
8.8389883 2.3605478 1.7783399
8.8346462 2.3000183 1.7745236
8.8203783 2.2372231 1.7687993
8.8247309 2.1794069 1.7668912
8.809617 2.1170356 1.761167
8.803627 2.0571744 1.7573508
8.8068066 1.9996458 1.7554427
8.7903223 1.9384584 1.7497184
8.7925653 1.8819036 1.7478104
8.7753315 1.8208786 1.7420861
8.7769747 1.763772 1.740178
8.7686119 1.7048432 1.7363619
8.7695036 1.6479021 1.7344538
8.7603674 1.589265 1.7306376
8.7701797 1.5341909 1.7306376
8.7506065 1.4741641 1.7249132
8.7500067 1.4175837 1.7230052
8.7393408 1.3595601 1.719189
8.7282934 1.3017268 1.7153728
8.7265072 1.245997 1.7134647
8.7146072 1.1892507 1.7096486
8.7121429 1.1334437 1.7077404
8.7093506 1.0774764 1.7058324
8.6964493 1.020445 1.7020162
8.4099979 0.93330216 1.6447735
8.1033316 0.84727114 1.5837146
8.1183338 0.79659021 1.5856227
8.1524801 0.74852437 1.591347
8.1569614 0.69799882 1.591347
8.1415968 0.64540493 1.5875309
8.1357012 0.59352309 1.5856227
8.1196804 0.5410881 1.5818065
8.113122 0.48946905 1.5798985
8.1062346 0.4379538 1.5779904
8.099021 0.38654447 1.5760822
8.1012907 0.3356505 1.5760822
8.0934286 0.28439751 1.5741742
8.0852442 0.23325655 1.5722661
8.096364 0.18267253 1.5741742
8.4801359 0.13802868 1.6485897
11.001308 -2.2775104 -0.58877951
8.2510071 -1.8156116 -0.4427622
7.8790827 -1.7857461 -0.42339787
7.4786983 -1.7444764 -0.4024635
7.2053986 -1.7285336 -0.38833278
6.8938212 -1.6996658 -0.37210864
6.5925837 -1.6694051 -0.35640785
6.3887701 -1.6601322 -0.34594068
6.1371226 -1.6353993 -0.33285668
5.9148307 -1.6158953 -0.32134277
5.731463 -1.6045671 -0.31192228
5.5485821 -1.5906376 -0.30250183
5.37572 -1.5771914 -0.2936047
5.2031407 -1.5620074 -0.28470761
5.0500283 -1.5506982 -0.2768572
4.9066958 -1.5408403 -0.26953018
4.7541561 -1.5262781 -0.26167977
-1.4328864 -2.177218 -0.13659684
-1.429911 -2.1432505 -0.13502677
-1.426566 -2.1094072 -0.13345669
-1.4284991 -2.0839286 -0.13240996
-1.4301687 -2.0585093 -0.13136324
-1.4258265 -2.024987 -0.12979317
-1.4211203 -1.9916013 -0.12822309
-1.4219029 -1.9664482 -0.12717637
-1.4283282 -1.9494199 -0.12665302
-1.4167372 -1.9083345 -0.12455957
-1.4226967 -1.8914146 -0.12403622
-1.4163938 -1.8586099 -0.12246613
-1.4158382 -1.8338647 -0.12141941
-1.4149096 -1.809293 -0.1203727
-1.4136921 -1.784835 -0.11932598
-1.4123412 -1.7603699 -0.11827926
-1.4107778 -1.7359616 -0.11723254
-1.4089639 -1.711643 -0.11618582
-1.4069006 -1.6874163 -0.1151391
-1.4174751 -1.6785432 -0.1151391
-1.4150119 -1.6544256 -0.11409238
-1.4057637 -1.6228577 -0.1125223
-1.4093469 -1.6064861 -0.11199895
-1.3995146 -1.5752029 -0.11042886
-1.4027046 -1.558955 -0.1099055
-1.4057456 -1.5427296 -0.10938215
-1.4018664 -1.5191885 -0.10833543
-1.4044673 -1.5031461 -0.10781207
-1.4068911 -1.4871606 -0.10728871
-1.4023588 -1.4638997 -0.10624199
-1.2186161 -1.0941699 -0.085830964
-1.2628287 -1.1196163 -0.088447765
-1.2423961 -1.0205156 -0.084260888
-1.2798094 -1.0378493 -0.086354323
-1.2941008 -1.0360286 -0.086877689
-1.3240893 -1.0464532 -0.088447765
-1.3385118 -1.0442559 -0.088971123
-1.3608707 -1.0480113 -0.09001784
-1.3674287 -1.03944 -0.09001784
-1.3899086 -1.0428141 -0.091064565
-1.4124843 -1.0459464 -0.092111282
-1.410898 -1.031251 -0.091587923
-1.4334576 -1.034175 -0.092634641
-1.456175 -1.0367634 -0.093681358
-1.4708316 -1.0333344 -0.094204716
-1.4855024 -1.0297618 -0.094728082
-1.7925643 -1.1450706 -0.11147559
-1.7997235 -1.1337849 -0.11147559
-1.8407425 -1.1435336 -0.11356902
-1.8564068 -1.1371617 -0.11409238
-1.8890851 -1.1410871 -0.11566246
-1.9046985 -1.1344711 -0.11618582
-1.9289875 -1.1326357 -0.11723254
-1.9447092 -1.1254954 -0.1177559
-1.9690913 -1.1231499 -0.11880262
-1.9935199 -1.1205419 -0.11984934
-2.017993 -1.1176711 -0.12089606
-2.0425079 -1.1145365 -0.12194277
-2.0758584 -1.1158658 -0.12351286
-2.0916541 -1.1074737 -0.12403622
-2.1162808 -1.1035444 -0.12508294
-2.1409397 -1.0993489 -0.12612966
-2.1834531 -1.1038982 -0.12822309
-2.1992862 -1.094607 -0.12874645
-2.2330244 -1.0939471 -0.13031653
-2.2578444 -1.0885689 -0.13136324
-2.2917068 -1.087202 -0.13293333
-2.3256402 -1.0854521 -0.13450341
-2.3505652 -1.0791521 -0.13555013
-2.384604 -1.0766903 -0.1371202
-2.4278307 -1.0778952 -0.13921364
-2.4711652 -1.0785987 -0.14130709
-2.4687159 -1.0591135 -0.14078373
-2.5464129 -1.054759 -0.14444724
-2.5992396 -1.0575564 -0.14706403
-2.6428576 -1.0561986 -0.14915748
-2.6772392 -1.0507483 -0.15072756
-2.7024708 -1.0409687 -0.15177427
-2.7557552 -1.041382 -0.15439107
-2.7903571 -1.0343996 -0.15596114
-2.8249571 -1.0270838 -0.15753123
-2.8595073 -1.0195608 -0.15910131
-2.9129043 -1.0183009 -0.1617181
-2.9664593 -1.016225 -0.16433489
-2.9917209 -1.0039201 -0.16538163
-3.054893 -1.0038073 -0.16852178
-3.1529968 -0.99232167 -0.17323202
-3.1973467 -0.98424345 -0.17532545
-3.2512808 -0.97852468 -0.17794225
-5.31389 -0.79227138 -0.28156745
-5.3879662 -0.76874298 -0.28523096
-5.8772268 -0.72579938 -0.31035221
-5.8519154 -0.68537414 -0.30878213
-5.875958 -0.6507892 -0.30982885
-6.0090098 -0.62772882 -0.31663254
-6.1916766 -0.60805267 -0.32605299
-6.6826382 -0.61404872 -0.35169762
-7.5022602 -0.64185011 -0.39461312
-7.57587 -0.59972632 -0.39827663
-7.6293364 -0.55507731 -0.40089342
-7.6326513 -0.50746137 -0.40089342
-8.3234558 -0.50160956 -0.43700522
-8.7651911 -0.47317165 -0.46003306
-9.6983757 -0.40140066 -0.5087055
-10.259595 -0.36006835 -0.53801364
-11.020299 -0.31745517 -0.57778895
-11.141881 -0.25090158 -0.58406925
-11.153222 -0.18105553 -0.58459264
-13.706778 1.3294647 -0.72171283
-13.727954 1.4186434 -0.72328287
-13.738623 1.5070444 -0.72432965
-13.718963 1.592189 -0.72380626
-13.698776 1.6771387 -0.72328287
-13.687967 1.7631807 -0.72328287
-13.67662 1.8491459 -0.72328287
-13.674618 1.9364456 -0.72380626
-13.662314 2.0214283 -0.72380626
-13.659396 2.1075649 -0.72432965
-13.645933 2.1930459 -0.72432965
-10.529251 1.7601006 -0.55947137
-10.458951 1.8159698 -0.55633122
-10.476818 1.8869624 -0.55790126
-10.484262 1.9571004 -0.55894798
-10.481385 2.0257485 -0.55947137
-10.380271 2.0741796 -0.55476111
-10.337692 2.1333075 -0.55319107
-10.392456 2.2127736 -0.55685455
-10.427117 2.2887352 -0.55947137
-10.402792 2.352 -0.55894798
-10.455893 2.4331627 -0.56261152
-10.420975 2.494159 -0.5615648
-16.474468 4.4945464 -0.89494485
-16.484375 4.6087203 -0.89703828
-5.2699833 1.6168536 -0.28889447
-5.2503352 1.6464876 -0.28837112
-5.2494335 1.6823757 -0.28889447
-5.2292681 1.7122194 -0.28837112
-5.038352 1.6851968 -0.27842727
-4.7345572 1.6171948 -0.26220313
-4.8845716 1.7028995 -0.27110025
-4.9114103 1.7469442 -0.27319369
-4.731473 1.7161553 -0.2637732
-3.1661997 1.5724039 -0.18526928
-3.1116781 1.5697762 -0.18265249
-3.0484288 1.5619724 -0.17951232
-3.0119777 1.5672673 -0.17794225
-2.9667528 1.5674995 -0.17584881
-2.9128444 1.5625072 -0.17323202
-2.8766589 1.5664501 -0.17166193
-2.8143187 1.5555098 -0.16852178
-2.760942 1.5487331 -0.16590498
-2.7164414 1.5462898 -0.16381153
-2.6720824 1.5433478 -0.1617181
-2.6364844 1.5449605 -0.16014802
-2.6095574 1.5512888 -0.15910131
-2.565551 1.5470282 -0.15700787
-2.5302229 1.5474856 -0.15543778
-1.6118205 1.0567555 -0.10100839
-1.6300997 1.083445 -0.10257848
-1.6066958 1.0825063 -0.10153175
-1.5833694 1.0813159 -0.10048503
-1.5683327 1.08556 -0.099961676
-1.5451306 1.0839221 -0.098914959
-1.5138721 1.0762506 -0.097344875
-1.4989777 1.0799035 -0.096821517
-1.4760311 1.0775247 -0.0957748
-1.4531044 1.0749949 -0.094728082
-1.4222558 1.0662599 -0.093157999
-1.4076228 1.069073 -0.092634641
-1.3851415 1.0655959 -0.091587923
-1.362689 1.0619704 -0.090541206
-1.3481512 1.0643238 -0.09001784
-1.3336385 1.0665361 -0.089494482
-1.3113912 1.0623229 -0.088447765
-1.2969708 1.0642067 -0.087924406
-1.2748982 1.0595692 -0.086877689
-1.2529361 1.0546962 -0.085830964
-1.2462844 1.062548 -0.085830964
-1.2168397 1.0508574 -0.084260888
-1.2026045 1.0520126 -0.08373753
-1.1884732 1.0529515 -0.083214171
-1.1669679 1.0470599 -0.082167447
-1.1529754 1.0476555 -0.081644088
-1.1390213 1.0481174 -0.081120729
-1.1251758 1.0483718 -0.080597371
-1.1041304 1.0416179 -0.079550654
-1.0975871 1.0485104 -0.079550654
-1.0837997 1.0484431 -0.079027295
-1.0629237 1.0412551 -0.07798057
-1.0563606 1.0479128 -0.07798057
-1.0356652 1.0403744 -0.076933853
-1.0291076 1.0468614 -0.076933853
-1.0085982 1.0389758 -0.075887136
-1.00205 1.0452927 -0.075887136
1.0333568 6.1552968 -0.32709971
1.0724136 6.1486125 -0.32709971
1.1133394 6.1514826 -0.32762307
1.1521021 6.144341 -0.32762307
1.1906852 6.1369805 -0.32762307
1.2311848 6.1391697 -0.32814643
1.2697338 6.1313128 -0.32814643
1.3103192 6.1329799 -0.32866979
1.3509755 6.1343784 -0.32919315
1.4710214 6.1272454 -0.33023989
1.5094907 6.1178818 -0.33023989
1.5479006 6.1082768 -0.33023989
1.588763 6.1080952 -0.33076325
1.6296843 6.1076407 -0.33128661
1.6680273 6.097281 -0.33128661
1.7090001 6.0962958 -0.33180997
1.7500262 6.095036 -0.33233333
1.7882876 6.08392 -0.33233333
1.8293548 6.0821271 -0.33285668
1.8704699 6.0800576 -0.33338004
1.9116311 6.0777116 -0.3339034
1.9497805 6.0655804 -0.3339034
1.9909688 6.0626974 -0.33442676
2.035373 6.0690045 -0.33547348
2.0766997 6.0655441 -0.33599684
2.1147695 6.0523763 -0.33599684
2.1561089 6.0483756 -0.3365202
2.1974814 6.0440946 -0.33704355
2.2423563 6.0488954 -0.33809027
2.2842436 6.043879 -0.33861363
2.3262892 6.0385232 -0.33913699
2.3460724 5.9772568 -0.3365202
2.2278891 5.5729413 -0.3145391
2.2628608 5.5588331 -0.3145391
1.6589408 3.6117764 -0.2082971
1.6985019 3.6374753 -0.21039054
1.7341688 3.6537969 -0.21196061
1.7527534 3.6338341 -0.21143726
1.7799457 3.6317167 -0.21196061
1.8071804 3.6294007 -0.21248397
2.0001085 3.6638925 -0.21876429
2.0376096 3.6774585 -0.22033437
2.0753593 3.6906967 -0.22190446
2.103457 3.6862576 -0.22242782
2.136584 3.690253 -0.22347453
2.1647863 3.6853664 -0.22399789
2.198123 3.6888494 -0.22504461
2.2212572 3.6749656 -0.22504461
2.2547424 3.677964 -0.22609133
2.2883523 3.6806862 -0.22713804
2.3167593 3.6746831 -0.2276614
2.3398023 3.660054 -0.2276614
2.3790476 3.6704204 -0.22923149
2.4020624 3.6554 -0.22923149
2.4360554 3.6568575 -0.23027821
2.4645724 3.6497552 -0.23080157
2.4930961 3.6424389 -0.23132493
2.5273173 3.6431129 -0.23237164
2.5616448 3.6434999 -0.23341836
2.5902817 3.6354659 -0.23394172
2.6247644 3.6353118 -0.23498844
2.6593466 3.6348677 -0.23603515
2.6883171 3.6259332 -0.23655851
2.7173595 3.6167181 -0.23708187
2.7522066 3.6154051 -0.2381286
2.7870655 3.6138568 -0.23917532
2.8281615 3.6198819 -0.2407454
2.8818374 3.6411932 -0.24336219
2.8921657 3.6074314 -0.24231547
2.9210699 3.5969405 -0.24283883
2.9563003 3.5939405 -0.24388555
2.9916077 3.5906394 -0.24493226
3.0334306 3.5946677 -0.24650235
3.0624447 3.5831287 -0.24702571
3.1045051 3.5864675 -0.24859579
3.1401443 3.5819092 -0.24964251
3.1822438 3.5847199 -0.2512126
3.2244208 3.5872152 -0.25278267
3.2739422 3.5962813 -0.25487611
3.3306334 3.6120601 -0.2574929
3.4307294 3.6278946 -0.26167977
3.4879909 3.6423299 -0.26429656
3.5455675 3.6561875 -0.26691338
3.596458 3.6623387 -0.26900682
3.6475646 3.6679935 -0.27110025
3.6847112 3.6590765 -0.27214697
3.7147591 3.6428447 -0.27267033
3.7304003 3.6124852 -0.27214697
3.7025027 3.5406623 -0.26848346
3.7537186 3.5447545 -0.27057689
3.8044603 3.4159448 -0.2679601
3.8632097 3.4250984 -0.27057689
3.9222231 3.4336469 -0.27319369
3.9588299 3.4219964 -0.2742404
4.0030403 3.4165037 -0.27581048
4.0549736 3.4170246 -0.27790391
4.1070704 3.417027 -0.27999735
4.1438923 3.4038317 -0.28104407
4.1962228 3.4028878 -0.28313753
4.2409081 3.3951786 -0.28470761
4.2934966 3.3932335 -0.28680104
4.291111 3.3477616 -0.28523096
4.3434901 3.3453906 -0.2873244
4.4197793 3.3607259 -0.29098791
4.4808898 3.3626661 -0.2936047
4.5343218 3.357825 -0.29569814
4.571528 3.3409541 -0.29674485
4.6248274 3.3355308 -0.29883832
5.0036807 3.5611908 -0.32186612
5.0668187 3.5583787 -0.32448292
5.146534 3.5662878 -0.32814643
5.2100587 3.5620618 -0.33076325
5.2737317 3.5571773 -0.33338004
5.3375478 3.5516319 -0.33599684
5.4015007 3.5454242 -0.33861363
5.4655843 3.5385523 -0.34123042
5.5382099 3.5363879 -0.34437057
5.5941215 3.5228066 -0.34646404
5.5906949 3.4717836 -0.34489393
5.5357494 3.3896542 -0.34018371
5.5398393 3.3444829 -0.33913699
5.5521626 3.3045018 -0.33861363
5.5642023 3.264498 -0.33809027
5.6308131 3.2091548 -0.33966035
5.7205219 3.2128334 -0.34384722
5.8017588 3.2106745 -0.34751076
5.8919597 3.2124007 -0.35169762
5.9648137 3.2036684 -0.35483778
6.0554419 3.203486 -0.35902464
6.1372356 3.198077 -0.36268818
6.2280083 3.1964691 -0.36687505
6.3104992 3.1885269 -0.37053856
6.3932748 3.1793883 -0.37420207
6.4847422 3.174562 -0.37838897
6.5582638 3.1603339 -0.38152912
6.6322684 3.1444464 -0.38466927
6.679317 3.1147945 -0.38623935
6.7984657 3.1188626 -0.39199629
6.9177852 3.1218648 -0.39775327
7.0102196 3.1108944 -0.40194014
7.6611958 3.3423183 -0.43805194
7.7830029 3.3374088 -0.44380891
7.9234529 3.3388534 -0.45061257
7.9442749 3.2890031 -0.45061257
7.9185305 3.2202137 -0.44799578
7.9388151 3.1698766 -0.44799578
7.9402523 3.1119499 -0.44694906
7.9317536 3.051069 -0.44537899
8.0161676 3.0258589 -0.4490425
8.1097431 3.0037067 -0.45322937
8.2502146 2.9977379 -0.46003306
8.3817072 2.9862406 -0.46631336
8.5228682 2.9763191 -0.47311702
8.6642303 2.96474 -0.47992072
8.8152475 2.954674 -0.48724774
8.9095449 2.9241409 -0.49143463
8.8897114 2.8558853 -0.48934117
8.8884258 2.7939844 -0.48829445
8.8771696 2.7292776 -0.48672438
8.8654518 2.6648231 -0.4851543
8.8532763 2.6006241 -0.48358423
8.8502436 2.5394375 -0.48253751
8.8467922 2.4783921 -0.48149079
8.8525572 2.4201241 -0.48096743
8.8482904 2.3593087 -0.47992072
8.8436089 2.2986436 -0.478874
8.8288345 2.2356784 -0.47730392
8.8330116 2.177772 -0.47678056
8.8173876 2.1152411 -0.47521049
8.8110542 2.0552614 -0.47416374
8.8140545 1.9976522 -0.47364038
8.8067989 1.9385163 -0.47259367
8.7991085 1.8797413 -0.47154695
8.7911482 1.8205591 -0.47050023
8.7926226 1.7633234 -0.46997687
8.7839212 1.7042391 -0.46893016
8.7748251 1.6453339 -0.46788344
8.7751637 1.588389 -0.46736008
8.765295 1.5297881 -0.46631336
8.7648859 1.4730291 -0.46579
8.7542515 1.4147426 -0.46474329
8.7530994 1.3581803 -0.46421993
8.7417049 1.3002181 -0.46317321
8.729847 1.2430247 -0.46212649
8.7274857 1.1875659 -0.46160313
8.7248478 1.1316115 -0.46107978
8.7218742 1.0755475 -0.46055642
8.1531744 0.9534502 -0.43020156
8.1193018 0.89781344 -0.42810813
8.1745005 0.85142237 -0.43072492
8.1499414 0.79641569 -0.42915484
8.1448078 0.74463958 -0.42863148
8.129364 0.6924665 -0.42758477
8.1235857 0.64076608 -0.42706141
8.1274509 0.58971167 -0.42706141
8.1210318 0.53797394 -0.42653805
8.1142826 0.48634017 -0.42601466
8.1072063 0.4348135 -0.4254913
8.1097784 0.3838661 -0.4254913
8.1020517 0.33249512 -0.42496794
8.103981 0.28158212 -0.42496794
8.0956087 0.23037393 -0.42444459
8.3265247 0.18459415 -0.43648186
11.164164 0.10717246 -0.58511597
11.184589 0.037090413 -0.58616269
11.184602 -0.033184819 -0.58616269
11.184179 -0.10272752 -0.58616269
11.183328 -0.17202054 -0.58616269
11.172048 -0.2418249 -0.58563936
11.170307 -0.31201583 -0.58563936
11.168127 -0.38219443 -0.58563936
11.145549 -0.45154947 -0.58459264
11.152467 -0.52203518 -0.58511597
11.138994 -0.59156799 -0.58459264
11.135057 -0.66154283 -0.58459264
11.130681 -0.73149306 -0.58459264
11.125866 -0.80141443 -0.58459264
11.12061 -0.87130415 -0.58459264
11.124928 -0.94127464 -0.58511597
11.108938 -1.0092809 -0.58459264
11.11234 -1.079785 -0.58511597
11.105336 -1.1495843 -0.58511597
11.097894 -1.2193381 -0.58511597
11.099934 -1.2901968 -0.58563936
11.081696 -1.3586986 -0.58511597
11.07294 -1.4282998 -0.58511597
11.073643 -1.4991844 -0.58563936
11.073893 -1.5701342 -0.58616269
11.063916 -1.6389573 -0.58616269
11.053549 -1.7074757 -0.58616269
11.052501 -1.7782383 -0.58668607
11.041109 -1.8476477 -0.58668607
11.039122 -1.9186943 -0.5872094
11.026848 -1.988017 -0.5872094
11.023955 -2.0590947 -0.58773279
11.0108 -2.1283193 -0.58773279
11.007003 -2.1994166 -0.58825612
11.002747 -2.27055 -0.58877951
8.0955725 -1.8381548 1.9165829
7.7233157 -1.8047339 1.8311015
7.389708 -1.7758175 1.7546182
7.0946198 -1.752128 1.6871328
6.8001318 -1.7248032 1.6196476
6.534688 -1.7007506 1.5589107
6.3169127 -1.6859301 1.5094216
6.0712671 -1.6611959 1.4531838
5.8636899 -1.6440691 1.4059441
5.6566906 -1.6240001 1.3587043
5.4782457 -1.6095766 1.3182131
5.309422 -1.5961866 1.2799715
5.0943947 -1.5665109 1.2304822
4.9635038 -1.5608509 1.2012386
4.8606987 -1.5626175 1.1787435
4.6934958 -1.5411856 1.1405019
-1.0253489 -6.2597284 1.4644313
-1.0646595 -6.2531624 1.4644313
-1.1056237 -6.2559447 1.4666809
-1.146665 -6.2584586 1.4689304
-1.1859652 -6.2511301 1.4689304
-1.2252187 -6.2435555 1.4689304
-1.26636 -6.2452831 1.4711798
-1.3075714 -6.2467403 1.4734293
-1.3463528 -6.2384968 1.4734293
-1.6791586 -5.9449148 1.4261897
-1.730015 -5.9810467 1.4374372
-1.7592623 -5.9420304 1.4306887
-1.7513658 -5.7816553 1.3946965
-1.7295963 -5.5845132 1.3497063
-1.7200609 -5.4343472 1.3159636
-1.7091058 -5.2843986 1.282221
-1.6933688 -5.125526 1.2462288
-1.6819342 -4.9855304 1.2147356
-1.6719816 -4.8550992 1.185492
-1.6572274 -4.7158017 1.1539989
-1.6440775 -4.5860586 1.1247553
-1.4129515 -1.6507043 0.50164086
-1.4169127 -1.6344316 0.49939135
-1.4078683 -1.6035305 0.49264279
-1.4049667 -1.5800899 0.48814377
-1.4018267 -1.5567497 0.48364475
-1.3984493 -1.5335119 0.47914574
-1.3948355 -1.510379 0.47464672
-1.3975365 -1.4945676 0.47239721
-1.4000713 -1.4788041 0.4701477
-1.3890816 -1.4489008 0.46339917
-1.3913707 -1.4331534 0.46114966
-1.2718278 -1.0305494 0.37791777
-1.308713 -1.0468842 0.3869158
-1.3229119 -1.0446793 0.38916531
-1.3371342 -1.0423371 0.39141482
-1.3591014 -1.0457991 0.39591384
-1.3811642 -1.0490258 0.40041286
-1.3955243 -1.0461715 0.40266237
-1.40207 -1.0373826 0.40266237
-1.4163562 -1.0343992 0.40491191
-1.4385461 -1.0369995 0.40941092
-1.452956 -1.0336124 0.41166043
-1.4673966 -1.030061 0.41390994
-2.3758199 -1.0358729 0.59836978
-2.4270613 -1.0401152 0.60961735
-2.4515085 -1.0324085 0.61411637
-2.8241279 -0.98603916 0.69059974
-2.885566 -0.98724687 0.70409679
-2.891712 -0.96909767 0.70409679
-2.9625494 -0.97217584 0.71984339
-5.3980279 -0.97685039 1.2664744
-5.3944602 -0.94124109 1.2642249
-5.4002681 -0.90732682 1.2642249
-5.3874965 -0.80108398 1.2574763
-5.3924236 -0.76721627 1.2574763
-5.8026471 -0.78841859 1.3519558
-5.8364754 -0.755696 1.3587043
-5.8797913 -0.72377282 1.3677024
-5.8745446 -0.68568373 1.3654529
-5.8690519 -0.64769226 1.3632034
-5.9601846 -0.62029529 1.383449
-6.1578622 -0.60232455 1.4284391
-6.3749857 -0.58325243 1.4779284
-6.6212387 -0.56385684 1.5341662
-6.8675284 -0.54089898 1.5904039
-7.1332283 -0.51612574 1.6511407
-7.4377017 -0.49160734 1.7208755
-7.8004775 -0.46706107 1.8041074
-8.1437922 -0.43642053 1.8828403
-8.5356865 -0.40365615 1.9728208
-8.2770901 1.8748138 1.9593236
-7.9330235 1.8493556 1.8805908
-7.6085658 1.8241986 1.8063569
-7.2847509 1.7950362 1.7321231
-6.9993973 1.7714461 1.6668873
-6.7335014 1.7492398 1.6061505
-6.4210944 1.7112228 1.5341662
-6.2316322 1.7027357 1.4914255
-6.3240213 1.7707576 1.51617
-6.2846727 1.8023974 1.5094216
-6.1610346 1.8089118 1.4824275
-6.168211 1.8531924 1.4869264
-5.2624321 1.6167667 1.2709734
-5.131464 1.6113926 1.2417299
-4.9913774 1.6018358 1.2102367
-4.8608508 1.5937015 1.180993
-4.7212758 1.5812349 1.1494999
-4.7295461 1.6175848 1.1539989
-4.7468596 1.6569822 1.1607474
-4.7179971 1.6802355 1.1562485
-4.7074685 1.7095115 1.1562485
-4.6967859 1.7386465 1.1562485
-3.6105216 1.493497 0.90205371
-3.4663627 1.45944 0.86831105
-3.4660811 1.4850272 0.87056059
-3.4745457 1.5145637 0.8750596
-3.4738686 1.5403135 0.87730908
-3.4818864 1.5701218 0.8818081
-3.1137643 1.5723623 0.80532473
-3.0604737 1.5696632 0.79407722
-2.8050368 1.5518173 0.74008894
-2.7442539 1.5407904 0.72659189
-2.709121 1.5435313 0.71984339
-2.6571913 1.5361402 0.70859581
-2.6222732 1.5380161 0.70184726
-2.5790632 1.5345335 0.69284922
-1.5900843 1.0577502 0.44090405
-1.5753286 1.0622721 0.43865454
-1.5605786 1.0666513 0.43640503
-1.5298176 1.0597893 0.42965651
-1.5071793 1.0581832 0.42515749
-1.4846228 1.056334 0.42065847
-1.4542456 1.0485458 0.41390994
-1.4318938 1.0461657 0.40941092
-1.4095557 1.0436472 0.40491191
-1.3872912 1.0409095 0.40041286
-1.3652666 1.0377377 0.39591384
-1.35109 1.0402329 0.39366433
-1.3368613 1.0426872 0.39141482
-1.3149931 1.0389847 0.3869158
-1.2932243 1.0350498 0.38241678
-1.279127 1.0370183 0.38016728
-1.2650557 1.0388515 0.37791777
-1.2510126 1.0405484 0.37566826
-1.2295461 1.035833 0.37116924
-1.2081894 1.0308887 0.36667022
-1.1942431 1.0321729 0.36442071
-1.1803125 1.0333413 0.3621712
-1.1664886 1.0342923 0.35992169
-1.1527175 1.0350909 0.35767218
-1.1317732 1.0292026 0.35317314
-1.1181172 1.0296925 0.35092363
-1.097446 1.023329 0.34642461
-1.0839994 1.0234202 0.3441751
-1.0775644 1.0301934 0.3441751
-1.0640701 1.0301659 0.34192559
-1.0436611 1.0231885 0.33742657
-1.037212 1.0297256 0.33742657
-1.0169784 1.0224061 0.33292755
-1.0037067 1.0218244 0.33067805
-1.3680124 7.2975826 1.7141271
-1.3134562 7.2580943 1.7028794
-1.2695032 7.2758021 1.7051289
-1.2286047 7.3124623 1.7118775
-1.1841911 7.3296561 1.7141271
-1.1396099 7.34658 1.7163765
-1.0934297 7.3535953 1.7163765
-1.0458299 7.3506742 1.7141271
-1.0009376 7.3667545 1.7163765
1.0332499 6.1398916 1.4374372
1.0722423 6.1332026 1.4374372
1.1112914 6.1262474 1.4374372
1.1498617 6.1191254 1.4374372
1.1882863 6.1117797 1.4374372
1.2285838 6.1137457 1.4396868
1.266973 6.1059055 1.4396868
1.3073519 6.1073523 1.4419363
1.3456994 6.0990171 1.4419363
1.464974 6.091517 1.4464352
1.5055567 6.091651 1.4486848
1.5438018 6.0820708 1.4486848
1.5844424 6.0816798 1.4509343
1.6251389 6.081018 1.4531838
1.6633147 6.0706868 1.4531838
1.7040586 6.0694971 1.4554332
1.7448534 6.0680351 1.4576828
1.7856965 6.066299 1.4599323
1.8237768 6.0549598 1.4599323
1.8646536 6.0526929 1.4621818
1.9055738 6.0501513 1.4644313
1.9465356 6.0473337 1.4666809
1.9875371 6.04424 1.4689304
2.0254748 6.0316329 1.4689304
2.0696521 6.0372219 1.4734293
2.1075439 6.0240989 1.4734293
2.1519034 6.0290914 1.4779284
2.1930752 6.0246072 1.4801779
2.2342758 6.0198441 1.4824275
2.2759297 6.0146389 1.484677
2.3177054 6.009109 1.4869264
2.3590775 6.003458 1.4891759
2.4039924 6.0066094 1.493675
2.4453628 6.0004091 1.4959245
2.4867499 5.993926 1.498174
1.6607285 3.611928 0.91780031
1.6792639 3.5925951 0.91555077
1.7143476 3.6083758 0.92229933
1.7454587 3.615082 0.92679834
1.7681384 3.6040437 0.92679834
1.7907482 3.5928631 0.92679834
1.8176886 3.5902338 0.92904782
1.8402107 3.578742 0.92904782
3.2560065 5.8709702 1.5499127
3.3262844 5.9098344 1.5656593
3.3826807 5.9226623 1.5746573
3.4247122 5.9097219 1.5769069
3.4667146 5.8964868 1.5791564
3.5136769 5.891325 1.5836554
3.5607104 5.8858056 1.5881544
3.6078131 5.8799267 1.5926534
3.6549821 5.8736877 1.5971525
3.7074142 5.8753281 1.603901
3.7547593 5.8683329 1.6084
3.8021626 5.8609738 1.6128991
3.8442671 5.8451095 1.6151485
3.8376756 5.7559838 1.5971525
3.8301172 5.6671748 1.5791564
3.8215964 5.5786901 1.5611603
3.8176734 5.4985423 1.5454137
3.812896 5.4186664 1.5296671
3.807267 5.3390694 1.5139205
3.8007896 5.2597599 1.498174
3.7934673 5.1807446 1.4824275
3.785666 5.1017623 1.4666809
3.7829537 5.030817 1.4531838
3.7732358 4.9526324 1.4374372
3.7685585 4.8825464 1.4239402
3.7631509 4.812717 1.4104431
3.7570159 4.7431502 1.3969461
3.7501569 4.673852 1.383449
3.7487218 4.6123905 1.3722014
3.746664 4.5511332 1.3609538
3.7377458 4.4826016 1.3474568
3.7344024 4.4218078 1.3362093
3.730444 4.3612342 1.3249617
3.7194932 4.2935219 1.3114647
3.7206924 4.2407699 1.3024666
3.7146082 4.1811528 1.291219
3.7078605 4.1218376 1.2799715
3.70766 4.0694451 1.2709734
3.700469 4.0099401 1.2597259
3.6923912 3.9509554 1.2484783
3.683655 3.892293 1.2372308
3.6810706 3.8409326 1.2282327
3.6779871 3.7897596 1.2192347
3.6675773 3.7318285 1.2079872
3.6978259 3.7156172 1.2102367
3.7072656 3.6785836 1.2057376
3.7303057 3.6552179 1.2057376
3.7391937 3.6181564 1.2012386
3.7618532 3.5945914 1.2012386
3.7283103 3.4739695 1.176494
3.7357235 3.4372804 1.1719949
3.7786217 3.3900657 1.1719949
3.7998471 3.3662574 1.1719949
3.8575921 3.374392 1.1832426
3.9008396 3.3691945 1.1899911
3.9664149 3.3825536 1.2034881
4.0024967 3.3701167 1.2079872
4.0610561 3.3760464 1.2192347
4.0972514 3.3628271 1.2237337
4.1410112 3.3554196 1.2304822
4.1924472 3.3536808 1.2394803
4.2363768 3.3453889 1.2462288
4.2957363 3.3486571 1.2574763
4.3164558 3.3219063 1.2574763
4.3679886 3.3186769 1.2664744
4.4435029 3.3318448 1.282221
4.4959693 3.3266523 1.291219
4.5404429 3.3155024 1.2979676
4.5849004 3.3039982 1.3047161
4.637332 3.2977126 1.3137141
4.6898642 3.2908976 1.3227122
4.7505035 3.2890983 1.3339597
4.8032584 3.2811697 1.3429577
4.8641796 3.2781525 1.3542054
4.9171371 3.2691035 1.3632034
4.9701719 3.2595179 1.3722014
5.0314598 3.2546864 1.383449
5.1010962 3.2544527 1.3969461
5.1626792 3.2482822 1.4081936
5.2243843 3.2414653 1.4194411
5.277894 3.2289152 1.4284391
5.3481383 3.2258852 1.4419363
5.418551 3.2220986 1.4554332
5.4807191 3.2126262 1.4666809
5.5514169 3.2073736 1.4801779
5.6222634 3.2013578 1.493675
5.6932511 3.1945772 1.507172
5.755847 3.1823151 1.5184196
5.8356247 3.1787136 1.5341662
5.8984103 3.1650198 1.5454137
6.0215545 3.1825328 1.5724078
6.0930648 3.1720603 1.585905
6.1819644 3.1698136 1.603901
6.2628179 3.1613054 1.6196476
6.3439131 3.1516907 1.6353941
6.4159384 3.1378005 1.6488912
6.5142708 3.1360254 1.6691368
6.6044626 3.1280434 1.6871328
6.6772494 3.1105943 1.7006299
6.7230678 3.0811226 1.7073785
6.8397398 3.0834572 1.7321231
6.9569135 3.0839696 1.7568676
7.074409 3.0830171 1.7816123
7.1652932 3.0691986 1.7996083
7.2562804 3.0543585 1.8176045
7.3653693 3.0459423 1.8400996
7.4565811 3.0289404 1.8580956
7.5933323 3.0284247 1.8873394
7.7032032 3.0155082 1.9098344
7.8311925 3.008857 1.9368285
7.9502325 2.9974043 1.9615731
8.0692225 2.9851458 1.9863178
8.4744549 0.93371719 1.9683217
8.121624 0.84264654 1.8850898
8.1171303 0.78994679 1.8828403
8.1413002 0.74114019 1.8873394
8.1554441 0.69150615 1.8895888
8.1499043 0.63962191 1.8873394
8.134325 0.58699954 1.8828403
8.12813 0.5352385 1.8805908
8.1118793 0.48299935 1.8760917
8.1050243 0.4315047 1.8738422
8.1075754 0.38057107 1.8738422
8.100071 0.32922667 1.8715928
8.0922413 0.27799165 1.8693433
8.0840893 0.22686803 1.8670937
8.0853548 0.17606997 1.8670937
8.46626 0.13115092 1.9548247
10.983591 -2.2827146 -0.195816
8.603323 -1.8437055 -0.15358117
8.2303524 -1.8178445 -0.14712378
7.8482895 -1.7852486 -0.14049187
7.4767118 -1.7502056 -0.13403448
7.1836643 -1.7292873 -0.12897328
6.8717742 -1.6999562 -0.12356304
6.5896201 -1.6741629 -0.11867636
6.3662491 -1.6595443 -0.11483683
6.1336794 -1.6395713 -0.11082278
5.91113 -1.6198751 -0.10698325
5.7179384 -1.6056253 -0.10366729
5.5541158 -1.5968797 -0.10087491
5.3426847 -1.5719948 -0.097209901
5.1699619 -1.5564743 -0.09424299
5.0167446 -1.5447904 -0.091625132
4.8923779 -1.5406249 -0.089530841
-1.4389801 -2.2128744 -0.046074353
-1.4308425 -2.1703987 -0.045376256
-1.4222289 -2.128114 -0.044678159
-1.4299644 -2.110858 -0.044503637
-1.4205606 -2.0688617 -0.04380554
-1.422109 -2.0434818 -0.043456491
-1.423395 -2.0181646 -0.043107443
-1.4244194 -1.9929127 -0.042758394
-1.4251832 -1.9677283 -0.042409346
-1.4138557 -1.9264922 -0.041711252
-1.4199655 -1.9095478 -0.041536726
-1.4138858 -1.8766313 -0.041013155
-1.4074494 -1.8438674 -0.04048958
-1.4128904 -1.8270783 -0.040315058
-1.4057072 -1.7946597 -0.039791487
-1.4105861 -1.7780825 -0.039616961
-1.4029218 -1.7458185 -0.03909339
-1.4075514 -1.7292149 -0.038918864
-1.4056675 -1.7049079 -0.038569819
-1.4035344 -1.6806934 -0.038220771
-1.4076098 -1.6642077 -0.038046245
-1.4050289 -1.6401441 -0.037697196
-1.3956494 -1.608627 -0.037173625
-1.3925298 -1.5848043 -0.036824577
-1.3891665 -1.5610849 -0.036475528
-1.392254 -1.5448984 -0.036301006
-1.3884529 -1.5213501 -0.035951957
-1.391198 -1.5052534 -0.035777431
-1.3868504 -1.4819888 -0.035428386
-1.3891294 -1.4661094 -0.03525386
-1.3913755 -1.4501529 -0.035079338
-1.312114 -1.0487598 -0.029320043
-1.3186777 -1.0404948 -0.029320043
-1.3409653 -1.0444769 -0.029669091
-1.3554279 -1.042125 -0.029843615
-1.3699136 -1.0396324 -0.030018138
-1.3844211 -1.0369987 -0.030192662
-1.4069893 -1.0401675 -0.030541711
-1.421495 -1.0373083 -0.030716235
-1.4360076 -1.0343248 -0.030890759
-1.4506165 -1.0310901 -0.031065283
-1.465252 -1.0276966 -0.031239808
-1.7619296 -1.123554 -0.036475528
-1.7858821 -1.1231068 -0.036824577
-1.8014007 -1.1171333 -0.036999103
-1.8083842 -1.1057928 -0.036999103
-1.849462 -1.1151991 -0.037697196
-1.8821186 -1.1190482 -0.038220771
-1.9149785 -1.1223885 -0.038744342
-1.9306505 -1.1153358 -0.038918864
-1.9463091 -1.1081302 -0.03909339
-2.1849198 -1.0853165 -0.042583872
-2.218643 -1.084742 -0.043107443
-5.054009 -0.81449813 -0.089356318
-5.2072411 -0.80565703 -0.091974184
-5.3506646 -0.79345769 -0.09441752
-5.4446383 -0.77246475 -0.095988236
-5.8406472 -0.75390512 -0.10279467
-5.8452687 -0.71719408 -0.10279467
-5.8695226 -0.68276221 -0.10314372
-5.8637581 -0.64477831 -0.1029692
-6.0267701 -0.62486613 -0.10576158
-6.159894 -0.60011524 -0.10803039
-7.5816531 -0.64264697 -0.13281281
-7.6055226 -0.59597999 -0.13316186
-7.6291103 -0.54895407 -0.1335109
-7.6223993 -0.5008508 -0.13333638
-8.4936886 -0.50526708 -0.14851998
-8.8161907 -0.46897855 -0.15410474
-9.2084751 -0.43184492 -0.16091119
-10.292376 -0.35312852 -0.17975979
-11.133933 -0.31197432 -0.1944198
-11.155666 -0.2424494 -0.19476885
-13.847309 -0.12689316 -0.24171582
-13.857832 -0.03991098 -0.24189036
-13.867807 0.047191039 -0.24206488
-13.857239 0.13423052 -0.24189036
-13.846125 0.2211317 -0.24171582
-13.83449 0.30685216 -0.2415413
-13.832323 0.39256576 -0.2415413
-13.819596 0.4789713 -0.24136677
-13.816314 0.56578881 -0.24136677
-13.792511 0.65164763 -0.24101773
-13.798129 0.73882616 -0.24119225
-13.783171 0.82595617 -0.24101773
-13.767653 0.91308719 -0.24084321
-13.771682 0.99939191 -0.24101773
-13.755258 1.0839176 -0.24084321
-13.708339 1.1667807 -0.2401451
-13.750523 1.2574382 -0.24101773
-13.74235 1.3438138 -0.24101773
-13.733635 1.4301288 -0.24101773
-13.724379 1.5163949 -0.24101773
-13.66454 2.1191943 -0.24136677
-13.650979 2.20486 -0.24136677
-10.461826 1.7572737 -0.18517002
-10.470277 1.8264114 -0.18551908
-10.478272 1.8957189 -0.18586813
-10.48566 1.9660032 -0.18621717
-10.453291 2.0289547 -0.18586813
-10.410904 2.0888078 -0.18534455
-10.387785 2.1521487 -0.18517002
-10.432722 2.2299163 -0.18621717
-10.447799 2.3018739 -0.18674074
-10.44288 2.369689 -0.18691526
-10.418049 2.4329798 -0.18674074
-5.2656002 1.6199716 -0.096162759
-5.2554617 1.6525666 -0.096162759
-5.2545118 1.6885566 -0.096337281
-4.8514342 1.6956228 -0.08970537
-4.9254446 1.7562934 -0.091276087
-4.7453089 1.7253333 -0.088134654
-3.0785449 1.5560964 -0.060210802
-3.0153384 1.5480095 -0.059163656
-2.9700892 1.5484352 -0.058465559
-2.9249542 1.5483557 -0.057767466
-2.8799398 1.5477693 -0.057069369
-2.8262715 1.5418923 -0.056196749
-2.7727933 1.5354013 -0.055324126
-2.7282255 1.5332 -0.054626033
-2.6837969 1.5304986 -0.053927936
-2.6308565 1.522294 -0.053055316
-2.5867503 1.5185461 -0.052357219
-2.5685668 1.5296539 -0.052182693
-2.533231 1.5302523 -0.051659122
-2.4979889 1.5304692 -0.051135551
-1.604598 1.0538226 -0.033508621
-1.6062675 1.0694252 -0.033683144
-1.5746537 1.0627164 -0.033159573
-1.5514405 1.0612992 -0.032810524
-1.5283084 1.0596319 -0.032461476
-1.5052586 1.0577171 -0.032112427
-1.4904389 1.0613538 -0.031937905
-1.4594169 1.0531455 -0.03141433
-1.4366294 1.0504907 -0.031065283
-1.4138532 1.0477003 -0.030716235
-1.3991547 1.0506824 -0.030541711
-1.3766798 1.0472542 -0.030192662
-1.3543243 1.0435587 -0.029843615
-1.3477523 1.0520328 -0.029843615
-1.3254304 1.0480766 -0.029494567
-1.3032113 1.0438825 -0.029145518
-1.2810986 1.0394504 -0.02879647
-1.2668175 1.0411313 -0.028621946
-1.2448822 1.0362765 -0.028272899
-1.2383463 1.0440781 -0.028272899
-1.2165551 1.0388522 -0.02792385
-1.2023618 1.040027 -0.027749326
-1.188192 1.0410761 -0.027574802
-1.1666586 1.0352615 -0.027225753
-1.1526945 1.0358878 -0.027051229
-1.1313736 1.0296508 -0.026702181
-1.1175299 1.0299627 -0.026527658
-1.1111151 1.0368797 -0.026527658
-1.0901341 1.0300108 -0.02617861
-1.0692035 1.0230038 -0.025829561
-1.0555742 1.0227438 -0.025655037
-1.0419902 1.0223538 -0.025480513
-1.0284535 1.0218332 -0.025305988
-1.0220131 1.0282747 -0.025305988
-1.0085287 1.02754 -0.025131464
1.0377941 6.1521316 -0.10890301
1.0768977 6.1454072 -0.10890301
1.1160246 6.1384225 -0.10890301
1.1564884 6.1411023 -0.10907754
1.195051 6.1337147 -0.10907754
1.2355402 6.1358867 -0.10925207
1.2740684 6.1280026 -0.10925207
1.3146431 6.1296525 -0.10942659
1.3531307 6.1212716 -0.10942659
1.4322245 6.1135197 -0.10960111
1.4752918 6.1238408 -0.10995016
1.5113369 6.1047449 -0.10977563
1.5521278 6.1048188 -0.10995016
1.5904546 6.0949459 -0.10995016
1.6338893 6.1041493 -0.11029921
1.6722102 6.0937629 -0.11029921
1.7131717 6.092761 -0.11047373
1.7541864 6.091485 -0.11064825
