# .PCD v0.7 - Point Cloud Data file format
VERSION 0.7
FIELDS x y z
SIZE 4 4 4
TYPE F F F
COUNT 1 1 1
WIDTH 1502
HEIGHT 1
VIEWPOINT 0 0 0 1 0 0 0
POINTS 1502
DATA ascii
2.3214941 -1.8093497 0.46617469
2.317832 -1.8300204 0.46773905
2.329428 -1.8630548 0.47243208
2.3100019 -1.8714367 0.47086772
2.3058329 -1.8921794 0.47243208
2.3014941 -1.9129434 0.47399643
2.29708 -1.9336146 0.47556075
2.2850556 -1.9478097 0.47556075
2.2877998 -1.9749502 0.47868946
2.2827816 -1.9957868 0.48025379
2.2775915 -2.016638 0.48181814
6.9063697 -6.5110784 1.5033352
6.9007201 -6.5887833 1.5111569
6.8870063 -6.6600752 1.5174143
6.8803811 -6.7376933 1.525236
6.866559 -6.8080096 1.5314934
6.85179 -6.8787498 1.5377507
6.8430653 -6.956872 1.5455725
6.8339729 -7.0348191 1.5533942
6.8244457 -7.1126609 1.5612159
6.8206563 -7.1981564 1.5706021
6.8090363 -7.2769299 1.5784237
6.6704564 -7.3108439 1.5674733
6.5850806 -7.3082609 1.5580872
6.500278 -7.3046498 1.5487012
6.408895 -7.2931671 1.5377507
6.3176336 -7.2810707 1.5268004
6.6976686 -7.9179053 1.6425619
6.7051611 -8.02773 1.656641
6.6930013 -8.1148376 1.6660271
6.6796141 -8.2024298 1.6754131
6.597002 -8.2057486 1.6675913
6.5084734 -8.2006178 1.6582053
6.4263625 -8.2024755 1.6503836
6.3328028 -8.1876898 1.6394331
6.2459865 -8.1796694 1.6300471
6.1591139 -8.1711912 1.620661
6.0663834 -8.1542578 1.6097106
5.9799562 -8.1444454 1.6003245
6.1604805 -8.5017738 1.6628983
3.8462 -7.1162753 1.2811983
3.8391736 -7.2097125 1.293713
3.8307774 -7.3035207 1.3062278
3.8210745 -7.3976488 1.3187425
3.8148158 -7.5007443 1.3328216
3.1647327 -7.0780616 1.2280105
3.1128664 -7.0794511 1.2248819
3.072515 -7.1078181 1.2264462
3.0355189 -7.145164 1.2295749
2.3125546 -6.8292017 1.1419716
2.263382 -6.8248472 1.1388429
2.2052052 -6.7919631 1.1310211
2.1535137 -6.7774453 1.1263281
2.1079557 -6.7814107 1.1247637
2.0598927 -6.7755203 1.1216351
2.0206876 -6.7976203 1.1231995
1.9754413 -6.8006225 1.1216351
1.927282 -6.7938962 1.1185064
1.8796179 -6.7867422 1.1153777
1.829801 -6.7696533 1.1106846
1.7849725 -6.7713976 1.1091204
1.7374765 -6.7633467 1.1059916
1.6925497 -6.7645483 1.1044273
1.6476765 -6.7654533 1.102863
1.6005819 -6.7564502 1.0997343
1.5536658 -6.7471237 1.0966055
1.5090861 -6.7471137 1.0950413
1.4624727 -6.7371583 1.0919125
1.4160441 -6.7268839 1.0887839
1.3717763 -6.7259707 1.0872195
1.3279055 -6.7247024 1.0856552
1.2825084 -6.7133975 1.0825264
1.2387668 -6.7115631 1.0809622
1.1948409 -6.7094898 1.0793978
1.1509901 -6.7071304 1.0778334
1.1056068 -6.6947398 1.0747048
1.0607522 -6.681993 1.0715761
1.0193315 -6.688437 1.0715761
-1.0021006 -6.1312065 0.98397279
-1.0403039 -6.1248398 0.98397279
-1.0782323 -6.1182771 0.98397279
-1.1181936 -6.1211405 0.98553711
-1.1566316 -6.1139936 0.98553711
-1.195024 -6.106606 0.98553711
-1.2333691 -6.0989766 0.98553711
-1.2676286 -6.0717702 0.9824084
-1.9234215 -6.3627787 1.0528039
-1.8665625 -6.0393362 1.0011805
-1.9042423 -6.0275617 1.0011805
-1.9542147 -6.0530748 1.0074379
-1.0100784 -1.2281728 0.25185949
-1.0177284 -1.2218411 0.25185949
-1.0317541 -1.2229717 0.25342384
-1.0458341 -1.2239739 0.25498816
-1.0535039 -1.2173786 0.25498816
-1.0676421 -1.218163 0.25655252
-1.0752749 -1.2114308 0.25655252
-2.4814467 -2.0672803 0.51154071
-2.4409902 -2.0077293 0.50059026
-2.4688916 -2.0048046 0.50371897
-2.4660265 -1.976897 0.50059026
-2.4706542 -1.9552343 0.49902594
-2.4595404 -1.9214308 0.49433291
-2.4559216 -1.8938763 0.4912042
-1.561168 -1.1279188 0.30504721
-1.5762662 -1.1238213 0.30661154
-1.5994523 -1.1252614 0.30974025
-1.6227181 -1.1264541 0.31286892
-1.6379126 -1.1218174 0.31443328
-1.6531125 -1.1170338 0.3159976
-1.6683167 -1.1121033 0.31756195
-1.7247866 -1.1341586 0.32694802
-1.7070192 -1.1071752 0.32225499
-1.7389024 -1.1123953 0.32694802
-1.7541566 -1.1068037 0.32851237
-1.7861373 -1.1115699 0.3332054
-1.8098801 -1.1107265 0.33633408
-1.8252736 -1.1044459 0.33789843
-1.8491416 -1.1030756 0.34102714
-2.3838267 -1.322329 0.43175912
-2.3920882 -1.307325 0.43175912
-2.2230325 -0.95589483 0.38326442
-2.2380927 -0.94575286 0.38482878
-2.2987223 -0.95439559 0.39421484
-2.2954819 -0.93631613 0.39265051
-2.3562489 -0.94411743 0.40203658
-2.3896723 -0.94023293 0.40672961
-2.4231732 -0.93587571 0.41142264
-2.7776024 -0.97365558 0.46617469
-2.8583946 -0.98185366 0.47868946
-4.9076581 -0.70611185 0.78530103
-5.1370497 -0.70619929 0.82128096
-5.2099371 -0.6828953 0.83223134
-5.4927444 -0.64986628 0.87603301
-5.6341372 -0.63072377 0.89793384
-5.8639011 -0.61916667 0.93391377
-6.1920199 -0.61449701 0.98553711
-5.9877 -0.59323478 -0.52642065
-6.8253193 -0.50339323 -0.59875995
-6.818368 -0.46042225 -0.59788841
-6.8111691 -0.41718671 -0.59701681
-6.9927011 -0.38422248 -0.61270487
-7.1442299 -0.34753734 -0.6257782
-8.5634451 -0.25611812 -0.74953938
-8.5648899 -0.20212285 -0.74953938
-6.8664041 2.0033221 -0.6257782
-6.1282215 1.8298135 -0.55953985
-6.1261315 1.8711904 -0.56041139
-6.1333761 1.9152499 -0.56215453
-6.0169954 1.9199053 -0.55256742
-5.8817492 1.9173388 -0.54123718
-5.7372613 1.9101981 -0.52903533
-5.6024275 1.9048328 -0.51770508
-2.4831142 1.1334527 -0.23880672
-2.4397988 1.1322572 -0.23532051
-2.3017962 1.1209205 -0.22399026
-2.2500639 1.1132716 -0.21963246
-2.1896191 1.1005452 -0.21440312
-2.1560435 1.1006918 -0.21178845
-2.113709 1.0958763 -0.20830221
-2.071522 1.090572 -0.204816
-2.0294271 1.0848929 -0.20132977
-1.987453 1.0787903 -0.19784354
-1.9544245 1.0768986 -0.19522886
-1.912841 1.0697076 -0.19174263
-1.8801483 1.066852 -0.18912795
-1.8476009 1.0635711 -0.18651329
-1.8151098 1.0600271 -0.18389861
-1.808414 1.0714103 -0.18389861
-1.8016461 1.0827522 -0.18389861
-1.8118201 1.1044205 -0.18564174
-1.7963715 1.1105448 -0.18477017
-1.7977989 1.1271008 -0.18564174
-1.7906814 1.1383748 -0.18564174
-1.7834938 1.149603 -0.18564174
-1.7846382 1.1661385 -0.18651329
-1.7773784 1.177174 -0.18651329
-1.778192 1.1939095 -0.18738484
-1.7705499 1.2052137 -0.18738484
-1.7711021 1.2220299 -0.1882564
-1.771553 1.2388424 -0.18912795
-1.7718618 1.2557094 -0.18999952
-1.7639372 1.2668171 -0.18999952
-1.7639973 1.2837374 -0.19087107
-1.7558969 1.294795 -0.19087107
-1.7636875 1.3177277 -0.19261418
-1.7633164 1.3347954 -0.19348575
-1.7548945 1.3458487 -0.19348575
-1.7542708 1.3629599 -0.19435731
-1.7535002 1.3801169 -0.19522886
-1.7447945 1.3911067 -0.19522886
-1.7437692 1.4083017 -0.19610041
-1.7425972 1.4255375 -0.19697197
-1.7413555 1.4427193 -0.19784354
-1.7400146 1.4598842 -0.19871509
-1.7307757 1.4708254 -0.19871509
-1.7289211 1.4883204 -0.19958664
-1.7345037 1.5123038 -0.20132977
-1.724968 1.5231717 -0.20132977
-1.7227889 1.5406209 -0.20220132
-1.7204593 1.5581018 -0.20307288
-1.7106352 1.5688814 -0.20307288
-1.7080436 1.5863775 -0.20394443
-1.7126427 1.6106358 -0.20568755
-1.7098447 1.6280861 -0.20655911
-1.7068067 1.645656 -0.20743066
-1.7035613 1.6633066 -0.20830221
-1.7001605 1.6809821 -0.20917378
-1.6966053 1.6986793 -0.21004534
-1.6928937 1.7163988 -0.21091689
-1.6890271 1.7341375 -0.21178845
-1.6850041 1.7518952 -0.21266001
-1.6876849 1.7768936 -0.21440312
-1.6833017 1.7947291 -0.21527468
-1.6787615 1.8125784 -0.21614625
-1.6942317 1.8524957 -0.21963246
-1.695913 1.8778903 -0.22137558
-1.7039706 1.9108146 -0.22399026
-1.6919315 1.9214828 -0.22399026
-1.6928972 1.9471116 -0.22573337
-1.6936082 1.9728268 -0.22747648
-1.6876199 1.9910289 -0.22834805
-1.6878641 2.0168722 -0.23009115
-1.6878484 2.0427971 -0.23183428
-1.6875743 2.0688002 -0.23357739
-1.6746548 2.0792723 -0.23357739
-1.6803409 2.1129997 -0.23619206
-1.6731368 2.1313877 -0.23706362
-1.6717279 2.1577528 -0.23880672
-1.670169 2.1840951 -0.24054985
-1.6684166 2.210448 -0.24229296
-1.8407696 2.6391697 -0.28151304
-1.8522418 2.691817 -0.28587082
-1.8574339 2.7365327 -0.28935707
-1.8567407 2.7730429 -0.29197174
-1.8557525 2.8095911 -0.29458642
-1.8435001 2.8295426 -0.29545796
-1.8418425 2.8662117 -0.29807264
-1.834462 2.894557 -0.29981574
-1.8267992 2.9229209 -0.30155885
-1.8293035 2.9682648 -0.3050451
-1.8209645 2.9967265 -0.30678821
-1.812338 3.0252006 -0.30853131
-1.8084927 3.0622609 -0.31114599
-1.804251 3.0993924 -0.31376067
-1.7946575 3.1279485 -0.31550378
-1.7945807 3.1738503 -0.31899002
-1.7891502 3.21117 -0.3216047
-1.7833195 3.2485464 -0.32421935
-1.7770907 3.2859745 -0.32683402
-1.770642 3.3233552 -0.3294487
-1.768535 3.3695457 -0.33293495
-1.7609777 3.4071784 -0.33554959
-1.7573056 3.4538431 -0.33903584
-1.7534938 3.5004056 -0.34252205
-1.7493975 3.5469406 -0.3460083
-1.744596 3.5936525 -0.34949452
-1.7391599 3.6404982 -0.35298076
-1.7372383 3.696527 -0.35733855
-1.7303739 3.7436895 -0.36082476
-1.7233902 3.7907259 -0.36431101
-1.7161362 3.8377078 -0.36779723
-1.6069195 3.9922986 -0.3765128
-1.5746958 3.9837019 -0.37476969
-1.5499822 3.9933825 -0.37476969
-1.5178988 3.9843738 -0.37302658
-1.4928354 3.9938319 -0.37302658
-1.4642839 3.9937794 -0.37215501
-1.4290513 3.974777 -0.36954033
-1.4007365 3.9742825 -0.36866879
-1.3724866 3.9735885 -0.36779723
-1.3442986 3.9726977 -0.36692566
-1.3161783 3.9716091 -0.36605412
-1.2881228 3.9703252 -0.36518255
-1.2571229 3.9593501 -0.36343944
-1.2292649 3.9576576 -0.36256787
-1.204375 3.9653027 -0.36256787
-1.1737652 3.953692 -0.36082476
-1.1461263 3.951421 -0.35995322
-1.1158453 3.9393749 -0.35821009
-1.0937274 3.9559097 -0.35908166
-1.0636605 3.9434674 -0.35733855
-1.0363294 3.940438 -0.35646698
-1.0090762 3.937222 -0.35559541
1.0006745 6.0544209 -0.53687936
1.0403817 6.0578322 -0.5377509
1.0784234 6.0511756 -0.5377509
1.1164225 6.0442805 -0.5377509
1.1543775 6.0371466 -0.5377509
1.192287 6.0297742 -0.5377509
1.226162 6.0026431 -0.53600782
1.0212429 3.5934305 -0.32683402
1.0465841 3.596508 -0.32770559
1.0691609 3.5898614 -0.32770559
1.1082603 3.5571208 -0.32596248
1.1668638 3.6639936 -0.33642116
1.1929448 3.6660628 -0.33729273
1.2159556 3.6584949 -0.33729273
1.2389185 3.6507828 -0.33729273
1.2650928 3.6523397 -0.33816427
1.2913358 3.6537113 -0.33903584
1.314267 3.6455257 -0.33903584
1.3371464 3.6371958 -0.33903584
1.3599731 3.6287227 -0.33903584
1.3863007 3.6294122 -0.33990738
1.4126904 3.629914 -0.34077895
1.4391412 3.6302269 -0.34165052
1.4619219 3.6211131 -0.34165052
1.4884325 3.6210699 -0.34252205
1.5149999 3.6208365 -0.34339362
1.5377203 3.6112459 -0.34339362
1.5643402 3.6106539 -0.34426519
1.5910133 3.6098695 -0.34513673
1.6136633 3.5998015 -0.34513673
1.6445134 3.6077209 -0.34687984
1.6671487 3.597317 -0.34687984
1.6982093 3.604795 -0.34862298
1.7251272 3.603039 -0.34949452
1.7475358 3.5922239 -0.34949452
1.7741725 3.5902584 -0.35036609
1.8010477 3.5880022 -0.35123762
1.8235559 3.5766151 -0.35123762
1.8551537 3.5827796 -0.35298076
1.8822643 3.57987 -0.3538523
1.9094114 3.576761 -0.35472387
1.9365935 3.5734518 -0.35559541
1.9590079 3.5612133 -0.35559541
1.9910572 3.5662305 -0.35733855
2.0183358 3.5623174 -0.35821009
2.0456438 3.558202 -0.35908166
2.0731733 3.5537708 -0.35995322
2.1008446 3.5490644 -0.36082476
2.1281533 3.5443814 -0.36169633
2.1552539 3.5396364 -0.36256787
2.18257 3.5345721 -0.36343944
2.2153094 3.5376751 -0.36518255
2.2428336 3.5320959 -0.36605412
2.2703748 3.5263102 -0.36692566
2.2979317 3.5203176 -0.36779723
2.3255026 3.5141172 -0.36866879
2.3586357 3.5159824 -0.3704119
2.3918839 3.5175691 -0.37215501
2.4195912 3.5106738 -0.37302658
2.4530108 3.5117354 -0.37476969
2.4865389 3.5125151 -0.3765128
2.5201733 3.5130115 -0.3782559
2.5597692 3.521281 -0.38087058
2.5995677 3.5291908 -0.38348526
2.6455243 3.5447221 -0.3869715
2.6797609 3.5439219 -0.38871461
2.726208 3.5586469 -0.39220083
2.7729449 3.572927 -0.39568707
2.8076534 3.5710967 -0.39743018
2.8424482 3.5689702 -0.39917329
2.8773265 3.5665472 -0.4009164
2.9522796 3.3469372 -0.39045772
2.9865241 3.3431799 -0.39220083
3.0141542 3.3317366 -0.3930724
3.055217 3.3347683 -0.39568707
3.0896609 3.330112 -0.39743018
3.1241658 3.3251538 -0.39917329
3.165597 3.3271101 -0.40178797
3.193351 3.3143287 -0.40265954
3.2349834 3.3155897 -0.40527418
3.2697551 3.3093712 -0.40701732
3.3045759 3.3028462 -0.40876043
3.3392634 3.2961957 -0.41050354
3.381021 3.2963057 -0.41311821
3.4159107 3.2889276 -0.41486132
3.4581668 3.2879927 -0.417476
3.4424448 3.2321057 -0.41311821
3.5138214 3.2578237 -0.41921911
3.549094 3.2489419 -0.42096224
3.6066725 3.259665 -0.42532003
3.6418765 3.2502851 -0.42706314
4.1312494 3.4610047 -0.47151256
4.1836195 3.4603763 -0.4749988
4.2207112 3.4466236 -0.47674191
4.2733059 3.4450457 -0.48022813
4.3182511 3.4367383 -0.4828428
4.3710933 3.4341557 -0.48632905
4.4162006 3.4249389 -0.4889437
4.4613633 3.4152901 -0.49155837
4.5065784 3.4052081 -0.49417305
4.5598273 3.4006481 -0.4976593
4.6131959 3.3955522 -0.50114554
4.6586194 3.3840644 -0.50376016
4.7283692 3.3895509 -0.50898951
4.7333074 3.348269 -0.50724643
4.7297449 3.3013573 -0.50463176
4.7374406 3.2199392 -0.50114554
4.7243786 3.1680722 -0.4976593
4.719265 3.1218371 -0.49504462
4.7221012 3.0812359 -0.49330148
4.8000064 3.0892448 -0.4994024
4.8277326 3.0643632 -0.50027394
4.8891115 3.0603979 -0.50463176
4.9675837 3.0662458 -0.51073265
5.0378103 3.0660479 -0.515962
5.0911441 3.0548368 -0.51944822
5.1445341 3.0430751 -0.52293444
5.2065821 3.0357807 -0.52729225
5.2687402 3.0278251 -0.53165001
5.3396702 3.0241168 -0.53687936
5.4020605 3.0147808 -0.54123718
5.4732723 3.0095789 -0.54646647
5.5358701 2.9988554 -0.55082428
5.5985479 2.987463 -0.5551821
5.6789355 2.9846694 -0.56128299
5.7416501 2.9721377 -0.56564075
5.8043308 2.9591296 -0.56999856
5.8494229 2.9361992 -0.57261324
5.9392052 2.9346931 -0.57958567
6.0291963 2.932173 -0.58655816
6.1014156 2.9200366 -0.59178746
6.1196423 2.8816428 -0.59178746
6.761333 3.1320548 -0.65192497
6.8534017 3.1225533 -0.6588974
6.9456148 3.1120174 -0.66586989
7.04708 3.1044607 -0.67371386
7.103013 3.0759566 -0.67720014
7.0947003 3.0195627 -0.67458546
7.0951514 2.9672389 -0.67284232
7.0952258 2.9150288 -0.67109919
7.0764489 2.8554797 -0.66761297
7.0757279 2.8036218 -0.66586989
7.1303406 2.773555 -0.66935611
7.2313876 2.7606761 -0.67720014
7.360538 2.7571192 -0.68765879
7.4897747 2.7524543 -0.69811749
7.6004009 2.739779 -0.70683306
7.7113032 2.7254164 -0.71554863
7.8224077 2.7095168 -0.7242642
7.9430466 2.6955285 -0.73385131
8.0354538 2.6707041 -0.74082381
8.0236568 2.6109157 -0.73820913
8.0114269 2.5513813 -0.73559445
8.0082769 2.4950674 -0.73385131
7.9952073 2.4359906 -0.7312367
7.9817128 2.3771768 -0.72862202
7.9773612 2.3214126 -0.72687888
7.9725013 2.2662315 -0.72513574
7.9671912 2.211463 -0.72339267
7.961627 2.1564131 -0.72164953
7.9653869 2.1038034 -0.72077799
7.9495058 2.0462642 -0.71816331
7.9428802 1.9914305 -0.71642017
7.9455581 1.9391229 -0.71554863
7.9285073 1.8822583 -0.71293396
7.9304705 1.830165 -0.71206242
7.9126511 1.7737633 -0.70944774
7.9138117 1.722325 -0.7085762
7.9048371 1.6691432 -0.70683306
7.895596 1.6157079 -0.70508993
7.8860478 1.5621952 -0.70334685
7.8859234 1.5107406 -0.70247525
7.875669 1.4575367 -0.70073217
7.8748646 1.4062725 -0.69986057
7.8639097 1.3533866 -0.69811749
7.852602 1.3006939 -0.69637436
7.8507814 1.2497641 -0.69550282
7.8485656 1.1993349 -0.69463128
7.8459892 1.1492388 -0.69375968
7.8332882 1.0974116 -0.6920166
7.8301544 1.0468531 -0.691145
7.816813 0.99511826 -0.68940192
7.8130212 0.94478846 -0.68853039
7.7990088 0.89341182 -0.68678725
7.7945642 0.84332025 -0.68591571
7.7897983 0.79331988 -0.68504411
7.507041 0.71689606 -0.65976894
7.2137198 0.64317316 -0.63362223
7.2176185 0.59783554 -0.63362223
7.2112694 0.5521071 -0.63275069
7.2145514 0.5074169 -0.63275069
7.2175822 0.46231318 -0.63275069
7.2203445 0.41695487 -0.63275069
7.212873 0.37106827 -0.63187915
7.1951585 0.32484275 -0.63013601
7.1871033 0.27924129 -0.62926447
7.1787591 0.23375484 -0.62839288
7.1701274 0.18838334 -0.62752134
7.1612096 0.14312953 -0.6266498
7.1619678 0.098131724 -0.6266498
7.1524811 0.053056143 -0.6257782
7.1526728 0.0085044969 -0.6257782
7.2123594 -0.036111496 -0.63100755
7.7299809 -0.087022297 -0.67632854
10.229345 -0.17944607 -0.89508945
10.228016 -0.24371509 -0.89508945
10.226283 -0.30797449 -0.89508945
10.224146 -0.37222174 -0.89508945
10.211653 -0.43602929 -0.89421791
10.208712 -0.50018209 -0.89421791
10.205367 -0.56431514 -0.89421791
10.201654 -0.62787026 -0.89421791
10.18763 -0.69039214 -0.89334637
10.183115 -0.75405538 -0.89334637
10.178176 -0.81802261 -0.89334637
10.16291 -0.88109702 -0.89247477
10.157174 -0.94493341 -0.89247477
10.141124 -1.0077488 -0.89160323
10.134591 -1.0714471 -0.89160323
10.127721 -1.1345516 -0.89160323
10.120498 -1.1972792 -0.89160323
10.112816 -1.2605129 -0.89160323
10.104696 -1.3240285 -0.89160323
10.106123 -1.3882977 -0.89247477
10.087466 -1.4494697 -0.89160323
10.088061 -1.5139705 -0.89247477
10.07835 -1.5773255 -0.89247477
10.06824 -1.6406182 -0.89247477
10.067555 -1.70551 -0.89334637
10.056641 -1.7687323 -0.89334637
10.055129 -1.833672 -0.89421791
10.043409 -1.8968138 -0.89421791
10.04107 -1.9617909 -0.89508945
10.018781 -2.0228701 -0.89421791
10.015625 -2.0878127 -0.89508945
10.012049 -2.1527953 -0.89596105
9.9983253 -2.2156587 -0.89596105
9.9940434 -2.2801082 -0.89683259
9.9894228 -2.3442614 -0.89770412
9.974575 -2.4066536 -0.89770412
9.9689255 -2.4716752 -0.89857566
9.9629917 -2.5361781 -0.89944726
9.9470863 -2.5978582 -0.89944726
9.9498997 -2.6651359 -0.90119034
7.5890102 -2.0839496 -0.68853039
7.2880797 -2.0506449 -0.66238362
6.9974504 -2.0164025 -0.63710845
6.7362151 -1.9870476 -0.61444795
6.4660978 -1.9516139 -0.59091592
6.2728519 -1.9363742 -0.57435632
6.0325594 -1.9037948 -0.55343896
5.8309593 -1.8801885 -0.53600782
5.6204939 -1.8508459 -0.51770508
5.4671788 -1.8383154 -0.50463176
5.3141856 -1.8241165 -0.49155837
5.1521907 -1.8047761 -0.47761345
4.9812737 -1.7801218 -0.46279699
4.8576741 -1.7704495 -0.45233831
4.7437358 -1.7627653 -0.44275117
2.9314189 -1.5528846 -0.29022861
2.8778713 -1.5474285 -0.28587082
2.8331656 -1.546296 -0.2823846
2.7711091 -1.5351025 -0.27715525
2.7266743 -1.5329554 -0.27366903
2.6737249 -1.5253744 -0.26931125
2.6296012 -1.5221808 -0.265825
2.5856247 -1.5184935 -0.26233879
2.5503581 -1.5194134 -0.25972411
2.3375747 -1.7312933 -0.25449476
2.3266509 -1.7459462 -0.25449476
2.3395226 -1.7784907 -0.25710943
2.3363514 -1.7990298 -0.257981
2.332916 -1.8197248 -0.25885254
2.3292527 -1.8405232 -0.25972411
2.3254197 -1.8613472 -0.26059568
2.3214166 -1.8821954 -0.26146722
2.3095448 -1.896744 -0.26146722
2.3128989 -1.9239593 -0.26321033
2.3084893 -1.9447463 -0.2640819
2.3039746 -1.9654773 -0.26495346
2.2991822 -1.9863529 -0.265825
2.2941535 -2.0073197 -0.26669657
1.803916 -1.7458662 -0.21963246
1.7929492 -1.7571269 -0.21963246
1.782028 -1.7682019 -0.21963246
1.7779682 -1.7863669 -0.22050403
1.5383431 -1.8432258 -0.21004534
1.457201 -1.7681577 -0.2004582
1.4083955 -1.7308691 -0.19522886
1.4037312 -1.7474506 -0.19610041
1.392724 -1.756236 -0.19610041
1.4123654 -1.8041731 -0.2004582
1.3645501 -1.7656411 -0.19522886
1.3898411 -1.8215812 -0.2004582
1.3184967 -1.7506574 -0.19174263
1.3134141 -1.7669022 -0.19261418
1.3258572 -1.8072486 -0.19610041
1.3086337 -1.8074744 -0.19522886
1.274086 -1.7832385 -0.19174263
1.2685968 -1.7993505 -0.19261418
3.4701922 -5.2651968 -0.55169582
3.410351 -5.2448382 -0.54733807
3.3721225 -5.2576671 -0.54646647
3.3549974 -5.304008 -0.54908115
-1.0192572 -1.2383558 -0.14032075
-1.0333562 -1.2396127 -0.1411923
-1.0411245 -1.2330955 -0.1411923
-1.0553261 -1.2341008 -0.14206386
-1.0695812 -1.2349759 -0.14293541
-1.0838886 -1.2357205 -0.14380698
-1.0916314 -1.2288859 -0.14380698
-1.1734904 -1.1509734 -0.14380698
-1.2451007 -1.2059544 -0.151651
-2.450042 -2.0394876 -0.27889836
-2.455112 -2.0177281 -0.27802682
-2.467741 -2.0022624 -0.27802682
-2.4569476 -1.9680338 -0.27541214
-2.4536362 -1.9401996 -0.27366903
-2.44222 -1.9063555 -0.27105436
-2.4541497 -1.890973 -0.27105436
-2.4659824 -1.8755159 -0.27105436
-2.4617841 -1.8480234 -0.26931125
-2.4492347 -1.8148614 -0.26669657
-2.444351 -1.7878891 -0.26495346
-2.4312465 -1.7550836 -0.26233879
-2.4341123 -1.7339931 -0.26146722
-2.4286594 -1.7072071 -0.25972411
-2.4147811 -1.6748811 -0.25710943
-2.425257 -1.6596756 -0.25710943
-2.4191244 -1.6332561 -0.25536633
-2.4210474 -1.6125019 -0.25449476
-2.4144795 -1.586318 -0.25275165
-2.416039 -1.5656986 -0.25188008
-2.4090412 -1.5397573 -0.25013697
-2.4101577 -1.5194099 -0.24926542
-2.4110656 -1.4991876 -0.24839386
-2.4118965 -1.4788809 -0.24752231
-2.4126155 -1.4585435 -0.24665074
-2.4046175 -1.4331555 -0.24490763
-2.3963964 -1.407926 -0.24316452
-2.3879538 -1.3828567 -0.2414214
-2.3879433 -1.3628875 -0.24054985
-2.3964593 -1.3478568 -0.24054985
-2.3874543 -1.3231151 -0.23880672
-2.386977 -1.3033142 -0.23793517
-2.2059436 -0.94752008 -0.21004534
-2.2577424 -0.95301121 -0.21440312
-2.2820897 -0.94643927 -0.21614625
-2.3340683 -0.95100123 -0.22050403
-2.3769104 -0.95132822 -0.22399026
-2.4013534 -0.94374055 -0.22573337
-2.8865314 -1.0105662 -0.26756811
-2.9210925 -1.0021076 -0.27018279
-2.9650488 -0.99658936 -0.27366903
-3.0090158 -0.99066049 -0.27715525
-3.0625575 -0.98711318 -0.28151304
-3.0972011 -0.9768405 -0.28412771
-3.1508739 -0.97204453 -0.2884855
-3.2930834 -0.94832033 -0.29981574
-3.3469269 -0.94109428 -0.30417353
-6.8431826 -0.50204653 1.3337549
-6.8265734 -0.45832095 1.3299387
-6.819509 -0.41501051 1.3280306
-7.0376191 -0.38391593 1.3700086
-7.2752094 -0.35104638 1.4158027
-7.5616932 -0.31725949 1.4711373
-7.8676314 -0.28105903 1.5302881
-8.2028294 -0.24215358 1.5951632
-8.5574865 -0.19853689 1.6638544
-9.000247 -0.15145184 1.7497184
-9.4329157 -0.099198669 1.8336744
-9.9241619 -0.042003036 1.9290789
-9.5532856 2.2138901 1.9061818
-9.0712976 2.1623423 1.8126854
-8.6284924 2.1141691 1.7268214
-8.2057047 2.0653176 1.6447735
-7.8219047 2.021059 1.570358
-7.3725796 1.9544595 1.4825859
-7.3790994 2.005892 1.486402
-7.3474374 2.0469496 1.4825859
-7.1928401 2.0526655 1.4539645
-6.0567088 1.8110505 1.22881
-5.8480835 1.7887758 1.18874
-5.6588297 1.76947 1.1524863
-5.5542512 1.7746227 1.1334054
-5.5710363 1.8184719 1.1391296
-5.5594997 1.8534411 1.1391296
-5.5476317 1.8886682 1.1391296
-5.5262156 1.9207469 1.1372216
-4.3564639 1.6061032 0.90252656
-4.3738523 1.6438051 0.90825081
-4.3634381 1.6712531 0.90825081
-2.3858774 1.1083735 0.5113681
-2.3523042 1.1106256 0.50564384
-2.3276765 1.1166874 0.50182766
-2.2431192 1.1109333 0.48656294
-2.183481 1.098534 0.47511441
-2.141571 1.0943648 0.46748203
-2.0910885 1.0851903 0.45794159
-2.0581758 1.0845792 0.45221731
-2.0079794 1.0744562 0.44267687
-1.9752178 1.0731667 0.43695259
-1.9340236 1.0666475 0.42932025
-1.9015861 1.0643951 0.42359596
-1.8693187 1.0616641 0.41787168
-1.8286827 1.0536238 0.41023934
-1.7966317 1.0501819 0.40451506
-1.8068843 1.0714638 0.40833125
-1.8001168 1.0827951 0.40833125
-1.7932775 1.0940846 0.40833125
-1.7863681 1.10533 0.40833125
-1.7877026 1.1217501 0.41023934
-1.7806194 1.13296 0.41023934
-1.7817141 1.1494474 0.41214743
-1.7827423 1.1658851 0.41405553
-1.7673023 1.1714851 0.41214743
-1.7680155 1.188099 0.41405553
-1.7685237 1.2048645 0.41596359
-1.7689625 1.2215788 0.41787168
-1.7612519 1.2326699 0.41787168
-1.7534724 1.2437114 0.41787168
-1.7535939 1.2604338 0.41977978
-1.7535748 1.2772058 0.42168787
-1.7534133 1.2940279 0.42359596
-1.7531099 1.3108974 0.42550406
-1.7526628 1.3278148 0.42741215
-1.7442857 1.3388003 0.42741215
-1.7435882 1.3557596 0.42932025
-1.7427471 1.3727618 0.43122831
-1.7417599 1.3898076 0.4331364
-1.7406279 1.4068941 0.4350445
-1.7393488 1.4240218 0.43695259
-1.7380104 1.4410833 0.43886068
-1.729048 1.4518244 0.43886068
-1.7273223 1.4690747 0.44076878
-1.7328027 1.4928626 0.44458497
-1.7159511 1.497314 0.44267687
-1.7212203 1.521067 0.44649303
-1.7189442 1.5383976 0.44840112
-1.7165173 1.5557603 0.45030922
-1.7211723 1.5797898 0.4541254
-1.7112119 1.5905734 0.4541254
-1.7084285 1.6079197 0.4560335
-1.7055393 1.6252462 0.45794159
-1.7024027 1.6427 0.45984969
-1.6990683 1.6602249 0.46175775
-1.6955814 1.6777716 0.46366584
-1.6988742 1.7022887 0.46748203
-1.6881454 1.712929 0.46748203
-1.6910417 1.7375718 0.47129822
-1.6868933 1.7552398 0.47320631
-1.8610992 2.0624309 0.53998947
-1.9199389 2.1547012 0.56097841
-1.9128463 2.1740923 0.56288654
-1.9184624 2.2082989 0.56861079
-1.9109399 2.2277606 0.57051891
-1.9095937 2.2547042 0.57433504
-1.9016858 2.2741888 0.57624316
-1.8998588 2.3012319 0.58005935
-1.8915635 2.3207328 0.58196741
-1.8893932 2.3477545 0.5857836
-1.8870238 2.3747869 0.58959979
-1.6704705 2.2441711 0.5438056
-1.6505247 2.246712 0.54189754
-1.6595616 2.288727 0.54952991
-1.6510617 2.3069484 0.55143797
-1.6479237 2.3332682 0.55525416
-1.8491547 2.8019962 0.65256673
-1.8422241 2.8300126 0.65638292
-1.8350127 2.8580527 0.66019911
-1.8327742 2.8944058 0.66592336
-1.8249497 2.9225173 0.66973954
-1.8168457 2.9506431 0.67355573
-1.8135524 2.9871736 0.67927998
-1.8048314 3.0153546 0.68309617
-1.8058026 3.0604527 0.69072855
-1.801344 3.0971944 0.6964528
-1.7964928 3.1340008 0.70217711
-1.7864231 3.1623197 0.70599329
-1.7856152 3.2077901 0.71362561
-1.7795869 3.244766 0.71934992
-1.7778285 3.2904289 0.72698224
-1.7665434 3.3187585 0.73079842
-1.7641807 3.3644147 0.7384308
-1.7564069 3.4016566 0.74415505
-1.7524937 3.4477792 0.75178742
-1.7484822 3.4937789 0.7594198
-1.7441558 3.5397673 0.76705217
-1.7348284 3.577106 0.77277642
-1.7292295 3.6233723 0.7804088
-1.722898 3.669811 0.78804111
-1.7200603 3.7252727 0.79758161
-1.7129791 3.7717016 0.80521393
-1.7095952 3.8270562 0.81475437
-1.701178 3.8737288 0.82238674
-1.6647977 3.8574488 0.81666249
-3.2012749 8.4130392 1.7497184
-3.1552155 8.4513807 1.7535347
-3.1054296 8.4802551 1.7554427
-3.0587227 8.5180759 1.7592589
-3.0018849 8.5278664 1.7573508
-2.9482415 8.5465603 1.7573508
-2.8913436 8.5556154 1.7554427
-2.837528 8.5736141 1.7554427
-2.7866304 8.6006107 1.7573508
-2.7355011 8.6273079 1.7592589
-2.6841507 8.6536999 1.761167
-2.6496668 8.7361507 1.7745236
-2.6086762 8.7996836 1.7840641
-2.4364474 8.6145172 1.740178
-2.3979435 8.68643 1.7516265
-2.3535309 8.7392387 1.7592589
-2.3010652 8.7633495 1.761167
-2.2459607 8.7776337 1.761167
-2.1955097 8.8106222 1.7649832
-1.5408794 6.3534551 1.2707878
-1.491913 6.3247952 1.2631556
-1.449952 6.3244758 1.2612474
-1.410184 6.3334618 1.2612474
-1.3703637 6.3421965 1.2612474
-1.3264604 6.3314667 1.2574313
-1.2823689 6.3205128 1.253615
-1.2382987 6.3092885 1.2497989
-1.196629 6.307333 1.2478908
-1.0433257 6.6228375 1.3032254
1.0391694 6.0365624 1.1906481
1.0770775 6.0299139 1.1906481
1.114943 6.0230274 1.1906481
1.1546119 6.0255442 1.1925561
1.1924485 6.0181704 1.1925561
1.2243329 5.9817085 1.186832
1.0184482 3.578253 0.72316611
1.8848963 5.9106126 1.2059128
1.9341609 5.935986 1.2135452
1.9714195 5.9237161 1.2135452
2.0117581 5.920507 1.2154533
2.048918 5.9077497 1.2154533
2.0859966 5.8947597 1.2154533
2.1263258 5.89077 1.2173613
2.1666873 5.8865056 1.2192695
2.2070789 5.8819666 1.2211776
2.2474988 5.8771515 1.2230856
2.287945 5.8720608 1.2249937
2.3320372 5.8758173 1.22881
2.3652313 5.8519478 1.2269018
2.4094245 5.8551264 1.230718
2.4499581 5.8489261 1.2326261
2.4905086 5.8424473 1.2345341
2.5310743 5.8356895 1.2364423
2.5756156 5.8376331 1.2402585
2.6122437 5.8213353 1.2402585
2.6569185 5.8226681 1.2440746
2.7017128 5.8236685 1.2478908
2.7424374 5.8154569 1.2497989
2.7831652 5.806963 1.251707
2.8235464 5.7983561 1.253615
2.8681228 5.7983479 1.2574313
2.9131546 5.7978344 1.2612474
2.9539881 5.7881598 1.2631556
2.9993317 5.7869158 1.2669717
3.0402043 5.7766428 1.2688798
3.0856922 5.7747421 1.272696
3.0704291 5.6603265 1.251707
3.0585864 5.5549331 1.2326261
3.0503314 5.4584846 1.2154533
3.0409863 5.3623619 1.1982805
3.0158682 5.2410507 1.1753834
3.0144038 5.1624765 1.1620268
3.0072005 5.0756063 1.146762
2.9933593 4.9809866 1.1295892
2.9832964 4.8952861 1.1143246
3.0293443 4.9015775 1.1200488
3.1174259 4.9739408 1.1410378
3.1275554 4.9211168 1.1334054
3.1158762 4.8353567 1.1181407
3.1032445 4.7499409 1.1028759
3.1005051 4.6812449 1.0914274
3.0915542 4.6046233 1.0780708
3.0817647 4.5283012 1.0647142
3.0711396 4.4522858 1.0513575
3.0596824 4.376585 1.0380009
3.0530715 4.309216 1.0265523
3.0457363 4.242105 1.0151038
3.0376794 4.1752582 1.0036553
3.0289044 4.1086817 0.99220675
2.884304 3.8614972 0.93687212
2.8788912 3.8041611 0.92733169
2.8669002 3.7392566 0.91588318
2.8542089 3.6746552 0.90443462
2.8772407 3.6566494 0.90443462
2.8879223 3.6231468 0.90061843
2.8982968 3.5896547 0.89680225
2.9145794 3.5637748 0.89489418
2.9104028 3.2968516 0.8548243
2.9310601 3.2785001 0.8548243
2.9713666 3.2818496 0.86054856
3.0118303 3.284821 0.86627281
3.0724857 3.3089933 0.87772137
3.0999403 3.2967746 0.87962943
3.14767 3.3056679 0.88726181
3.1751916 3.2928917 0.88916993
3.2026765 3.2798998 0.891078
3.2370255 3.2736723 0.89489418
3.2714219 3.2671423 0.89871037
3.3056679 3.2605071 0.90252656
3.3469 3.2605124 0.90825081
3.3813798 3.2531221 0.912067
3.4231031 3.2520955 0.91779125
3.4506276 3.2372398 0.91969937
3.4781005 3.2221663 0.92160743
3.5129557 3.2132902 0.92542362
3.5624952 3.2171624 0.933056
3.6118395 3.2209659 0.94068831
3.7311258 3.2038968 0.95595306
3.7586701 3.1867383 0.95786113
4.002892 3.1831889 0.99411488
4.0305347 3.1640365 0.99602294
4.0270576 3.1206114 0.99029869
4.0621791 3.1071749 0.99411488
4.1286273 3.1170788 1.0055634
4.1796155 3.1145384 1.0131958
4.2544575 3.1289268 1.0265523
4.30581 3.1251979 1.0341847
4.3572826 3.1209462 1.0418171
4.4008546 3.1105044 1.0475414
4.4444661 3.0996375 1.0532657
4.5041013 3.0997446 1.0628061
4.5475821 3.0883226 1.0685303
4.5994339 3.0816689 1.0761627
4.6514626 3.0743594 1.0837951
4.6953564 3.0611563 1.0895194
4.7557802 3.0581405 1.0990598
4.7997704 3.0439708 1.104784
4.8604145 3.0397785 1.1143246
4.9128385 3.0297906 1.1219568
4.9653277 3.019263 1.1295892
5.0347157 3.0182898 1.1410378
5.0873837 3.0065734 1.1486701
5.1570659 3.0041962 1.1601187
5.2184048 2.9961727 1.1696591
5.2285838 2.9584913 1.1677511
5.3499527 2.9829454 1.1906481
5.4116068 2.9729042 1.2001885
5.4992433 2.9762216 1.2154533
5.5698085 2.9693177 1.2269018
5.6318102 2.9570801 1.2364423
5.6936998 2.9445217 1.2459828
5.7730641 2.9403734 1.2593393
5.8176703 2.9174008 1.2650636
5.8622923 2.8938253 1.2707878
5.9598236 2.8955417 1.2879606
6.0398917 2.8876777 1.3013173
6.1289768 2.8830984 1.3165821
6.2004228 2.8692672 1.3280306
6.280869 2.8587177 1.3413873
6.3614249 2.8472691 1.3547438
6.4420824 2.8349202 1.3681005
6.5228338 2.8216689 1.3814571
6.6127038 2.8113544 1.3967218
6.7026992 2.8000209 1.4119866
6.7928104 2.7876661 1.4272512
6.883028 2.7742884 1.442516
6.9733424 2.7598858 1.4577807
7.0728951 2.7480116 1.4749535
7.1817422 2.7384927 1.4940344
7.2815514 2.7242723 1.5112072
7.3813004 2.7093468 1.52838
7.5087757 2.7034652 1.5512772
7.6181064 2.6891129 1.570358
7.7276206 2.6732864 1.5894389
7.8279366 2.6530378 1.6066117
7.9469323 2.6378176 1.6276007
8.0193634 2.6060367 1.6390493
8.0168705 2.549648 1.635233
8.0139856 2.4933939 1.6314169
8.0107117 2.4372771 1.6276007
7.9976401 2.3785017 1.6218765
7.9841475 2.3199871 1.6161522
7.9889874 2.2675748 1.6142441
7.9745045 2.2101676 1.6085198
7.969223 2.1551118 1.6047037
7.9541316 2.0974886 1.5989794
7.9481382 2.0425847 1.5951632
7.9417701 1.9878379 1.591347
7.9445662 1.9355756 1.5894389
7.9374676 1.8810933 1.5856227
7.9299984 1.8267766 1.5818065
7.9125814 1.7704848 1.5760822
7.9138541 1.7191248 1.5741742
7.9051428 1.6660105 1.570358
7.8961749 1.6125962 1.5665418
7.8868914 1.559144 1.5627257
7.8772488 1.5058722 1.5589094
7.8769021 1.454566 1.5570014
7.8762217 1.4033237 1.5550933
7.8655343 1.3504862 1.5512772
7.8544941 1.2978386 1.5474609
7.8527989 1.2469226 1.5455528
7.8507023 1.1965506 1.5436448
7.8385391 1.1450474 1.5398285
7.8455491 1.0959882 1.5398285
7.8328199 1.0440778 1.5360124
7.8294868 0.99360758 1.5341043
7.8160839 0.94204485 1.5302881
7.8120956 0.89180321 1.52838
7.807785 0.84164894 1.526472
7.803153 0.79158407 1.5245638
7.7884283 0.74068141 1.5207477
7.5191493 0.66742915 1.4673212
7.2101355 0.59436512 1.4062623
7.213695 0.54948324 1.4062623
7.2071686 0.50409311 1.4043542
7.2101812 0.45899624 1.4043542
7.2129226 0.41368449 1.4043542
7.2055759 0.36785594 1.4024462
7.2077451 0.32257494 1.4024462
7.1900115 0.27652669 1.3986299
7.1719847 0.23071404 1.3948138
7.1732926 0.18564776 1.3948138
7.1645031 0.14038087 1.3929056
7.1652441 0.095362432 1.3929056
7.1558857 0.050271254 1.3909975
7.1560597 0.0057375254 1.3909975
7.146142 -0.038547184 1.3890895
7.292995 -0.084967025 1.4177108
7.6652756 -0.1374774 1.4902183
10.254996 -0.24838728 1.9939539
10.253233 -0.31281608 1.9939539
10.251065 -0.37723258 1.9939539
10.238686 -0.44121152 1.9920459
10.225907 -0.50504982 1.9901378
10.232333 -0.56983668 1.9920459
10.208994 -0.63229018 1.9882298
10.195086 -0.6948635 1.9863216
10.20033 -0.75935769 1.9882298
10.195356 -0.82343292 1.9882298
10.180202 -0.88662398 1.9863216
10.184204 -0.95148337 1.9882298
10.168258 -1.0144776 1.9863216
10.161683 -1.0783464 1.9863216
10.154775 -1.141564 1.9863216
10.167003 -1.2067732 1.9901378
10.149514 -1.2691349 1.9882298
10.131607 -1.3316016 1.9863216
10.142573 -1.3973067 1.9901378
10.13372 -1.4601212 1.9901378
10.114681 -1.522027 1.9882298
10.104918 -1.5855491 1.9882298
10.104445 -1.6505911 1.9901378
10.093874 -1.7140464 1.9901378
10.092572 -1.7791381 1.9920459
10.081195 -1.8425161 1.9920459
10.079064 -1.9076469 1.9939539
10.066879 -1.9709376 1.9939539
10.063918 -2.036097 1.995862
10.060535 -2.1012969 1.9977702
10.047133 -2.1644673 1.9977702
10.033336 -2.2275524 1.9977702
10.028849 -2.2921348 1.9996783
7.2810316 -2.1012168 1.4730455
6.9946771 -2.0662746 1.4177108
6.7278523 -2.0335002 1.3661923
6.4429688 -1.9916593 1.3108578
6.2244072 -1.9670275 1.2688798
6.0345583 -1.9484189 1.2326261
5.8265972 -1.9212176 1.1925561
5.6190982 -1.8918539 1.1524863
5.4492846 -1.872882 1.1200488
5.2984638 -1.8583508 1.0914274
5.1388035 -1.8386931 1.0608979
4.9796057 -1.8171046 1.0303686
4.8484879 -1.8038589 1.0055634
4.70856 -1.7855577 0.97885013
4.5873709 -1.7726485 0.95595306
2.8072565 -1.5565679 0.62394542
2.7632017 -1.5549196 0.61631304
2.7107553 -1.5479124 0.6067726
2.6670017 -1.5452291 0.59914023
2.6149275 -1.5370839 0.58959979
2.5799246 -1.5384011 0.58387554
2.5282109 -1.5291792 0.57433504
2.2919519 -1.7213154 0.55716228
2.2811956 -1.735545 0.55716228
2.2937245 -1.7676218 0.56288654
2.3058348 -1.8000576 0.56861079
2.3098786 -1.8266877 0.57242697
2.313678 -1.8534395 0.57624316
2.3096094 -1.8741252 0.57815123
2.2977884 -1.8885999 0.57815123
2.3009651 -1.9155611 0.58196741
2.2889996 -1.9298434 0.58196741
2.2919292 -1.9567366 0.5857836
2.2870691 -1.9774563 0.58769172
2.2819843 -1.9982542 0.58959979
2.2767282 -2.0190659 0.59150785
6.8945894 -6.5102072 1.8432149
6.8957219 -6.5945163 1.8546634
6.8747249 -6.6588001 1.8603877
6.868011 -6.7360072 1.8699281
6.8528252 -6.8906045 1.889009
6.8506646 -6.9755473 1.9004576
6.8344593 -7.0462303 1.9080899
6.8178334 -7.1167936 1.9157223
6.8069105 -7.1949587 1.9252627
6.7883739 -7.2662778 1.9328951
6.6436448 -7.292954 1.9176303
6.5718694 -7.3049669 1.9099981
6.4873614 -7.3015175 1.8985494
6.3962407 -7.2903056 1.8851929
6.3117437 -7.2858338 1.8737442
6.2211761 -7.2731304 1.8603877
3.8404222 -7.1187596 1.5722661
3.8284914 -7.2030931 1.5856227
3.8197782 -7.2964754 1.6008874
3.8143404 -7.3988571 1.6180602
3.8033221 -7.4927025 1.633325
3.6511207 -7.9153509 1.6943839
3.621593 -7.982832 1.7039243
3.6078422 -8.0858946 1.7210971
3.5892282 -8.1800051 1.7363619
3.5846407 -8.310461 1.7592589
1.2199668 -6.8818889 1.35856
1.1965348 -7.0055323 1.3814571
1.1763719 -7.1582069 1.4100784
-1.0357382 -6.3058996 1.2421665
-1.0749613 -6.2993317 1.2421665
-1.11397 -6.2925506 1.2421665
-1.1550844 -6.295114 1.2440746
-1.1946146 -6.2877321 1.2440746
-1.2322052 -6.2704701 1.2421665
-1.2637661 -6.224124 1.2345341
-1.3028482 -6.2160606 1.2345341
-1.8380841 -6.202291 1.2574313
-1.8766469 -6.190732 1.2574313
-1.9236866 -6.2071142 1.2631556
-1.9743369 -6.2323904 1.2707878
-2.0134571 -6.2198625 1.2707878
-1.011066 -1.2274348 0.30911058
-1.0250131 -1.2286234 0.31101865
-1.0390482 -1.2296567 0.31292674
-1.0467538 -1.223104 0.31292674
-1.0544181 -1.2165029 0.31292674
-1.3221831 -1.2015132 0.34727237
-1.3662367 -1.2259617 0.3568128
-2.4476795 -1.9843922 0.61249685
-2.4447718 -1.956706 0.60868067
-2.4416134 -1.9291353 0.60486448
-2.445946 -1.9077191 0.60295641
-2.4578841 -1.8923132 0.60295641
-2.4619098 -1.8708932 0.60104835
-2.450058 -1.8377174 0.59532404
-2.4456685 -1.8107523 0.59150785
-1.6449426 -1.1247354 0.38734224
-1.6682527 -1.1253568 0.39115843
-1.6834627 -1.120291 0.39306653
-1.7068808 -1.1204652 0.39688271
-1.7138871 -1.1097184 0.39688271
-1.7456454 -1.1147778 0.40260696
-1.7525492 -1.1038927 0.40260696
-1.8010459 -1.1189139 0.41214743
-2.4045489 -1.3912067 0.53998947
-2.4047153 -1.3712087 0.53808135
-2.4047256 -1.3512636 0.53617328
-2.3959928 -1.326618 0.5323571
-2.3956633 -1.3068365 0.53044897
-2.2131305 -0.96608841 0.46939012
-2.2191567 -0.95216388 0.46939012
-2.2250955 -0.93820179 0.46939012
-2.2944288 -0.95050108 0.48274675
-2.3002994 -0.93620396 0.48274675
-2.3425155 -0.93650913 0.4903791
-2.3848782 -0.93618435 0.49801147
-2.4456718 -0.94235855 0.50946003
-6.0027938 -0.59003603 -0.31610918
-6.2350526 -0.57388252 -0.32814643
-6.8125105 -0.49714422 -0.35797793
-6.8054957 -0.45425877 -0.35745457
-6.8281431 -0.4128457 -0.35850129
-7.0699224 -0.38289464 -0.37106192
-7.4512339 -0.35660827 -0.39094958
-8.4910069 -0.35291094 -0.44537899
-8.5628967 -0.30257639 -0.4490425
-8.5745897 -0.24980506 -0.44956586
-8.5859823 -0.19578004 -0.45008922
-9.5356255 -0.15666588 -0.49980837
-10.045698 -0.10169897 -0.52649969
-11.214576 0.027398426 -0.58773279
-12.062985 0.10527111 -0.63221836
-12.092053 0.18071687 -0.63378841
-14.482464 1.7679573 -0.76462829
-14.599834 1.8754549 -0.77143198
-14.627349 1.9724931 -0.77352542
-14.594891 2.0615625 -0.7724787
-14.57177 2.1517689 -0.77195537
-14.567979 2.2438536 -0.7724787
-14.553796 2.3340747 -0.7724787
-14.538897 2.4251509 -0.7724787
-14.523372 2.5164571 -0.7724787
-14.517103 2.6094229 -0.77300209
-11.790795 2.1959422 -0.62855482
-11.325556 2.1837778 -0.60448027
-11.340796 2.2617393 -0.60605037
-11.345872 2.3372247 -0.60709709
-11.330962 2.4084694 -0.60709709
-11.227974 2.4596391 -0.60238683
-11.193035 2.5247664 -0.60134012
-11.293739 2.6218967 -0.60762042
-11.286756 2.6951277 -0.60814381
-11.298695 2.7731292 -0.60971385
-11.29073 2.8465102 -0.61023724
-6.1513243 1.8419729 -0.3365202
-6.1396289 1.8805879 -0.3365202
-6.1278181 1.9187239 -0.3365202
-5.6687775 1.813634 -0.31192228
-5.8566456 1.9142436 -0.32291284
-5.7781949 1.9288709 -0.31924933
-5.6335025 1.9204042 -0.31192228
-2.5591433 1.1511983 -0.14706403
-2.4792092 1.134023 -0.14287716
-2.4448695 1.1369457 -0.14130709
-2.358551 1.132623 -0.1371202
-2.2975643 1.1210922 -0.13398005
-2.2457387 1.1133287 -0.13136324
-2.2030232 1.1094496 -0.12926981
-2.1604457 1.1050797 -0.12717637
-2.126874 1.1048214 -0.1256063
-2.0757256 1.0948685 -0.1229895
-2.0335205 1.0891641 -0.12089606
-2.0002217 1.0877842 -0.11932598
-1.9670959 1.0858947 -0.1177559
-1.9340974 1.0835903 -0.11618582
-1.901278 1.0807891 -0.11461575
-1.8512905 1.0676047 -0.11199895
-1.8187114 1.0640461 -0.11042886
-1.8034021 1.070356 -0.1099055
-1.8137524 1.091967 -0.11095223
-1.8153782 1.1085465 -0.11147559
-1.8168675 1.1251882 -0.11199895
-1.8013048 1.1312711 -0.11147559
-1.7941616 1.1425662 -0.11147559
-1.7953364 1.159234 -0.11199895
-1.7880943 1.1703739 -0.11199895
-1.7724867 1.1759099 -0.11147559
-1.7732981 1.1926733 -0.11199895
-1.7739147 1.2095723 -0.1125223
-1.7826837 1.232088 -0.11356902
-1.7749068 1.243265 -0.11356902
-1.7752036 1.2601726 -0.11409238
-1.775357 1.2771338 -0.11461575
-1.7753677 1.2941455 -0.1151391
-1.7672011 1.3052753 -0.1151391
-1.7669605 1.3223361 -0.11566246
-1.7665744 1.3394461 -0.11618582
-1.7660434 1.3566022 -0.11670918
-1.7574844 1.3676722 -0.11670918
-1.7488569 1.3786873 -0.11670918
-1.7557663 1.4021121 -0.1177559
-1.7546864 1.4193963 -0.11827926
-1.7534575 1.4367229 -0.11880262
-1.759861 1.4603511 -0.11984934
-1.7507788 1.4712273 -0.11984934
-1.7490405 1.4887471 -0.1203727
-1.7470844 1.5063798 -0.12089606
-1.7450743 1.5239334 -0.12141941
-1.7429447 1.5414842 -0.12194277
-1.7406641 1.5590672 -0.12246613
-1.7382302 1.576683 -0.1229895
-1.7356442 1.5943286 -0.12351286
-1.732904 1.6120046 -0.12403622
-1.7228471 1.6227485 -0.12403622
-1.7199862 1.6402842 -0.12455957
-1.7240497 1.6648951 -0.1256063
-1.7135544 1.6756952 -0.1256063
-1.7171839 1.7004818 -0.12665302
-1.7135167 1.7183092 -0.12717637
-1.702687 1.7290411 -0.12717637
-1.6987512 1.7468649 -0.12769973
-1.7015762 1.7719094 -0.12874645
-1.6904099 1.7825651 -0.12874645
-1.9523327 2.1927886 -0.15386771
-1.9451095 2.2125127 -0.15439107
-1.9442629 2.2397726 -0.15543778
-1.9366499 2.2595272 -0.15596114
-1.9353174 2.2868965 -0.15700787
-1.9273127 2.306675 -0.15753123
-1.9254916 2.3341455 -0.15857795
-1.9233996 2.3616846 -0.15962467
-1.9149357 2.3813808 -0.16014802
-1.912563 2.4088418 -0.16119474
-1.8295248 2.3344331 -0.15543778
-1.8146168 2.3460402 -0.15543778
-1.7997895 2.3574343 -0.15543778
-1.7789314 2.3607211 -0.15491442
-1.7284178 2.3856311 -0.15439107
-1.8007355 2.5181401 -0.16224146
-1.7849339 2.5293653 -0.16224146
-1.7518862 2.515945 -0.16067138
-1.8621128 2.8630228 -0.17898896
-1.8656546 2.9082885 -0.18108241
-1.8473454 2.9199529 -0.18108241
-1.8395337 2.9484479 -0.18212913
-1.8419033 2.9939697 -0.18422256
-1.8385919 3.0310988 -0.18579264
-1.8297623 3.0597322 -0.18683936
-1.8206435 3.0883744 -0.18788607
-1.8162556 3.1256554 -0.18945616
-1.8114686 3.1630034 -0.19102624
-1.8013768 3.1917157 -0.19207296
-1.7958473 3.2291539 -0.19364303
-1.7899196 3.2666466 -0.19521311
-1.7883329 3.3129799 -0.19730656
-1.7864558 3.3593028 -0.19939999
-1.7795094 3.3968451 -0.20097007
-1.7762958 3.4435358 -0.2030635
-1.7724075 3.4903986 -0.20515695
-1.7639931 3.5281854 -0.20672703
-1.7641503 3.5838456 -0.20934382
-1.7547395 3.6217818 -0.2109139
-1.7491384 3.6687932 -0.21300733
-1.7427734 3.7159889 -0.21510078
-1.7357968 3.763288 -0.21719421
-1.732911 3.8195159 -0.21981101
-1.72549 3.8666577 -0.22190446
-1.7090163 3.895787 -0.22295117
-1.6762577 3.8882539 -0.22190446
-1.6595011 3.9171352 -0.22295117
-1.6118292 3.8721685 -0.21981101
-1.6063673 3.928436 -0.22242782
-1.611424 4.0125875 -0.22661468
-1.5754514 3.9946599 -0.22504461
-1.5470637 3.9950323 -0.22452125
-1.5220203 4.0046406 -0.22452125
-1.4898492 3.9954109 -0.22347453
-1.4578565 3.9859352 -0.22242782
-1.4294133 3.9856162 -0.22190446
-1.4010319 3.9850972 -0.2213811
-1.3727113 3.9843802 -0.22085772
-1.3444573 3.9834642 -0.22033437
-1.316267 3.9823515 -0.21981101
-1.2850716 3.9715405 -0.21876429
-1.2570769 3.9700162 -0.21824093
-1.2291541 3.9682968 -0.21771757
-1.2013007 3.9663842 -0.21719421
-1.1735221 3.964278 -0.21667086
-1.1458153 3.9619803 -0.2161475
-1.118186 3.9594908 -0.21562414
-1.0932847 3.9664385 -0.21562414
-1.0631564 3.9539418 -0.21457742
-1.0357586 3.9508841 -0.21405406
-1.0084436 3.947638 -0.2135307
1.0078866 6.068429 -0.32238948
1.0459956 6.0619764 -0.32238948
1.0840633 6.0552845 -0.32238948
1.1239096 6.0581727 -0.32291284
1.1619518 6.0509911 -0.32291284
1.1999481 6.043571 -0.32291284
1.2258592 5.9772162 -0.31977269
1.0065964 3.617408 -0.19678319
1.0265677 3.6014082 -0.19625983
1.0519735 3.6044734 -0.19678319
1.1167473 3.5744731 -0.19625983
1.175638 3.6815422 -0.20254014
1.201844 3.6835766 -0.2030635
1.2281219 3.6854265 -0.20358686
1.2480371 3.6681833 -0.2030635
1.2710601 3.6602693 -0.2030635
1.2973682 3.6616237 -0.20358686
1.3237432 3.6627917 -0.20411022
1.3501842 3.6637723 -0.20463358
1.3731775 3.6552167 -0.20463358
1.403258 3.6651688 -0.20568031
1.4298881 3.6655831 -0.20620367
1.4455162 3.6379654 -0.20515695
1.4720914 3.6380684 -0.20568031
1.5025287 3.6472142 -0.20672703
1.5292767 3.6469111 -0.20725039
1.5521606 3.6372304 -0.20725039
1.5749831 3.6274061 -0.20725039
1.605813 3.6357086 -0.2082971
1.632717 3.6346567 -0.20882046
1.6596711 3.6334097 -0.20934382
1.6824675 3.6229103 -0.20934382
1.7094606 3.6212981 -0.20986718
1.7321799 3.610486 -0.20986718
1.7633464 3.6175992 -0.2109139
1.7901579 3.6155539 -0.21143726
1.8127611 3.604274 -0.21143726
1.8353714 3.5928133 -0.21143726
1.8671069 3.5989392 -0.21248397
1.8943371 3.5959721 -0.21300733
1.9168937 3.5839987 -0.21300733
1.9441397 3.5806599 -0.2135307
1.9714192 3.5771198 -0.21405406
1.9987308 3.5733783 -0.21457742
2.0359323 3.5868037 -0.2161475
2.0534444 3.5652871 -0.21562414
2.0810766 3.5608006 -0.2161475
2.1088119 3.5560606 -0.21667086
2.136106 3.5513909 -0.21719421
2.1684692 3.5551388 -0.21824093
2.1959403 3.5499845 -0.21876429
2.2235086 3.5445766 -0.21928765
2.2510955 3.5389621 -0.21981101
2.2786994 3.5331404 -0.22033437
2.3117843 3.5354695 -0.2213811
2.3394701 3.5291979 -0.22190446
2.3671682 3.5227177 -0.22242782
2.4004986 3.5242822 -0.22347453
2.4282684 3.5173481 -0.22399789
2.4674957 3.5265684 -0.22556797
2.5011575 3.5272875 -0.22661468
2.529098 3.5196123 -0.22713804
2.5746753 3.535944 -0.22923149
2.6146278 3.5438046 -0.23080157
2.6607594 3.5593004 -0.232895
2.7011588 3.5663943 -0.23446508
2.7478306 3.5810428 -0.23655851
2.7947924 3.5952442 -0.23865196
2.8296833 3.5933044 -0.23969868
2.8646595 3.5910676 -0.2407454
2.8934426 3.580765 -0.24126875
2.9819651 3.3752439 -0.23603515
2.9964547 3.3489988 -0.23551179
3.0241432 3.3375058 -0.23603515
3.0788126 3.3552287 -0.23865196
3.1202269 3.3577638 -0.24022204
3.1481063 3.3453653 -0.2407454
3.1828418 3.3399782 -0.24179211
3.2106993 3.3270998 -0.24231547
3.2454996 3.3211453 -0.24336219
3.2733271 3.3077862 -0.24388555
3.3152523 3.308316 -0.24545564
3.3570957 3.3086684 -0.24702571
3.3918428 3.3017361 -0.24807243
3.4268482 3.2942755 -0.24911915
3.4764495 3.3001807 -0.2512126
3.4606881 3.2441237 -0.24859579
3.5029881 3.2426672 -0.25016588
3.5677321 3.2607858 -0.25330603
3.6180885 3.2647521 -0.25539947
3.6533 3.2554007 -0.25644618
4.1287503 3.4533958 -0.28209081
4.196568 3.465539 -0.28523096
4.2414794 3.4580338 -0.28680104
4.2864614 3.4501002 -0.28837112
4.3315101 3.4417374 -0.28994119
4.3766217 3.4329438 -0.29151127
4.4296894 3.429832 -0.2936047
4.4749551 3.4201241 -0.29517478
4.5202727 3.409982 -0.29674485
4.5656385 3.3994048 -0.29831496
4.6190963 3.394305 -0.30040839
4.6726685 3.3886664 -0.30250183
4.7019887 3.3650525 -0.30302519
4.7475109 3.3527248 -0.30459526
4.7275167 3.2942824 -0.30197847
4.7267275 3.2073085 -0.29936168
4.7301202 3.1665394 -0.29831496
4.7249231 3.1202476 -0.29674485
4.7193317 3.0741467 -0.29517478
4.7721605 3.0660257 -0.29726821
4.8419433 3.0680513 -0.30040839
4.9204068 3.0746117 -0.3040719
4.9821377 3.0698283 -0.3066887
5.0440011 3.0643897 -0.30930549
5.0802898 3.0428996 -0.31035221
5.1595025 3.0464616 -0.31401575
5.2303276 3.0441234 -0.3171559
5.2926621 3.0360453 -0.31977269
5.3551006 3.027303 -0.32238948
5.4176359 3.017895 -0.32500628
5.4890175 3.0126245 -0.32814643
5.5605445 3.0065753 -0.33128661
5.6233959 2.9950504 -0.3339034
5.6951637 2.9874926 -0.33704355
5.7668614 2.9795272 -0.34018371
5.8208132 2.9618547 -0.34227714
5.8392439 2.9253507 -0.34227714
5.9649863 2.9416058 -0.34855747
6.0372553 2.9302316 -0.35169762
6.1096144 2.9180644 -0.35483778
6.0916762 2.8626304 -0.35274434
6.7893877 3.1385753 -0.39199629
6.8816996 3.1289213 -0.39618319
6.9741559 3.1182296 -0.40037006
7.0758882 3.110517 -0.40508029
7.1227937 3.0778806 -0.40665036
7.1052246 3.017452 -0.40455693
7.096395 2.9612119 -0.40298685
7.1056209 2.9127779 -0.4024635
7.0959911 2.8568859 -0.40089342
7.0859399 2.8012314 -0.39932334
7.1592598 2.7783315 -0.4024635
7.2792306 2.7723927 -0.40822044
7.3994055 2.7650535 -0.41397741
7.5102153 2.7533662 -0.419211
7.6211023 2.7405741 -0.42444459
7.7322941 2.7260048 -0.4296782
7.843658 2.7099788 -0.43491179
7.9645805 2.6958616 -0.44066873
8.0382357 2.664619 -0.44380891
8.0453215 2.6109784 -0.44328555
8.0330143 2.5513082 -0.44171545
8.0298128 2.494859 -0.44066873
8.0262194 2.4385512 -0.43962201
8.0126638 2.3795443 -0.43805194
7.9986844 2.3208044 -0.43648186
7.9937439 2.2655804 -0.43543515
7.9883785 2.2106822 -0.43438843
7.9827814 2.1554148 -0.43334171
7.967195 2.0975876 -0.43177164
7.9705443 2.0450053 -0.43124828
7.9638596 1.9900428 -0.43020156
7.956799 1.9352453 -0.42915484
7.9493656 1.8806152 -0.42810813
7.9318275 1.8239172 -0.42653805
7.9333849 1.7718675 -0.42601466
7.9247293 1.7182741 -0.42496794
