# .PCD v0.7 - Point Cloud Data file format
VERSION 0.7
FIELDS x y z
SIZE 4 4 4
TYPE F F F
COUNT 1 1 1
WIDTH 1495
HEIGHT 1
VIEWPOINT 0 0 0 1 0 0 0
POINTS 1495
DATA ascii
-2.8390617 2.901432 0.070856772
-2.827724 2.9264023 0.071031295
-2.8230853 2.9585798 0.07138034
-2.8181548 2.9908123 0.071729392
-2.8129284 3.0231006 0.072078437
-2.8074088 3.0554395 0.072427489
-2.8015916 3.0878289 0.072776534
-2.8021512 3.1277108 0.073300108
-2.7890682 3.152745 0.073474631
-2.7823601 3.1852665 0.073823676
-2.7753513 3.217829 0.074172728
-2.7745268 3.2580395 0.074696295
-2.7668695 3.2907143 0.075045347
-2.7589126 3.3234196 0.075394392
-2.7569895 3.3638885 0.075917967
-2.7483785 3.3966894 0.076267011
-2.745702 3.4373279 0.076790586
-2.7364335 3.4702134 0.077139638
-2.7329993 3.5110087 0.077663206
-2.7291617 3.5518956 0.07818678
-2.7188737 3.5849068 0.078535825
-2.7142718 3.6259313 0.0790594
-2.709259 3.6670399 0.079582974
-2.7038381 3.7082262 0.080106542
-2.698004 3.7494898 0.080630116
-2.6859705 3.7826717 0.080979161
-2.6850989 3.8322282 0.081677258
-2.678026 3.8736959 0.082200833
-2.6649013 3.9069664 0.082549877
-2.6626296 3.9568136 0.083247975
-2.6432445 3.981796 0.083422504
-2.6072204 3.9815953 0.083073452
-4.6135116 8.4854393 0.16859025
-4.5419207 8.4786301 0.16789214
-4.5258832 8.5777454 0.16928834
-4.4811211 8.6237564 0.16963738
-4.3995199 8.5983372 0.16859025
-4.3454103 8.6258087 0.16859025
-4.2911253 8.6529427 0.16859025
-4.1928172 8.5898809 0.16684501
-4.1430898 8.6250687 0.16701953
-4.1186743 8.7142305 0.16824119
-4.0504346 8.7130909 0.16771762
-3.9990516 8.7477884 0.16789214
-3.9686053 8.8274593 0.16893929
-3.92115 8.8705091 0.16928834
-3.9011993 8.9775028 0.17085905
-2.3806758 6.4538646 0.12007255
-2.3304353 6.4402857 0.11954898
-2.2870736 6.4452033 0.11937446
-2.242686 6.4501977 0.11919993
-2.1919155 6.4359474 0.11867636
-2.1419408 6.4211392 0.11815279
-2.0922768 6.4059458 0.11762922
-2.0464542 6.3997397 0.11728017
-2.0007246 6.3932328 0.11693112
-1.7464099 5.7078977 0.10419086
-1.7071799 5.7093186 0.10401634
-1.7273551 5.9118767 0.10750682
-1.6106073 5.6437883 0.10244562
-1.6180465 5.8079042 0.10523801
-1.5343144 5.6442852 0.10209657
-1.5321258 5.7794547 0.10436539
-1.520797 5.8857722 0.10611063
-1.4618202 5.8079472 0.10453992
-1.411024 5.75875 0.10349277
-1.3771299 5.7772284 0.10366729
-1.358863 5.8636894 0.10506348
-1.3372483 6.3088508 0.11256802
-1.291512 6.2877536 0.11204445
-1.2475327 6.2762399 0.1116954
-1.2057064 6.2742276 0.11152087
-1.1631557 6.2619176 0.11117183
-1.122539 6.2591681 0.1109973
-1.0797817 6.2463932 0.11064825
-1.0388738 6.2431912 0.11047373
1.0082508 5.3245549 0.094592042
1.0493735 5.3573627 0.095290139
1.0830139 5.3506637 0.095290139
1.1370623 5.4416242 0.097035378
1.1922957 5.5321131 0.098780617
1.2357028 5.5635548 0.099478714
1.2817808 5.6044149 0.10035133
1.3696476 5.8201008 0.10436539
1.4179467 5.8599701 0.10523801
1.4571502 5.8606486 0.10541254
1.4914713 5.8416896 0.10523801
1.5256118 5.8225312 0.10506348
1.5621655 5.8128304 0.10506348
1.6013131 5.8125401 0.10523801
1.6378025 5.8023639 0.10523801
1.6770037 5.8015642 0.10541254
1.7134225 5.7909126 0.10541254
1.7526709 5.7896023 0.10558706
1.7949274 5.7975783 0.1059361
1.828302 5.7766538 0.10576158
1.8645616 5.7650518 0.10576158
1.9038839 5.7627168 0.1059361
1.9400543 5.7506404 0.1059361
1.9794037 5.7477908 0.10611063
2.0187936 5.7446737 0.10628515
2.0548484 5.7318759 0.10628515
2.0942864 5.728231 0.10645968
2.1307354 5.7147732 0.10645968
2.170619 5.7104416 0.1066342
2.2100668 5.7060142 0.10680872
2.1834893 5.5339036 0.10384182
2.1622953 5.3809137 0.10122395
1.9065827 3.6966567 0.072602011
1.8976157 3.6224384 0.07138034
1.9112225 3.592643 0.071031295
1.9334453 3.5807323 0.071031295
1.9867418 3.2737272 0.066842712
2.0125127 3.2696943 0.067017242
2.0488999 3.2824302 0.06754081
2.0694835 3.2694917 0.06754081
2.0953858 3.2648389 0.067715339
2.1267643 3.2683697 0.068064384
2.147258 3.2549424 0.068064384
2.1787653 3.2580211 0.068413429
2.1989098 3.2444592 0.068413429
2.2246659 3.2389903 0.068587959
2.2509675 3.2329578 0.068762481
2.2772648 3.2267342 0.068937004
2.3033104 3.2204945 0.069111526
2.3352346 3.2221506 0.069460578
2.361352 3.2154732 0.069635101
2.3874772 3.2085946 0.069809623
2.4136093 3.2015142 0.069984145
2.4458151 3.2021778 0.070333198
2.4720054 3.1946547 0.07050772
2.492029 3.1790595 0.07050772
2.5057366 3.155509 0.070333198
2.550581 3.170866 0.071031295
2.5894005 3.1780317 0.071554862
2.6093171 3.1616995 0.071554862
2.6355436 3.1529138 0.071729392
2.6617625 3.1439228 0.071903914
2.6944804 3.1423168 0.072252959
2.7272828 3.1404231 0.072602011
3.1029642 3.3541245 0.079757497
3.144485 3.3564517 0.080281071
3.1723936 3.3438818 0.080455594
3.207195 3.3383036 0.080804639
3.2420511 3.3324194 0.081153691
3.2769592 3.3262286 0.081502736
3.3119168 3.3197298 0.081851788
3.354028 3.3199565 0.082375355
3.3748214 3.2988172 0.082375355
3.4170632 3.2983794 0.08289893
3.4521947 3.2906415 0.083247975
3.4946434 3.2894452 0.083771549
3.5298893 3.2810371 0.084120594
3.5651493 3.2723348 0.084469646
3.6001713 3.2636135 0.084818691
3.6426885 3.2612324 0.085342266
3.6855805 3.2581472 0.08586584
3.7210619 3.2480555 0.086214885
3.7568264 3.2373385 0.086563937
3.7849715 3.2198398 0.08673846
3.7821589 3.176703 0.086214885
3.7789545 3.1337292 0.08569131
3.7753606 3.0909221 0.085167743
3.7635858 3.0420203 0.084469646
3.7667322 3.0061691 0.084120594
3.7538886 2.9579995 0.083422504
3.764508 2.928216 0.083247975
3.8066235 2.9227729 0.083771549
3.8806925 2.9410717 0.084993221
3.9151077 2.9286087 0.085342266
3.9575629 2.9217672 0.08586584
4.0000854 2.9145072 0.086389408
4.0345545 2.9009905 0.08673846
4.0690107 2.8871555 0.087087505
4.1280236 2.8902049 0.087960124
4.1954598 2.8983088 0.089007273
4.2301116 2.883153 0.089356318
4.273035 2.873255 0.089879893
4.3159995 2.862931 0.090403467
4.3673692 2.8576543 0.091101557
4.4188414 2.8518441 0.091799654
4.461977 2.8401301 0.092323229
4.4882021 2.8173547 0.092497751
4.5398216 2.8101487 0.093195848
4.591526 2.8024046 0.093893945
4.6518784 2.7992764 0.094766565
4.7123709 2.7954991 0.095639184
4.7729979 2.7910709 0.096511804
4.8077655 2.7710121 0.096860856
4.8424692 2.7506258 0.097209901
4.8858304 2.7347963 0.097733475
4.9554482 2.7330163 0.098780617
5.016449 2.7256942 0.099653237
5.0775371 2.7177401 0.10052586
5.1296554 2.7048826 0.10122395
5.1463304 2.6730199 0.10122395
5.6882281 2.9092479 0.11152087
5.7599921 2.9003999 0.11256802
5.8231454 2.8858461 0.11344064
5.9042873 2.8794343 0.11466231
5.9851108 2.8730857 0.11588398
6.0660954 2.8658111 0.11710565
6.1198149 2.797672 0.11745469
6.1190338 2.7509654 0.11710565
6.1087627 2.7003379 0.11658207
6.1072688 2.6539323 0.11623303
6.1054335 2.6076527 0.11588398
6.094039 2.557632 0.1153604
6.1469631 2.5345368 0.1160585
6.2369051 2.5258901 0.11745469
6.3176875 2.512517 0.11867636
6.3892317 2.4945908 0.11972351
6.4888072 2.4865975 0.12129422
6.5791726 2.4739313 0.12269042
6.6602511 2.4567661 0.12391208
6.7507734 2.44208 0.12530828
6.8413711 2.4263532 0.12670447
6.9320345 2.4095824 0.12810066
7.0227547 2.391767 0.12949686
7.0281591 2.3444309 0.12932234
7.0142374 2.2909129 0.12879875
6.9999223 2.2376628 0.12827519
6.9947581 2.1876681 0.12792614
6.9988046 2.1407511 0.12775162
6.9833674 2.0881793 0.12722804
6.9769778 2.0392606 0.12687899
6.9702611 1.9904644 0.12652995
6.9633675 1.9412599 0.1261809
6.9561315 1.8922207 0.12583184
6.948555 1.8433495 0.1254828
6.9406395 1.7946482 0.12513375
6.9323874 1.7461195 0.1247847
6.9238 1.6977663 0.12443566
6.9148793 1.6495893 0.12408661
6.9056277 1.6015916 0.12373756
6.8960466 1.5537754 0.12338851
6.8958974 1.5083171 0.12321398
6.8757682 1.459334 0.12269042
6.884686 1.4166675 0.12269042
6.8640337 1.3675212 0.12216684
6.8626728 1.3224745 0.12199232
6.8511877 1.2756686 0.12164327
6.839386 1.2290596 0.12129422
6.82727 1.1826493 0.12094518
6.8247037 1.1380845 0.12077065
6.8119745 1.0920161 0.1204216
6.8088193 1.0476732 0.12024708
6.8053761 1.0034133 0.12007255
6.8016405 0.95927602 0.11989803
6.7876358 0.91444516 0.11954898
6.7733421 0.86978775 0.11919993
6.7687483 0.82600152 0.11902541
6.7638721 0.78230828 0.11885089
6.7587147 0.73870802 0.11867636
6.7433348 0.69414282 0.11832731
6.7476201 0.65117031 0.11832731
6.7416663 0.60734886 0.11815279
6.7253733 0.56389546 0.11780374
6.7187724 0.52140522 0.11762922
6.4925327 0.46282798 0.11361516
6.1361246 0.39868748 0.1073323
6.118546 0.35895425 0.10698325
6.1306639 0.3210597 0.10715777
6.1325355 0.28306833 0.10715777
6.1341743 0.24499992 0.10715777
6.1356106 0.20591798 0.10715777
6.136797 0.16686119 0.10715777
6.1177316 0.12788154 0.10680872
6.0984187 0.089181371 0.10645968
6.0888562 0.051309984 0.10628515
6.0790591 0.013528142 0.10611063
6.0790238 -0.024667792 0.10611063
6.0687509 -0.062759355 0.1059361
6.0682368 -0.10088902 0.1059361
6.0574875 -0.13878568 0.10576158
6.0465016 -0.17655125 0.10558706
6.0452743 -0.21450587 0.10558706
6.0338392 -0.25154144 0.10541254
6.1420207 -0.29421642 0.1073323
6.5094523 -0.35282412 0.11378969
9.1319056 -0.55253237 0.15968952
9.1182775 -0.60923207 0.15951499
9.1342134 -0.66797006 0.15986404
9.1099024 -0.72376478 0.15951499
9.1151371 -0.78184271 0.15968952
9.1000881 -0.83818203 0.15951499
9.0946426 -0.89534277 0.15951499
9.0788927 -0.95142603 0.15934047
9.0727415 -1.0084018 0.15934047
9.0563889 -1.0634305 0.15916595
9.0496206 -1.1195712 0.15916595
9.0324926 -1.1751193 0.15899143
9.0249376 -1.2317994 0.15899143
9.0171318 -1.2876936 0.15899143
9.0089655 -1.3436357 0.15899143
9.0002232 -1.4010001 0.15899143
8.9911318 -1.4582083 0.15899143
8.9819241 -1.5138887 0.15899143
8.9822121 -1.5712818 0.15916595
8.9721622 -1.6276875 0.15916595
8.9617586 -1.6840287 0.15916595
8.9510002 -1.7403036 0.15916595
8.939889 -1.7965087 0.15916595
8.9382153 -1.8546753 0.15934047
8.9166088 -1.9087059 0.15916595
8.9142036 -1.9668471 0.15934047
8.9114199 -2.025033 0.15951499
8.8985195 -2.0809848 0.15951499
8.89499 -2.1391926 0.15968952
8.8813744 -2.195039 0.15968952
8.8674192 -2.2507503 0.15968952
8.8629789 -2.3081689 0.15986404
8.8581553 -2.3656659 0.16003856
8.8527603 -2.4239168 0.16021308
8.837369 -2.479444 0.16021308
8.8314466 -2.5369127 0.16038761
8.8155451 -2.59163 0.16038761
8.8086615 -2.6498487 0.16056214
8.7918386 -2.7051425 0.16056214
8.7842054 -2.76333 0.16073667
8.7761889 -2.8215282 0.16091119
8.767787 -2.8797345 0.16108571
8.7589998 -2.9379454 0.16126023
8.7498264 -2.9961607 0.16143475
8.7402668 -3.0543766 0.16160928
8.7303209 -3.1125903 0.1617838
8.7199888 -3.1707997 0.16195832
6.3374224 -2.3496289 0.11797827
6.1261244 -2.3151746 0.11431326
5.9248476 -2.281754 0.11082278
5.7428675 -2.2531707 0.10768135
5.5709529 -2.2256498 0.10471444
5.3903327 -2.1923494 0.10157301
5.2471209 -2.1726239 0.099129669
5.1412296 -2.1667194 0.097384423
4.9712996 -2.1319857 0.09441752
4.8478479 -2.1151707 0.092323229
4.7158394 -2.0924504 0.090054415
4.5934062 -2.0723135 0.087960124
3.0390551 -1.8337954 0.061956041
2.9679251 -1.8160759 0.060734373
2.9054825 -1.8030554 0.059687231
2.7702456 -1.7923232 0.05759294
2.7171276 -1.7822741 0.05672032
2.655921 -1.7660931 0.055673175
2.6116085 -1.7603916 0.054975078
2.5757391 -1.7598304 0.054451507
2.531904 -1.7529895 0.05375341
2.4882445 -1.7456874 0.053055316
2.4446318 -1.7381121 0.052357219
2.4093263 -1.7359034 0.051833645
2.3660705 -1.7274247 0.051135551
2.3310556 -1.7244182 0.050611977
2.2961731 -1.7210405 0.050088406
2.2614353 -1.717281 0.049564835
2.2190509 -1.7068758 0.048866738
2.1926491 -1.7083139 0.048517689
2.1504784 -1.6972791 0.047819592
2.1085341 -1.6857828 0.047121495
2.0823603 -1.6864127 0.04677245
2.0485322 -1.6804394 0.046248876
2.0225527 -1.6804979 0.045899827
1.9890134 -1.6738479 0.045376256
1.9557738 -1.6666844 0.044852685
1.9226916 -1.6591842 0.044329111
1.8971717 -1.6580727 0.043980062
1.8642554 -1.6500797 0.043456491
1.8389606 -1.6484131 0.043107443
1.8063669 -1.6397637 0.042583872
1.7814499 -1.637392 0.042234823
1.749295 -1.6279825 0.041711252
1.7243371 -1.6253771 0.041362204
1.7139568 -1.6363194 0.041362204
1.6820766 -1.6262074 0.040838629
1.6575457 -1.6227455 0.04048958
1.633257 -1.6189071 0.040140536
1.6020141 -1.6077566 0.039616961
1.584868 -1.6106638 0.039442439
1.5607901 -1.6062397 0.03909339
1.543885 -1.6086655 0.038918864
1.5201225 -1.6036958 0.038569819
1.5031836 -1.6059155 0.038395293
1.4727037 -1.5933014 0.037871722
1.4559233 -1.5951383 0.037697196
1.4257905 -1.5819733 0.037173625
1.4091755 -1.5834315 0.036999103
1.3925987 -1.5847436 0.036824577
1.3695087 -1.5783584 0.036475528
1.3400494 -1.5641532 0.035951957
1.3301951 -1.5725421 0.035951957
1.313888 -1.5731874 0.035777431
1.2913921 -1.5658708 0.035428386
1.2690295 -1.5583432 0.035079338
1.1391749 -1.7993884 0.037173625
1.1437318 -1.8319542 0.037697196
1.1426821 -1.8561331 0.038046245
1.1309972 -1.8632761 0.038046245
1.1346704 -1.8960843 0.038569819
1.1430664 -1.9376163 0.039267913
1.1159588 -1.9187325 0.038744342
1.1139848 -1.9429641 0.03909339
1.1017549 -1.9499251 0.03909339
1.0992091 -1.9742806 0.039442439
1.1012089 -2.0074465 0.03996601
1.0933278 -2.0231221 0.040140536
1.0852928 -2.0387776 0.040315058
3.4389586 -6.9773583 0.13577972
3.3165021 -6.8369012 0.13263829
3.2649033 -6.83954 0.13228925
3.2054591 -6.8234386 0.13159114
3.1463022 -6.8068824 0.13089305
3.1200233 -6.8629251 0.13159114
3.1054058 -6.9462881 0.13281281
3.0898626 -7.0297356 0.13403448
2.8414314 -7.0583801 0.13281281
2.7866158 -7.047955 0.13228925
2.7428551 -7.0651007 0.13228925
2.6877301 -7.0541649 0.13176566
2.6328511 -7.0428171 0.1312421
2.5954325 -7.0779948 0.13159114
2.5948904 -7.216476 0.13385996
2.5794127 -7.3175058 0.13543068
4.1428676 -11.992652 0.22147103
4.1123075 -12.151036 0.22391437
4.1082296 -12.394922 0.22792843
4.058043 -12.506083 0.22949915
4.0732675 -12.826726 0.23490939
1.9438868 -7.0249 0.12722804
1.9023159 -7.046628 0.12740256
1.8682238 -7.0971074 0.12810066
3.5191259 -15.759404 0.28185636
3.4108193 -15.732049 0.28098375
-1.0657419 -19.047302 0.3329919
-1.1847768 -19.030251 0.33281738
-1.3035331 -19.012463 0.33264285
-1.4213107 -19.004021 0.33264285
-1.5383273 -18.984877 0.33246833
-1.6541014 -18.934994 0.33177024
-1.4537503 -6.7338138 0.12024708
-1.4156928 -6.3634319 0.11378969
-1.4601125 -6.3739033 0.11413874
-1.5023899 -6.3743439 0.11431326
-1.5418553 -6.364913 0.11431326
-1.5837111 -6.3649316 0.11448778
-1.6211966 -6.3451676 0.11431326
-1.6610323 -6.3348565 0.11431326
-1.7008024 -6.3242946 0.11431326
-1.7431626 -6.3231225 0.11448778
-1.7828574 -6.3120451 0.11448778
-1.8252599 -6.3103232 0.11466231
-1.8648727 -6.2987304 0.11466231
-1.9072752 -6.2964683 0.11483683
-1.9432924 -6.2749796 0.11466231
-1.9761347 -6.2437429 0.11431326
-2.0184028 -6.2407165 0.11448778
-2.0544379 -6.2184176 0.11431326
-2.0966647 -6.2148604 0.11448778
-2.1324167 -6.1921105 0.11431326
-2.1745956 -6.1880226 0.11448778
-2.213433 -6.1742373 0.11448778
-2.252183 -6.1602082 0.11448778
-2.2943361 -6.1553044 0.11466231
-2.3329656 -6.1407676 0.11466231
-2.3750782 -6.1353254 0.11483683
-2.4130476 -6.1204915 0.11483683
-2.4509568 -6.1054091 0.11483683
-2.4930527 -6.0991445 0.11501136
-2.5351665 -6.0925908 0.11518588
-2.5772946 -6.0857491 0.1153604
-2.6194382 -6.078618 0.11553493
-2.6615939 -6.0711966 0.11570945
-2.7037597 -6.0634856 0.11588398
-2.7459333 -6.0554833 0.1160585
-2.7838929 -6.0381265 0.1160585
-2.8297369 -6.0388689 0.11640755
-2.8714626 -6.0302167 0.11658207
-2.914176 -6.0208011 0.1167566
-2.9612653 -6.0200744 0.11710565
-2.9945624 -5.9924054 0.11693112
-3.0456977 -6.000236 0.11745469
-3.0873978 -5.9901366 0.11762922
-3.1152141 -5.9531574 0.11728017
-3.1713226 -5.9687848 0.11797827
-3.204016 -5.9399414 0.11780374
-3.2652822 -5.9635434 0.11867636
-3.3075445 -5.9516487 0.11885089
-3.3546977 -5.9481673 0.11919993
-3.3920047 -5.9269719 0.11919993
-3.4341986 -5.9141889 0.11937446
-3.4763327 -5.9011288 0.11954898
-3.5282145 -5.9052253 0.12007255
-3.5699484 -5.8917832 0.12024708
-3.6121321 -5.8777547 0.1204216
-3.6595683 -5.8719139 0.12077065
-3.7070735 -5.8657084 0.1211197
-3.7600393 -5.8675556 0.12164327
-3.8240688 -5.885736 0.12251589
-3.8719742 -5.8782921 0.12286494
-3.9310412 -5.8871083 0.12356304
-3.990371 -5.8954134 0.12426113
-4.0612707 -5.9196939 0.12530828
-4.0698447 -5.8530145 0.12443566
-4.0316658 -5.7210789 0.12216684
-4.0501003 -5.6712246 0.12164327
-4.1032391 -5.6699653 0.12216684
-4.1446958 -5.6521349 0.12234136
-4.1980166 -5.6500587 0.12286494
-4.2093492 -5.5916414 0.12216684
-4.2075381 -5.5177488 0.1211197
-4.2050033 -5.4440727 0.12007255
-4.1836724 -5.3466759 0.11850183
-4.173708 -5.2654352 0.11728017
-4.1566291 -5.1767368 0.11588398
-4.1449113 -5.0962205 0.11466231
-4.1323476 -5.0160575 0.11344064
-4.1125364 -4.9285789 0.11204445
-4.0982432 -4.8491874 0.11082278
-4.083118 -4.7701712 0.10960111
-4.0737128 -4.6990933 0.10855397
-4.0569806 -4.62081 0.1073323
-4.0527148 -4.557869 0.10645968
-4.0344133 -4.4803276 0.10523801
-3.8699822 -3.4720311 0.090752512
-3.884218 -3.4410386 0.09057799
-3.8678384 -3.3839886 0.08970537
-3.8811839 -3.3534007 0.089530841
-3.8641443 -3.2965024 0.088658221
-3.8465445 -3.2399521 0.087785602
-3.5556731 -1.3946842 0.06666819
-3.573817 -1.375596 0.066842712
-3.5731463 -1.3492891 0.06666819
-3.3769825 -0.87885123 0.060908899
-3.3630543 -0.85270107 0.06055985
-5.4197397 -0.56557274 0.095115617
-5.5127435 -0.5402872 0.096686333
-5.6056399 -0.51385194 0.09825705
-5.7283053 -0.48882374 0.10035133
-5.9306121 -0.46857101 0.10384182
-6.6194301 -0.3558872 0.11570945
-6.8712144 -0.32617873 0.12007255
-7.0928831 -0.29266647 0.12391208
-7.9367862 -0.17837994 0.13857211
-7.9177561 -0.12818256 0.13822305
-7.9284034 -0.078532681 0.13839757
-8.1986971 -0.029691275 0.14310972
-8.7386379 0.023257788 0.15253402
-9.6281481 0.086125553 0.16806667
-9.6674061 0.14722542 0.16876477
-9.6662903 0.20796691 0.16876477
-11.33169 0.38630781 0.19791028
-11.95843 0.48291236 0.20890529
-13.093746 0.6111896 0.22880104
-13.169524 0.69767565 0.23019724
-2.9655244 1.191494 -0.73783946
-2.8859234 1.1803696 -0.71984339
-2.8334744 1.179752 -0.70859581
-2.8260057 1.1975327 -0.70859581
-2.8363206 1.2229805 -0.71309483
-2.8375037 1.2446908 -0.71534437
-2.8296275 1.2624938 -0.71534437
-2.8216388 1.2802486 -0.71534437
-2.8135395 1.2979515 -0.71534437
-2.8053284 1.3156044 -0.71534437
-2.8058028 1.3373965 -0.71759385
-2.797344 1.3550001 -0.71759385
-2.7975178 1.3768516 -0.71984339
-2.7888112 1.3944023 -0.71984339
-2.7886827 1.4163088 -0.72209287
-2.788388 1.43827 -0.72434241
-2.7879279 1.4602817 -0.72659189
-2.7700787 1.473225 -0.72434241
-2.7692103 1.4954726 -0.72659189
-2.7681875 1.5177377 -0.72884142
-2.7671113 1.539838 -0.7310909
-2.7573986 1.5571636 -0.7310909
-2.7561519 1.5790625 -0.73334044
-2.7547224 1.6010349 -0.73558992
-2.7530022 1.6232599 -0.73783946
-2.742748 1.6405261 -0.73783946
-2.7407172 1.6627802 -0.74008894
-2.7385137 1.6850747 -0.74233848
-2.7361388 1.7074054 -0.74458796
-2.7335901 1.7297742 -0.7468375
-2.7308691 1.7521768 -0.74908698
-2.7198055 1.7693014 -0.74908698
-2.7167695 1.7917191 -0.75133651
-2.7135577 1.8141698 -0.75358599
-2.9088693 2.079859 -0.82557034
-2.9351721 2.1267114 -0.83681792
-2.8980038 2.1280646 -0.83006936
-2.8609612 2.1290009 -0.82332087
-2.8164079 2.1234701 -0.81432283
-2.7720609 2.117435 -0.80532473
-2.9009614 2.3630173 -0.86381203
-2.8710248 2.3687966 -0.85931301
-2.8037486 2.3430512 -0.84356642
-2.759222 2.3354421 -0.83456838
-2.8588543 2.6776087 -0.90430325
-2.8561139 2.7089281 -0.90880227
-2.8460634 2.7335706 -0.91105175
-2.842802 2.7649851 -0.91555077
-2.8392563 2.7964678 -0.92004979
-2.835428 2.8280129 -0.9245488
-2.8244579 2.8526974 -0.92679834
-2.8201027 2.8843207 -0.93129736
-2.8154595 2.9160028 -0.93579638
-2.8105307 2.9477386 -0.9402954
-2.8119912 2.9866223 -0.9470439
-2.7998056 3.0113668 -0.94929343
-2.794008 3.0432549 -0.95379245
-2.7944655 3.0824053 -0.96054101
-2.7945392 3.1216824 -0.96728951
-2.7813241 3.1464791 -0.96953905
-2.78072 3.1859157 -0.97628754
-2.7670093 3.2107046 -0.97853708
-2.7657239 3.2502899 -0.98528558
-2.7577834 3.2825229 -0.9897846
-2.7619863 3.3297846 -0.99878269
1.0019126 3.5442257 -0.85031497
1.0214522 3.528501 -0.84806544
1.0491385 3.5406981 -0.85256445
1.0685378 3.5247116 -0.85031497
1.090663 3.5179281 -0.85031497
1.1156888 3.5202944 -0.85256445
1.1377853 3.5132148 -0.85256445
1.1598369 3.5059967 -0.85256445
1.1849611 3.5078712 -0.85481399
1.2069781 3.5003567 -0.85481399
1.2289475 3.4927039 -0.85481399
1.2508683 3.4849133 -0.85481399
1.7182467 3.4874237 -0.8975547
1.761662 3.5202594 -0.90880227
1.7969911 3.5351789 -0.91555077
1.8370854 3.5584304 -0.9245488
1.8687664 3.5639138 -0.92904782
1.8959341 3.5605786 -0.93129736
1.9133259 3.5401912 -0.92904782
1.9980701 3.2894807 -0.88855666
2.0238097 3.2851574 -0.89080614
2.0495734 3.2806401 -0.89305568
2.0753601 3.2759287 -0.89530516
2.1011684 3.2710223 -0.8975547
2.132314 3.2740855 -0.90205371
2.1582122 3.2687545 -0.90430325
2.184092 3.2632506 -0.90655273
2.2042687 3.2496555 -0.90655273
2.2299511 3.243917 -0.90880227
2.2617123 3.2456336 -0.91330129
2.2879288 3.2391431 -0.91555077
2.3195784 3.24055 -0.92004979
2.3456144 3.2337992 -0.92229933
2.3716571 3.2268486 -0.9245488
2.5279658 3.1809368 -0.93804586
2.5540123 3.1725802 -0.9402954
2.5923686 3.1791246 -0.9470439
2.6309073 3.1853111 -0.95379245
2.6508691 3.1687179 -0.95379245
2.6770253 3.1594334 -0.95604199
2.7095146 3.1573393 -0.96054101
3.0838218 -1.8103528 -0.82557034
3.0305476 -1.8047324 -0.81432283
2.9776044 -1.7982887 -0.80307525
2.7838032 -1.7779214 -0.76258409
2.7235055 -1.7636005 -0.74908698
1.1459197 -1.8116152 -0.4948923
1.1448282 -1.8353138 -0.49939135
1.1383789 -1.8507701 -0.50164086
1.136833 -1.8745488 -0.50613987
1.1350327 -1.8983805 -0.51063889
1.1280509 -1.9138565 -0.51288837
1.1259624 -1.9376582 -0.51738739
1.1236004 -1.961519 -0.52188641
1.1208334 -1.9855102 -0.52638549
1.1130725 -2.0010283 -0.52863497
1.1051606 -2.0165272 -0.5308845
1.106356 -2.0491529 -0.537633
1.2785113 -2.7688546 -0.70409679
1.269147 -2.7945764 -0.70859581
1.2515632 -2.8024955 -0.70859581
1.2378472 -2.8192255 -0.71084529
1.216248 -2.8180015 -0.70859581
-1.2674984 -1.7045124 -0.49039328
-1.2781645 -1.6965288 -0.49039328
-1.2768294 -1.6730851 -0.48589426
-1.28123 -1.657419 -0.48364475
-1.2856109 -1.6416647 -0.48139524
-1.6239371 -1.3842801 -0.49264279
-1.6251479 -1.3677751 -0.49039328
-1.648375 -1.1107973 -0.45890015
-1.6390932 -1.0896299 -0.45440114
-1.6703513 -1.0953391 -0.46114966
-1.6853819 -1.0901142 -0.46339917
-1.7004126 -1.0847435 -0.46564868
-1.7236892 -1.0844153 -0.4701477
-1.7470282 -1.083837 -0.47464672
-1.7538037 -1.0728388 -0.47464672
-1.7688535 -1.0668304 -0.47689623
-1.7922719 -1.0656548 -0.48139524
-1.8157446 -1.0642265 -0.48589426
-1.8308325 -1.057671 -0.48814377
-1.8543768 -1.0557886 -0.49264279
-3.5566511 -1.4190052 -0.88405764
-3.5563328 -1.3933095 -0.8818081
-3.556042 -1.367129 -0.87955862
-3.5464306 -1.3376102 -0.8750596
-3.5456266 -1.3119198 -0.87281007
-3.5446265 -1.2863311 -0.87056059
-3.5341692 -1.2578096 -0.86606157
-3.5327084 -1.2326398 -0.86381203
-3.521944 -1.2041146 -0.85931301
-3.5202007 -1.1788678 -0.85706353
-3.5182796 -1.1536905 -0.85481399
-3.5161815 -1.128584 -0.85256445
-15.767866 1.3815901 0.82952487
-15.758874 1.4806305 0.82952487
-15.779069 1.5826107 0.83109498
-15.694682 1.9736571 0.82900155
-15.681972 2.072226 0.82900155
-15.678569 2.1718333 0.82952487
-15.635161 2.2646425 0.82795483
-15.601044 2.3587394 0.82690811
-12.71796 2.7512465 0.68193752
-12.330274 2.7474625 0.66204983
-12.342122 2.8309069 0.66361994
-12.333557 2.9117663 0.66414326
-12.246878 2.9735777 0.66047978
-12.247332 3.0552993 0.6615265
-12.276262 3.1445842 0.66414326
-12.265921 3.2241912 0.66466665
-12.283988 3.3115969 0.66676009
-12.243688 3.3833907 0.66571337
-7.1519198 2.1208732 0.39094958
-7.1575656 2.1715646 0.39199629
-7.1151662 2.2076178 0.39042622
-6.4253082 2.037919 0.3532677
-7.0868635 2.2968531 0.39042622
-5.7260923 1.8956643 0.31610918
-5.5721631 1.883633 0.30825877
-5.4091768 1.8664868 0.29988503
-5.4067616 1.9037548 0.30040839
-2.9555016 1.1887965 0.1669517
-2.8648851 1.1730777 0.16224146
-2.8666759 1.1948965 0.16276482
-2.8499179 1.2089854 0.16224146
-2.8422656 1.2268673 0.16224146
-2.8619313 1.2567477 0.16381153
-2.8539789 1.2747041 0.16381153
-2.8368213 1.2884804 0.16328818
-2.8377361 1.3104652 0.16381153
-2.8113663 1.3197827 0.16276482
-2.8120317 1.3417206 0.16328818
-2.8035457 1.3593632 0.16328818
-2.7949498 1.3769507 0.16328818
-2.8308938 1.4168329 0.16590498
-2.8130341 1.4300656 0.16538163
-2.8128662 1.4522942 0.16590498
-2.7948418 1.4653015 0.16538163
-2.7943699 1.4875724 0.16590498
-2.7848372 1.505343 0.16590498
-2.7839701 1.5278126 0.16642834
-2.7830405 1.5501332 0.1669517
-2.7732713 1.5675439 0.1669517
-2.7721684 1.5896648 0.16747506
-2.7708719 1.6118764 0.16799842
-2.7692902 1.6343292 0.16852178
-2.7589664 1.6516976 0.16852178
-2.7570703 1.6741825 0.16904514
-2.7549994 1.69671 0.16956849
-2.7527547 1.719276 0.17009185
-2.7418976 1.7365388 0.17009185
-2.7393358 1.7591276 0.17061521
-2.7365971 1.7817541 0.17113857
-2.7336829 1.8044139 0.17166193
-2.7305908 1.8271087 0.17218529
-2.7273219 1.8498342 0.17270865
-2.7238741 1.872592 0.17323202
-2.7187843 2.1323745 0.18108241
-2.7287898 2.1680508 0.18265249
-2.7151132 2.1851542 0.18265249
-2.7090707 2.2084796 0.18317585
-2.7028408 2.2318168 0.18369921
-2.6964254 2.255161 0.18422256
-2.689822 2.2785141 0.18474592
-2.8661494 2.8251731 0.2109139
-2.8554106 2.8501799 0.21143726
-2.8444686 2.8751645 0.21196061
-2.8333268 2.9001224 0.21248397
-2.835849 2.9394288 0.21405406
-2.8311017 2.9716487 0.21510078
-2.8192163 2.9966524 0.21562414
-2.8139269 3.0289385 0.21667086
-2.8150916 3.0686364 0.21824093
-2.8091652 3.1010649 0.21928765
-2.8029401 3.1335411 0.22033437
-2.789808 3.1585746 0.22085772
-2.7830338 3.1910942 0.22190446
-2.7824786 3.2312183 0.22347453
-2.7750578 3.2638543 0.22452125
-2.767338 3.2965221 0.22556797
-2.7593153 3.3292229 0.22661468
-2.7573159 3.3696797 0.22818476
-2.7486393 3.4024749 0.22923149
-2.745887 3.4430995 0.23080157
-2.7427304 3.4838245 0.23237164
-2.7330437 3.5167582 0.23341836
-2.7291272 3.557632 0.23498844
-2.7187777 3.5906317 0.23603515
-2.714097 3.6316416 0.23760524
-2.7030821 3.6646955 0.23865196
-2.7035105 3.7139025 0.2407454
-2.6917758 3.747036 0.24179211
-2.6855044 3.7883165 0.24336219
-2.6788218 3.8296635 0.24493226
-2.6773953 3.8792953 0.24702571
-2.6642106 3.9125493 0.24807243
-4.5493236 9.1917171 0.53749025
-4.4389977 9.1123877 0.53120995
-4.329855 9.0320377 0.52492964
-4.2941685 9.1042967 0.52754641
-4.1604404 8.9684048 0.51812595
-4.1406722 9.0764294 0.52283621
-2.4727981 6.719625 0.37524879
-2.3293951 6.4530258 0.359548
-2.2858248 6.4579954 0.35902464
-2.2413673 6.4629908 0.35850129
-2.1906183 6.4487357 0.35693121
-2.1374481 6.4244695 0.35483778
-2.0940514 6.4282432 0.35431442
-2.0450788 6.4125524 0.35274434
-1.8414773 5.900857 0.32395956
-1.7863653 5.8551579 0.32081941
-1.7291534 5.7993999 0.3171559
-1.7289939 5.9347897 0.32395956
-1.6834702 5.9167213 0.32238948
-1.6329005 5.8790717 0.31977269
-1.6037635 5.9181314 0.32134277
-1.5614461 5.9087815 0.32029605
-1.5217973 5.9088054 0.31977269
-1.5113713 6.0247979 0.32552963
-1.4995435 6.1408892 0.33128661
-1.4401599 6.062746 0.32657635
-1.4177647 6.1397872 0.33023989
-1.3244824 6.2728982 0.33599684
-1.2889403 6.3006854 0.33704355
-1.244899 6.289176 0.33599684
-1.2068918 6.3067479 0.3365202
-1.1623431 6.2846456 0.33495012
-1.1197699 6.2720828 0.3339034
-1.0786477 6.2691526 0.33338004
-1.0359718 6.2561026 0.33233333
1.0149302 5.3368959 0.28470761
1.0522972 5.3500109 0.28575432
1.0878803 5.3530798 0.28627768
1.1296939 5.3852329 0.28837112
1.1740661 5.4268312 0.29098791
1.2820195 5.7507458 0.30878213
1.2555717 5.4700484 0.29412806
1.2669637 5.364862 0.28889447
1.4137467 5.8226037 0.31401575
1.4599718 5.8523636 0.31610918
1.5016702 5.8624225 0.3171559
1.5410137 5.8625298 0.31767926
1.5778185 5.8527317 0.31767926
1.6119009 5.833077 0.3171559
1.6485192 5.822834 0.3171559
1.687853 5.8219528 0.31767926
1.7243999 5.8112326 0.31767926
1.7608787 5.8002834 0.31767926
1.8002487 5.7986422 0.31820261
1.836647 5.7872167 0.31820261
1.8760531 5.7850618 0.31872597
1.9123645 5.77316 0.31872597
1.9518001 5.7704902 0.31924933
1.9912775 5.7675524 0.31977269
2.0307946 5.7643456 0.32029605
2.066973 5.7514725 0.32029605
2.1065998 5.7477136 0.32081941
2.1431725 5.7341771 0.32081941
2.18312 5.7297754 0.32134277
2.2154636 5.706636 0.32081941
2.1888421 5.5347333 0.31192228
2.1713428 5.3911867 0.30459526
2.1444647 5.2296391 0.29622149
2.122982 5.0872278 0.28889447
2.1038029 4.9544463 0.28209081
2.0834002 4.8219562 0.27528712
2.0655127 4.6990309 0.26900682
2.0464854 4.5763822 0.26272649
1.92467 3.7826805 0.22242782
1.9117839 3.6995072 0.21824093
1.9074663 3.6341991 0.21510078
1.9257634 3.6132245 0.21457742
1.933859 3.574873 0.21300733
1.981701 3.2596459 0.19992335
2.0126252 3.2641311 0.20097007
2.0436835 3.2683554 0.20201679
2.0802217 3.2807515 0.20358686
2.0953932 3.2592165 0.2030635
2.1267364 3.2627184 0.20411022
2.1527002 3.257623 0.20463358
2.1730728 3.2440684 0.20463358
2.19874 3.2388043 0.20515695
2.2301912 3.2415009 0.20620367
2.2565084 3.2354188 0.20672703
2.2827854 3.2291698 0.20725039
2.3088455 3.2228811 0.20777375
2.3349164 3.216392 0.2082971
2.3609967 3.2097023 0.20882046
2.3930526 3.2108185 0.20986718
2.4131792 3.1957192 0.20986718
2.4453464 3.1963568 0.2109139
2.471499 3.1888223 0.21143726
2.479152 3.1575215 0.21039054
2.5238073 3.1731448 0.21248397
2.5499601 3.1650009 0.21300733
2.5950518 3.1798644 0.21510078
2.6086175 3.1557996 0.21457742
2.6348052 3.1470039 0.21510078
2.6674438 3.1456199 0.2161475
2.6936619 3.1363735 0.21667086
2.7264228 3.1344564 0.21771757
3.101814 3.3476028 0.23917532
3.1364527 3.3426123 0.24022204
3.1711507 3.3373182 0.24126875
3.2059054 3.3317194 0.24231547
3.2407141 3.3258152 0.24336219
3.2755749 3.3196044 0.24440891
3.3104851 3.3130863 0.24545564
3.352545 3.3132794 0.24702571
3.3804433 3.2991245 0.24754907
3.422677 3.298609 0.24911915
3.4578028 3.290808 0.25016588
3.4929652 3.2826951 0.2512126
3.5354815 3.2810626 0.25278267
3.5706983 3.2723362 0.25382939
3.6131165 3.2702539 0.25539947
3.6482532 3.2610557 0.25644618
3.683645 3.2512853 0.2574929
3.726639 3.2476988 0.25906298
3.762393 3.2369184 0.26010969
3.7828846 3.2129467 0.26010969
3.7953455 3.182698 0.25958633
3.7691157 3.1205773 0.25644618
3.7731843 3.0841939 0.25539947
3.7768953 3.0479448 0.25435275
3.7722774 3.005815 0.25278267
3.7516344 2.9514499 0.25016588
3.7779918 2.9339449 0.25068924
3.8201284 2.9283757 0.25225931
3.8782704 2.9344432 0.25487611
3.9366379 2.9398944 0.2574929
3.9711094 2.9269519 0.25853962
4.0055728 2.9136918 0.25958633
4.0400257 2.9001141 0.26063305
4.0663171 2.880445 0.26115641
4.1334453 2.8891656 0.26429656
4.1926208 2.8914855 0.26691338
4.2272182 2.8763211 0.2679601
4.2783728 2.8719673 0.27005354
4.321312 2.8615701 0.27162361
4.3642883 2.8507457 0.27319369
4.4240885 2.8503108 0.27581048
4.4503384 2.8278129 0.27633384
4.4934049 2.8157029 0.27790391
4.553484 2.8136616 0.28052071
4.6912084 2.8179266 0.28680104
4.7517848 2.8138371 0.28941783
4.7952442 2.7990279 0.29098791
4.7954245 2.7588835 0.28994119
4.916893 2.7471142 0.29517478
4.9690495 2.73543 0.29726821
5.0475874 2.7374804 0.30093175
5.0998759 2.7246175 0.30302519
5.1520076 2.7115715 0.30511862
5.1421561 2.6657252 0.30354854
5.7102618 2.9148612 0.33599684
5.7820482 2.9057367 0.33913699
5.8451982 2.8909798 0.34175378
5.9172778 2.8800991 0.34489393
5.9890456 2.8692689 0.34803411
6.0699835 2.861819 0.35169762
6.4773946 3.0043023 0.37420207
6.141808 2.8018966 0.35379106
6.1319575 2.7509885 0.35222098
6.1217103 2.700316 0.35065091
6.1202321 2.6538532 0.34960419
6.118412 2.6075161 0.34855747
6.1162524 2.561307 0.34751076
6.1506953 2.530426 0.34855747
6.2312856 2.5179195 0.35222098
6.330524 2.5118656 0.35693121
6.4206233 2.5010378 0.36111808
6.5108337 2.489176 0.36530498
6.5917954 2.4727705 0.36896849
6.6728058 2.4554451 0.372632
6.7726426 2.4439776 0.37734222
6.8631806 2.4280217 0.38152912
6.9443474 2.4077513 0.38519263
7.0349836 2.3897676 0.3893795
7.0403843 2.342366 0.38885614
7.0264773 2.288805 0.38728607
7.0216904 2.2385449 0.38623935
7.0070167 2.1854622 0.38466927
7.0015063 2.135566 0.38362256
6.9956121 2.0859399 0.38257584
6.9892273 2.0369673 0.38152912
6.9825373 1.9880403 0.38048241
6.9660258 1.9361062 0.37891233
6.958777 1.8870721 0.37786561
6.9511876 1.8382056 0.37681887
6.9432592 1.7895092 0.37577215
6.9349947 1.7409853 0.37472543
6.9263949 1.6926368 0.37367871
6.9174619 1.6444646 0.372632
6.9179282 1.5987201 0.37210864
6.9180927 1.5530348 0.37158528
6.908175 1.5053976 0.37053856
6.8978291 1.4584345 0.36949185
6.8969731 1.4135507 0.36896849
6.8763323 1.3643575 0.36739841
6.8749619 1.3192436 0.36687505
6.8732963 1.2742008 0.36635169
6.861506 1.2274725 0.36530498
6.859242 1.1826397 0.36478162
6.8468342 1.1362488 0.3637349
6.8439765 1.0916338 0.36321154
6.8309574 1.0455885 0.36216483
6.8176312 0.99975008 0.36111808
6.8138728 0.95561892 0.36059472
6.8097653 0.91205657 0.36007136
6.8053937 0.86847132 0.359548
6.7908888 0.82329106 0.35850129
6.7860065 0.77946794 0.35797793
6.7709136 0.73466063 0.35693121
6.7754073 0.69199246 0.35693121
6.7597966 0.64691299 0.35588449
6.7538142 0.60317063 0.35536113
6.7474694 0.5604862 0.35483778
6.7408643 0.51779401 0.35431442
6.4849834 0.45717117 0.34070706
6.1688228 0.39594701 0.32395956
6.1711888 0.35717952 0.32395956
6.1633329 0.31798449 0.3234362
6.1452332 0.2788853 0.32238948
6.1568294 0.24099453 0.32291284
6.1582398 0.20176834 0.32291284
6.1593976 0.16263485 0.32291284
6.1303449 0.12332862 0.32134277
6.1210122 0.084770404 0.32081941
6.1014476 0.046690535 0.31977269
6.1016202 0.0087863263 0.31977269
6.1015549 -0.029551269 0.31977269
6.0912633 -0.067776591 0.31924933
6.0807323 -0.10587375 0.31872597
6.079947 -0.14407784 0.31872597
6.0789218 -0.18227625 0.31872597
6.0676804 -0.22000605 0.31820261
6.0662007 -0.25759679 0.31820261
6.1642284 -0.30013269 0.3234362
6.5411277 -0.35969347 0.34332386
9.1402788 -0.56024408 0.47992072
9.1365786 -0.61766279 0.47992072
9.1325178 -0.67505711 0.47992072
9.1280956 -0.7324248 0.47992072
9.1133642 -0.78890115 0.47939736
9.0982847 -0.84522253 0.478874
9.0927944 -0.90237176 0.478874
9.077014 -0.95843673 0.47835064
9.0807533 -1.0164124 0.478874
9.0643644 -1.0714843 0.47835064
9.0575333 -1.1277732 0.47835064
9.0502682 -1.1846608 0.47835064
9.0426664 -1.2413535 0.47835064
9.0348015 -1.2973574 0.47835064
9.0166702 -1.3521252 0.47782728
9.0078735 -1.4095385 0.47782728
9.0086155 -1.468205 0.47835064
8.9796534 -1.5206589 0.47730392
8.9798689 -1.5781412 0.47782728
8.9599514 -1.6327417 0.47730392
8.9593296 -1.6908582 0.47782728
8.9485283 -1.7471176 0.47782728
8.9471636 -1.8052821 0.47835064
8.925868 -1.8594263 0.47782728
8.9237719 -1.9175702 0.47835064
8.9115477 -1.9736018 0.47835064
8.8989706 -2.0295556 0.47835064
8.8957653 -2.0877106 0.478874
8.882472 -2.143563 0.478874
8.8785219 -2.2017343 0.47939736
8.8645496 -2.2573307 0.47939736
8.860055 -2.3147359 0.47992072
8.8551502 -2.3723156 0.48044407
8.8400698 -2.427907 0.48044407
8.8342943 -2.4859633 0.48096743
8.8187218 -2.5406523 0.48096743
8.8123474 -2.5982108 0.48149079
8.8054094 -2.6564133 0.48201415
8.7980871 -2.7146308 0.48253751
8.7903805 -2.7728612 0.48306087
8.7822895 -2.8311017 0.48358423
8.7738132 -2.8893499 0.48410758
8.7649517 -2.947602 0.48463094
8.7462578 -3.0026155 0.48463094
8.7366447 -3.0608122 0.4851543
8.7266445 -3.1190064 0.48567766
8.7162571 -3.1771958 0.48620102
6.3465776 -2.3586946 0.35483778
6.1448588 -2.3277717 0.34437057
5.9437861 -2.2944098 0.3339034
5.7620068 -2.2658308 0.32448292
5.5902548 -2.2383831 0.31558582
5.4005389 -2.2014451 0.30564198
5.2666931 -2.185575 0.29883832
5.133265 -2.1681118 0.29203463
4.972744 -2.1372304 0.28366089
4.8494539 -2.1203437 0.27738056
4.7084742 -2.0935481 0.27005354
4.5861826 -2.0733912 0.2637732
3.0253868 -1.8287455 0.18526928
2.9713976 -1.8214098 0.18265249
2.9090085 -1.8084096 0.17951232
2.7654636 -1.792312 0.17270865
2.7124181 -1.7822336 0.17009185
2.6679215 -1.7770964 0.16799842
2.6070449 -1.7602949 0.16485827
2.5629978 -1.7540381 0.16276482
2.5356686 -1.7585027 0.1617181
2.4838428 -1.7455118 0.15910131
2.4402893 -1.7379115 0.15700787
2.3969307 -1.7298337 0.15491442
2.3618319 -1.7271755 0.15334435
2.3268623 -1.7241452 0.15177427
2.2840385 -1.7147487 0.14968084
2.2573509 -1.7169374 0.14863411
2.2229371 -1.7126069 0.14706403
2.1807642 -1.7018082 0.1449706
2.1465263 -1.6968976 0.14340052
2.112437 -1.6916245 0.14183044
2.0784998 -1.6859909 0.14026035
2.0447178 -1.6799983 0.13869028
2.0187697 -1.6800365 0.13764356
1.9929305 -1.6797825 0.13659684
1.959697 -1.6726491 0.13502677
1.9341576 -1.6717308 0.13398005
1.9010733 -1.6641178 0.13240996
1.8681619 -1.6561558 0.13083988
1.8502883 -1.6611896 0.13031653
1.8176751 -1.6525985 0.12874645
1.7927067 -1.6503016 0.12769973
1.7604783 -1.6410081 0.12612966
1.7354658 -1.6384789 0.12508294
1.7105845 -1.6356697 0.12403622
1.6787511 -1.625545 0.12246613
1.661401 -1.6290417 0.12194277
1.6371014 -1.6252333 0.12089606
1.612887 -1.621213 0.11984934
1.5816731 -1.6099441 0.11827926
1.5715532 -1.6198243 0.11827926
1.53385 -1.6006889 0.11618582
1.5170121 -1.6029338 0.11566246
1.500092 -1.6051376 0.1151391
1.4764318 -1.5998538 0.11409238
1.4596242 -1.6017176 0.11356902
1.4361718 -1.5960104 0.1125223
1.4194824 -1.5975375 0.11199895
1.3962446 -1.5914115 0.11095223
1.3731405 -1.585057 0.1099055
1.3436806 -1.570887 0.10833543
1.3273406 -1.5716691 0.10781207
1.31107 -1.5722865 0.10728871
1.2886071 -1.5649614 0.10624199
1.2725605 -1.5651881 0.10571863
1.2501994 -1.5575767 0.10467191
1.1417104 -1.8065308 0.11199895
1.140901 -1.8306189 0.11304566
1.1398336 -1.8547674 0.11409238
1.1333324 -1.8704333 0.11461575
1.1318003 -1.8946636 0.11566246
1.1300398 -1.9189291 0.11670918
1.1231428 -1.9345301 0.11723254
1.1210238 -1.9588046 0.11827926
1.1135999 -1.9745078 0.11880262
1.1108737 -1.9989237 0.11984934
1.1078844 -2.0233824 0.12089606
1.0998901 -2.0390928 0.12141941
1.0964277 -2.0636008 0.12246613
4.5312586 -9.5113268 0.55214435
4.5146322 -9.6296377 0.55737793
3.1897495 -7.1500168 0.4103139
3.1567953 -7.1973534 0.41188398
3.1510472 -7.3087492 0.41711757
3.0894794 -7.2916236 0.41502413
3.0359278 -7.2924528 0.41397741
2.9182267 -7.1357627 0.40403357
2.9032288 -7.228044 0.40822044
2.8840418 -7.3109202 0.41188398
2.8566024 -7.3752565 0.41450077
4.3075633 -11.332291 0.63535851
4.2711711 -11.4527 0.6405921
2.5764256 -7.0432696 0.39304301
2.5658374 -7.1533179 0.39827663
2.5374041 -7.2164025 0.40089342
2.4594793 -7.1377878 0.39565983
2.4081953 -7.1341767 0.39461312
2.3131726 -6.9974604 0.38623935
2.3060577 -7.1258702 0.39251965
2.2915084 -7.235384 0.39775327
2.2584579 -7.2875986 0.3998467
3.9917657 -13.169437 0.72118944
3.9316382 -13.270857 0.72537637
1.9466302 -7.0563703 0.38362256
1.9048507 -7.0781054 0.38414592
1.8680614 -7.1188812 0.38571599
2.9161921 -14.845527 0.79288971
2.8670311 -15.088957 0.80492699
2.3693986 -15.023433 0.79707658
2.2689824 -14.998528 0.79498315
-1.005794 -14.505217 0.76201153
-1.0941451 -14.47879 0.76096481
-1.1816278 -14.441855 0.75939471
-1.2723448 -14.434146 0.75939471
-1.3630117 -14.425866 0.75939471
-1.4526229 -14.407082 0.75887138
-1.5420519 -14.387741 0.75834799
-1.6324219 -14.377768 0.75834799
-1.7227274 -14.367228 0.75834799
-1.336048 -6.7801337 0.36216483
-1.3069021 -6.4193254 0.34332386
-1.3492635 -6.4207597 0.34384722
-1.3959247 -6.4414349 0.34541729
-1.4341933 -6.4227905 0.34489393
-1.4722829 -6.4039202 0.34437057
-1.5146835 -6.4042864 0.34489393
-1.5543342 -6.3947787 0.34489393
-1.5940305 -6.3849993 0.34489393
-1.634117 -6.3748574 0.34489393
-1.6766794 -6.3741221 0.34541729
-1.7166959 -6.3634615 0.34541729
-1.7566446 -6.3525496 0.34541729
-1.799246 -6.3509951 0.34594068
-1.841897 -6.3491559 0.34646404
-1.884596 -6.3470306 0.3469874
-1.9243336 -6.3350959 0.3469874
-1.9635476 -6.3230515 0.3469874
-2.0027905 -6.3107314 0.3469874
-2.0485635 -6.3170214 0.34803411
-2.0882137 -6.3040252 0.34803411
-2.1309814 -6.30024 0.34855747
-2.1705246 -6.2867265 0.34855747
-2.2133007 -6.2823834 0.34908083
-2.2561076 -6.277751 0.34960419
-2.2989435 -6.2728281 0.35012755
-2.3418064 -6.2676139 0.35065091
-2.3775866 -6.243444 0.35012755
-2.4094408 -6.2098017 0.34908083
-2.4515407 -6.204041 0.34960419
-2.4900351 -6.1886916 0.34960419
-2.532656 -6.1821651 0.35012755
-2.5714495 -6.1661301 0.35012755
-2.6140416 -6.1590447 0.35065091
-2.6566472 -6.1516666 0.35117427
-2.6992636 -6.1439958 0.35169762
-2.741888 -6.1360321 0.35222098
-2.784519 -6.1277752 0.35274434
-2.8270531 -6.1192708 0.3532677
-2.8691585 -6.1106758 0.35379106
-2.911464 -6.1016998 0.35431442
-2.9546337 -6.0920134 0.35483778
-2.9976976 -6.0820742 0.35536113
-3.0447953 -6.0809784 0.35640785
-3.0873697 -6.0706792 0.35693121
-3.1295068 -6.0603065 0.35745457
-3.1624579 -6.0319037 0.35693121
-3.2143724 -6.0383596 0.35850129
-3.2617445 -6.035615 0.359548
-3.309207 -6.0325136 0.36059472
-3.3616185 -6.0377774 0.36216483
-3.4044008 -6.0252314 0.36268818
-3.4471583 -6.0123854 0.36321154
-3.4898884 -5.9992394 0.3637349
-3.5324903 -5.9858522 0.36425826
-3.5797684 -5.9809875 0.36530498
-3.6220369 -5.9671698 0.36582834
-3.6699288 -5.9613023 0.36687505
-3.7126007 -5.9465971 0.36739841
-3.7605741 -5.9400277 0.36844513
-3.8032167 -5.924686 0.36896849
-3.8567092 -5.9257822 0.37053856
-3.8993657 -5.9097681 0.37106192
-3.9475248 -5.9017525 0.37210864
-3.9957368 -5.8933644 0.37315536
-4.0553088 -5.9010639 0.37524879
-4.0865989 -5.8672729 0.37472543
-4.042758 -5.7272615 0.36739841
-4.0554233 -5.6692586 0.36530498
-4.1261301 -5.6921787 0.36844513
-4.1618133 -5.6661415 0.36844513
-4.2271433 -5.6799359 0.37106192
-4.2205687 -5.5975189 0.36739841
-4.2248631 -5.531579 0.36478162
-4.2224813 -5.4578352 0.36164144
-4.2012486 -5.3604579 0.35693121
-4.1851707 -5.2713866 0.35274434
-4.1681414 -5.1827316 0.34855747
-4.1501651 -5.094501 0.34437057
-4.1439581 -5.0221086 0.34123042
-4.1306028 -4.9423347 0.33756691
-4.1164088 -4.8629298 0.3339034
-4.0948834 -4.7763181 0.32971653
-4.0920763 -4.7127929 0.32709971
-4.0820394 -4.6419935 0.32395956
-4.0712762 -4.5715084 0.32081941
-4.0530267 -4.4939942 0.3171559
-3.8976872 -3.5806558 0.27738056
-3.8683329 -3.5091281 0.27371705
-3.890305 -3.4847534 0.27371705
-3.8821461 -3.4338408 0.27162361
-3.8883052 -3.3965821 0.27057689
-3.8639615 -3.3332236 0.26743674
-3.8772259 -3.3024046 0.26691338
-3.8596842 -3.2458413 0.26429656
-2.1263247 -1.105878 0.1256063
-2.1687064 -1.1108581 0.12769973
-2.7602491 -1.0004742 0.15386771
-2.7946239 -0.99338657 0.15543778
-2.8290315 -0.985865 0.15700787
-2.8540711 -0.97452408 0.15805459
-2.9169617 -0.975577 0.16119474
-6.175561 -0.44402313 0.32448292
-6.3077726 -0.41371045 0.33128661
-6.7113657 -0.35554591 0.35222098
-6.8930197 -0.32186371 0.36164144
-7.1144004 -0.28803536 0.37315536
-7.4154654 -0.25409433 0.38885614
-7.7163873 -0.21587694 0.40455693
-7.9572062 -0.17258438 0.41711757
-7.9381633 -0.12227912 0.41607085
-7.9487605 -0.072488956 0.41659421
-8.2586327 -0.023424411 0.43281835
-9.6754799 0.1549516 0.50713539
-9.6643314 0.21551587 0.50661206
-10.860652 0.31048089 0.56941521
-11.427361 0.39855158 0.59924668
-12.063212 0.49663675 0.63274169
-12.97756 0.61597753 0.6808908
-13.172871 0.70823145 0.69135797
-15.769895 0.94726133 0.82795483
-15.853311 1.0522841 0.83266503
-15.836427 1.1511439 0.8321417
-15.799015 1.2482685 0.83057159
-15.78091 1.3466581 0.83004826
-2.9411526 1.1843481 -0.61631304
-2.8610694 1.172827 -0.60104835
-2.7992883 1.1680995 -0.58959979
-2.8280351 1.2010125 -0.59723216
-2.8204329 1.2187586 -0.59723216
-2.8217061 1.2404053 -0.59914023
-2.8138571 1.2581093 -0.59914023
-2.805897 1.2757636 -0.59914023
-2.7978256 1.2933691 -0.59914023
-2.7985284 1.3150969 -0.60104835
-2.7990677 1.3368859 -0.60295641
-2.799444 1.358732 -0.60486448
-2.7908511 1.3762952 -0.60486448
-2.7821491 1.3938026 -0.60486448
-2.7733362 1.4112566 -0.60486448
-2.7818558 1.4376668 -0.60868067
-2.7727675 1.4551181 -0.60868067
-2.7722013 1.4771868 -0.61058879
-2.7627342 1.494818 -0.61058879
-2.7617927 1.5170528 -0.61249685
-2.7522058 1.5343764 -0.61249685
-2.7596326 1.5612451 -0.61631304
-2.7499061 1.5783141 -0.61631304
-2.748523 1.60032 -0.61822116
-2.7384133 1.6175585 -0.61822116
-2.7366166 1.6397772 -0.62012923
-2.7346478 1.6620384 -0.62203729
-2.7325077 1.684338 -0.62394542
-2.7218702 1.7014742 -0.62394542
-2.7194173 1.7237973 -0.62585348
-2.7250476 1.7514654 -0.62966967
-2.7139897 1.7685521 -0.62966967
-2.7110138 1.7909812 -0.63157779
-2.707864 1.8134409 -0.63348585
-2.9288874 2.0976515 -0.70026898
-2.9314928 2.1276073 -0.70408517
-2.8412325 2.1177876 -0.68882048
-2.7887022 2.1060195 -0.67927998
-2.7442768 2.0995796 -0.67164767
-2.6691418 2.0684397 -0.65638292
-2.6871152 2.1092405 -0.66401529
-2.6661255 2.1199737 -0.66210723
-2.6603982 2.1428404 -0.66401529
-2.7381532 2.2339804 -0.68691236
-2.7164965 2.2448866 -0.68500429
-2.7249193 2.280813 -0.69072855
-2.703048 2.2915406 -0.68882048
-2.7109387 2.3276639 -0.69454473
-2.7110753 2.3575332 -0.69836092
-2.8229208 2.6149678 -0.74797124
-2.8493912 2.6729481 -0.7594198
-2.8396566 2.6975601 -0.76132786
-2.8368008 2.7289588 -0.76514405
-2.8336604 2.7604291 -0.76896024
-2.8232491 2.7850721 -0.7708683
-2.8195832 2.8166318 -0.77468449
-2.8156331 2.8482533 -0.77850068
-2.8113949 2.8799374 -0.78231686
-2.8068707 2.9116786 -0.78613305
-2.8020566 2.9434774 -0.78994924
-2.7969546 2.9753289 -0.79376543
-2.7982392 3.0144277 -0.79948968
-2.7858777 3.0391853 -0.80139774
-2.7864885 3.0784633 -0.80712205
-2.7736335 3.1032286 -0.80903012
-2.7735662 3.1426749 -0.81475437
-2.7731137 3.1822405 -0.82047868
-2.7658687 3.2144842 -0.82429487
-2.7583289 3.2467604 -0.82811105
-2.7504907 3.2790697 -0.83192718
-2.7486176 3.3189669 -0.83765149
-2.7401359 3.351371 -0.84146768
-2.7375221 3.3914361 -0.84719193
-2.7283933 3.423924 -0.85100812
-2.7189655 3.456429 -0.8548243
-2.7152553 3.4967048 -0.86054856
-2.7051756 3.5292773 -0.86436474
-2.7007141 3.5696902 -0.87008899
-2.6958528 3.610184 -0.87581325
-2.6905866 3.6507583 -0.88153756
-2.6849182 3.6914062 -0.88726181
-2.6788428 3.7321277 -0.89298606
-2.6723628 3.7729163 -0.89871037
-2.6654732 3.8137712 -0.90443462
-2.6581771 3.854686 -0.91015887
-2.6504695 3.8956604 -0.91588318
-2.5333781 4.1002884 -0.93687212
-2.4922433 4.0909762 -0.93114787
-2.451328 4.0813088 -0.92542362
-2.4256351 4.0966311 -0.92542362
-2.3898628 4.0948863 -0.92160743
-2.3441534 4.0759897 -0.91397506
-2.3085508 4.073709 -0.91015887
-2.2685504 4.0624228 -0.90443462
-2.2288742 4.0507455 -0.89871037
-2.1896963 4.0385895 -0.89298606
-2.1506693 4.0261507 -0.88726181
-2.1253288 4.0395846 -0.88726181
-2.0908747 4.0354266 -0.88344562
-2.0431719 4.0047646 -0.87390518
-2.0223761 4.0262942 -0.87581325
-1.9839847 4.0125241 -0.87008899
-1.9458488 3.9984305 -0.86436474
-1.9164467 4.0017247 -0.86245662
-1.8828108 3.9959679 -0.85864049
-1.8490604 3.9900689 -0.8548243
1.0041457 3.5414972 -0.71553373
1.0263777 3.5351181 -0.71553373
1.0513653 3.5380092 -0.7174418
1.0707191 3.5219414 -0.71553373
1.095741 3.5245183 -0.7174418
1.1208375 3.5269191 -0.71934992
1.1429756 3.5198071 -0.71934992
1.1681588 3.5218732 -0.72125798
1.1902642 3.5144641 -0.72125798
1.2123225 3.506916 -0.72125798
1.2310677 3.4899726 -0.71934992
1.2562948 3.4914052 -0.72125798
1.2816647 3.4926302 -0.72316611
1.3073286 3.4935882 -0.72507417
1.3329803 3.4943898 -0.72698224
1.3549097 3.4859455 -0.72698224
1.373172 3.4682367 -0.72507417
1.4022781 3.4777486 -0.72889036
1.424026 3.4689002 -0.72889036
1.4454916 3.4600105 -0.72889036
1.4669769 3.4509561 -0.72889036
1.4925277 3.4506803 -0.73079842
1.5221617 3.4591711 -0.73461461
1.5401564 3.4404447 -0.73270655
1.5660349 3.4395313 -0.73461461
1.5958625 3.4474401 -0.7384308
1.6216713 3.4462271 -0.74033886
1.6432924 3.4359698 -0.74033886
1.6776459 3.4520998 -0.74606317
1.7076931 3.4592435 -0.74987936
1.7423683 3.4748836 -0.75560361
1.781987 3.4988561 -0.76323599
1.8220518 3.5224266 -0.7708683
1.8581506 3.5368178 -0.77659261
1.8851105 3.5336518 -0.77850068
1.9022944 3.513272 -0.77659261
2.0053487 3.2956271 -0.74987936
