# .PCD v0.7 - Point Cloud Data file format
VERSION 0.7
FIELDS x y z
SIZE 4 4 4
TYPE F F F
COUNT 1 1 1
WIDTH 1472
HEIGHT 1
VIEWPOINT 0 0 0 1 0 0 0
POINTS 1472
DATA ascii
-5.2496104 0.22667846 0.83223134
-5.2974067 0.26209709 0.84005308
-5.3153782 0.29647785 0.84318173
-5.3232684 0.33047992 0.84474611
-5.3210869 0.36392173 0.84474611
-5.3285446 0.39808217 0.84631044
-5.3259592 0.43129483 0.84631044
-5.3330245 0.46514475 0.84787476
-5.3300157 0.49843797 0.84787476
-5.336607 0.53289741 0.84943914
-5.3233314 0.56537592 0.84787476
-5.3294892 0.5999155 0.84943914
-5.3158069 0.63222462 0.84787476
-5.3117294 0.66561073 0.84787476
-5.3172688 0.70000249 0.84943914
-5.2932611 0.73023564 0.84631044
-5.2690463 0.7604565 0.84318173
-5.146966 0.7758792 0.8244096
-5.4542165 0.85727948 0.87446862
-5.3317552 0.87239242 0.8556965
-5.0632682 0.8611626 0.81345922
-5.0577574 0.89295757 0.81345922
-5.0617623 0.92649829 0.81502354
-5.0558414 0.95828247 0.81502354
-5.059413 0.99192911 0.81658787
-5.053081 1.0236973 0.81658787
-5.0369329 1.053159 0.81502354
-5.0496211 1.0885105 0.81815225
-5.033083 1.117883 0.81658787
-5.0355883 1.1516852 0.81815225
-5.0282521 1.1833032 0.81815225
-5.0303183 1.2171948 0.81971657
-5.032156 1.2511615 0.82128096
-5.0241957 1.2827532 0.82128096
-5.0255909 1.3168005 0.82284528
-5.0076799 1.3457863 0.82128096
-4.9039035 1.3509923 0.80563748
-4.7622418 1.3442134 0.78373665
-3.124634 1.2303529 0.53187716
-3.1443431 1.2609911 0.53657019
-2.0523968 1.2250516 0.37857139
-2.0615566 1.2481543 0.3817001
-2.0284238 1.2455771 0.37700707
-1.9954661 1.2425367 0.37231401
-1.9543217 1.2337865 0.36605665
-1.9299411 1.2353181 0.36292794
-1.9055715 1.2366656 0.35979927
-1.8730105 1.2323275 0.35510623
-1.8487973 1.2331101 0.35197753
-1.824648 1.2336385 0.34884885
-1.8005666 1.2339116 0.34572017
-1.7684414 1.2282977 0.34102714
-1.7445362 1.2280139 0.33789843
-1.7207042 1.2274796 0.33476976
-1.6969492 1.2266937 0.33164105
-1.673272 1.2256593 0.32851237
-1.649676 1.2243752 0.32538369
-1.6182681 1.2169082 0.32069066
-1.602734 1.221066 0.31912631
-1.571633 1.2129309 0.31443328
-1.5563059 1.2165627 0.31286892
-1.5331912 1.2139957 0.30974025
-1.5101242 1.2112449 0.30661154
-1.4948184 1.2144809 0.30504721
-1.4795321 1.2175726 0.30348286
-1.4642655 1.2205211 0.30191851
-1.4414742 1.2169539 0.29878983
-1.4187856 1.2131497 0.29566112
-1.4036691 1.2155739 0.2940968
-1.3885779 1.2178572 0.29253244
-1.3587453 1.2068801 0.28783941
-1.3438513 1.2087226 0.28627506
-1.3217314 1.2037251 0.28314638
-1.3069276 1.20526 0.28158203
-1.2921108 1.2067062 0.28001767
-1.2773271 1.2080146 0.27845335
-1.2625788 1.2091845 0.276889
-1.2479259 1.210156 0.27532464
-1.2263082 1.2040255 0.27219597
-1.2117016 1.2047563 0.27063161
-1.1970429 1.2054423 0.26906729
-1.182543 1.2058748 0.26750293
-1.1681771 1.2060841 0.26593858
-1.153795 1.2062186 0.26437426
-1.1394114 1.2062638 0.2628099
-1.1318096 1.2133994 0.2628099
-1.1174721 1.2132217 0.26124555
-1.0965356 1.2056059 0.25811687
-1.0823395 1.2051232 0.25655252
-1.0682522 1.2044576 0.25498816
-1.0607688 1.2110535 0.25498816
-1.0402625 1.2027138 0.25185949
-1.0262712 1.2017154 0.25029513
-1.0187001 1.20814 0.25029513
-1.00477 1.2069259 0.24873079
1.0015283 1.0917324 0.2346517
1.008368 1.0854182 0.2346517
1.015115 1.0791109 0.2346517
1.0354053 1.0871046 0.23778038
1.042174 1.0806173 0.23778038
1.0558441 1.0811139 0.23934473
1.0695612 1.0814812 0.24090907
1.0973028 1.0956762 0.2456021
1.1041654 1.08876 0.2456021
1.1180607 1.0886914 0.24716645
1.1319985 1.0884908 0.24873079
1.1459777 1.0881578 0.25029513
1.1599971 1.0876918 0.25185949
1.1668084 1.0803819 0.25185949
1.1808628 1.0796942 0.25342384
1.2022854 1.0854909 0.25655252
1.2090291 1.0779747 0.25655252
1.2230976 1.0769902 0.25811687
1.2372528 1.0758119 0.2596812
1.2514818 1.0744507 0.26124555
1.2657422 1.0729529 0.2628099
1.2800329 1.071318 0.26437426
1.3019665 1.075837 0.26750293
1.3163537 1.0738789 0.26906729
1.3307673 1.0717821 0.27063161
1.3452063 1.0695465 0.27219597
1.3596693 1.0671713 0.27376032
1.3741554 1.0646564 0.27532464
1.3964564 1.0680699 0.27845335
1.4030472 1.0593971 0.27845335
1.4254743 1.0624192 0.28158203
1.448034 1.0651467 0.28471074
1.4626907 1.0618297 0.28627506
1.4773626 1.0583705 0.28783941
1.5001136 1.06047 0.29096809
1.506747 1.0510237 0.29096809
1.5377295 1.0583348 0.29566112
1.5443488 1.0486522 0.29566112
1.5672673 1.0499989 0.29878983
1.5819824 1.0457146 0.30035415
1.5967554 1.0412097 0.30191851
1.6198801 1.041842 0.30504721
1.6514156 1.0475149 0.30974025
1.6663382 1.0423561 0.31130457
1.6896672 1.0422362 0.31443328
1.7130598 1.041864 0.31756195
1.728043 1.0361592 0.31912631
1.7515243 1.035333 0.32225499
1.7835968 1.0392245 0.32694802
1.8072212 1.0378348 0.33007672
1.8308471 1.0362785 0.3332054
1.8544836 1.0345385 0.33633408
1.8782189 1.0324529 0.33946279
1.9020391 1.0300381 0.34259146
1.9259024 1.0273644 0.34572017
1.95855 1.0290251 0.3504132
1.973749 1.0212377 0.35197753
2.0065284 1.0222671 0.35667059
2.0305688 1.018496 0.35979927
2.0634968 1.0188357 0.3644923
2.087575 1.0145866 0.36762097
2.1205506 1.0144198 0.37231401
2.1536531 1.0137769 0.37700707
2.1779056 1.0085257 0.38013574
2.2111647 1.0071034 0.38482878
2.2444909 1.0053025 0.38952181
2.2778313 1.0032341 0.39421484
2.3111942 1.0008765 0.39890787
2.3537509 1.0018971 0.40516526
2.3873353 0.9985218 0.40985829
2.4210181 0.99464464 0.41455132
2.463944 0.99398208 0.4208087
2.4976778 0.98942077 0.42550173
2.5405803 0.98824877 0.43175912
2.574384 0.98293293 0.43645215
2.6175056 0.98059833 0.44270954
2.6606979 0.97776008 0.44896692
2.7132485 0.97776616 0.45678863
2.756542 0.97399443 0.46304601
11.611527 3.1455357 1.9053718
11.669259 3.082607 1.9116291
11.736222 3.021539 1.9194509
11.745395 2.9453366 1.9178865
11.792455 2.8785067 1.9225795
11.666162 2.7701287 1.8991144
8.1106291 0.67358488 1.2890199
8.5676746 0.65778965 1.3609798
9.0543528 0.6387496 1.4376327
9.5214233 0.6119681 1.5111569
10.087119 0.58471197 1.6003245
10.702145 0.55291677 1.6973139
11.376346 0.51610196 1.8036894
11.061838 0.59231162 -0.96917182
10.91699 -1.8203893 -0.96830028
10.404791 -1.8018943 -0.92385083
9.8932104 -1.7773951 -0.87940145
9.4509249 -1.7593036 -0.84105289
9.03862 -1.7413814 -0.80531907
8.6562395 -1.7241887 -0.77219987
8.3134766 -1.7102921 -0.74256694
7.9518456 -1.6875886 -0.71119082
7.9412374 -1.7368243 -0.71119082
7.0842609 -1.6426948 -0.63623691
6.8703966 -1.6382647 -0.61793423
6.7343292 -1.6499821 -0.60660398
6.743206 -1.6969043 -0.60834706
6.520215 -1.6844211 -0.58917284
6.43256 -1.7045865 -0.58220035
5.1352792 -1.5685424 -0.46976945
5.0112152 -1.5651382 -0.45931077
4.8968911 -1.5632682 -0.44972363
4.7827926 -1.5600238 -0.44013649
3.1992557 -1.5071605 -0.30940288
3.1448791 -1.5055506 -0.3050451
3.036586 -1.5004444 -0.29632953
2.9914858 -1.5016177 -0.29284328
2.9376986 -1.4975992 -0.2884855
2.8841281 -1.4928751 -0.28412771
2.839468 -1.4923346 -0.2806415
2.7948797 -1.4913863 -0.27715525
2.7504978 -1.4897877 -0.27366903
2.6975646 -1.482807 -0.26931125
2.6621444 -1.4850793 -0.26669657
2.6180842 -1.4821455 -0.26321033
2.5741675 -1.4787176 -0.25972411
2.5390053 -1.4798133 -0.25710943
2.4953568 -1.4754559 -0.25362322
2.460408 -1.4757329 -0.25100854
2.4256353 -1.4754978 -0.24839386
2.3825316 -1.4695793 -0.24490763
2.3479619 -1.4685943 -0.24229296
2.3050382 -1.4619749 -0.23880672
2.2706702 -1.4602636 -0.23619206
2.2364159 -1.4581789 -0.23357739
2.2356007 -1.4775734 -0.23444894
2.2346797 -1.4969406 -0.23532051
2.2335212 -1.5164748 -0.23619206
2.2485683 -1.5474211 -0.23880672
2.222544 -1.5499996 -0.23706362
2.1884909 -1.5464932 -0.23444894
2.7825186 -2.3561482 -0.31899002
2.7904232 -2.3929498 -0.3216047
2.7978966 -2.4300323 -0.32421935
2.8126283 -2.4737282 -0.32770559
2.7972476 -2.4911072 -0.32770559
2.7890205 -2.5152142 -0.32857713
2.7878737 -2.5461242 -0.33032027
2.7792747 -2.5702031 -0.33119181
2.7851124 -2.6078002 -0.33380648
2.7759867 -2.6320124 -0.33467805
2.7737663 -2.6632013 -0.33642116
2.7712631 -2.6944656 -0.33816427
2.768476 -2.7258031 -0.33990738
1.4923674 -1.5639598 -0.18912795
1.4758162 -1.5659266 -0.1882564
1.4659994 -1.5751208 -0.1882564
1.4493326 -1.576966 -0.18738484
1.4327869 -1.5785862 -0.18651329
1.40968 -1.5725973 -0.18477017
1.3932202 -1.5739183 -0.18389861
1.3767475 -1.5751404 -0.18302706
1.3538061 -1.5686762 -0.18128394
1.3374621 -1.569569 -0.18041238
1.3212461 -1.5702465 -0.17954083
1.3051254 -1.5707403 -0.17866927
1.2826447 -1.5634639 -0.17692615
1.2727959 -1.5714922 -0.17692615
1.2567616 -1.5716091 -0.1760546
1.2408267 -1.5715469 -0.17518304
1.2248554 -1.5714148 -0.17431149
1.208883 -1.5711844 -0.17343992
1.1930479 -1.5707505 -0.17256837
1.1773167 -1.5701419 -0.17169681
1.1674793 -1.5774702 -0.17169681
1.1516689 -1.57673 -0.17082526
1.1359141 -1.5758537 -0.16995369
1.1144418 -1.5667242 -0.16821058
1.1045762 -1.5736952 -0.16821058
1.0889947 -1.5724148 -0.16733903
1.073559 -1.5709423 -0.16646747
1.0638052 -1.5775636 -0.16646747
1.0428877 -1.5675941 -0.16472435
1.0330178 -1.5741158 -0.16472435
1.0177795 -1.5721569 -0.1638528
1.0080192 -1.5784327 -0.1638528
-1.0006709 -1.4031476 -0.15077943
-1.0093912 -1.3968877 -0.15077943
-1.0297958 -1.4066832 -0.15252255
-1.0385679 -1.4002191 -0.15252255
-1.0533301 -1.4016298 -0.1533941
-1.0621159 -1.3949839 -0.1533941
-1.0769442 -1.3961709 -0.15426566
-1.091753 -1.3972859 -0.15513723
-1.1065713 -1.3983066 -0.15600878
-1.1215206 -1.3991355 -0.15688033
-1.1302896 -1.3920611 -0.15688033
-1.1453413 -1.3926262 -0.15775189
-1.1604447 -1.3930565 -0.15862344
-1.1755227 -1.3934159 -0.15949501
-1.1841334 -1.3861059 -0.15949501
-1.1992922 -1.3862109 -0.16036656
-1.2211086 -1.3936335 -0.16210967
-1.2298409 -1.3859336 -0.16210967
-1.2451833 -1.3855885 -0.16298124
-1.2604942 -1.3851739 -0.1638528
-1.2690523 -1.3773376 -0.1638528
-1.2912283 -1.3839464 -0.1655959
-1.3067399 -1.3830472 -0.16646747
-1.3222154 -1.3820796 -0.16733903
-1.3307532 -1.3738608 -0.16733903
-1.3462903 -1.372628 -0.16821058
-1.3689284 -1.3782781 -0.16995369
-1.3775613 -1.3696498 -0.16995369
-1.798306 -1.6794798 -0.21527468
-1.8234142 -1.6817147 -0.2170178
-1.8707708 -1.7037632 -0.22137558
-1.8740317 -1.6853139 -0.22050403
-1.8994817 -1.6867352 -0.22224714
-1.9174408 -1.6814395 -0.22311869
-1.9428829 -1.6825703 -0.22486182
-1.9609333 -1.6768676 -0.22573337
-1.9790424 -1.6709403 -0.22660492
-2.0047147 -1.6713396 -0.22834805
-2.0381043 -1.6778816 -0.23096271
-2.0562823 -1.6713933 -0.23183428
-2.0822828 -1.6709099 -0.23357739
-2.1083577 -1.6701652 -0.23532051
-2.134505 -1.6691583 -0.23706362
-2.160722 -1.6678883 -0.23880672
-2.187007 -1.6663543 -0.24054985
-2.2133572 -1.6645553 -0.24229296
-2.2397704 -1.6624905 -0.24403608
-2.2741899 -1.6661702 -0.24665074
-2.3006144 -1.6637231 -0.24839386
-2.3271856 -1.660885 -0.25013697
-2.3538649 -1.6577021 -0.25188008
-2.3805053 -1.654379 -0.25362322
-2.4153562 -1.6565012 -0.25623786
-2.4421644 -1.6525371 -0.257981
-2.4690702 -1.6482219 -0.25972411
-2.5043378 -1.6491121 -0.26233879
-2.5397129 -1.6496236 -0.26495346
-2.5668042 -1.6443812 -0.26669657
-2.602351 -1.6441841 -0.26931125
-2.6379058 -1.6437485 -0.27192593
-2.6735015 -1.6430209 -0.27454057
-2.7092779 -1.6417667 -0.27715525
-2.7451961 -1.640039 -0.27976993
-2.7726142 -1.6328686 -0.28151304
-2.8086658 -1.6304196 -0.28412771
-2.844795 -1.6275812 -0.28674239
-2.8809981 -1.6243527 -0.28935707
-2.9171836 -1.6208922 -0.29197174
-2.9621217 -1.6219245 -0.29545796
-3.0072718 -1.6222974 -0.29894421
-3.0437968 -1.6173939 -0.30155885
-3.0892043 -1.616714 -0.3050451
-3.134722 -1.6155267 -0.30853131
-3.1713738 -1.6094956 -0.31114599
-3.2169297 -1.6076287 -0.31463224
-3.262671 -1.6050792 -0.31811845
-3.3085566 -1.6019126 -0.3216047
-3.3635232 -1.6025168 -0.32596248
-4.54917 -1.5365474 -0.42009068
-4.6343484 -1.5331125 -0.42706314
-4.7102308 -1.5254492 -0.43316403
-4.7197223 -1.4958239 -0.43316403
-4.7099977 -1.4602396 -0.43142092
-4.7000122 -1.424837 -0.42967781
-4.6993208 -1.3924477 -0.42880625
-4.6887646 -1.3576095 -0.42706314
-4.6875 -1.3258214 -0.42619157
-4.6956954 -1.2964967 -0.42619157
-4.6941299 -1.2643765 -0.42532003
-4.6923461 -1.2323271 -0.42444846
-4.8839393 -1.1206467 -0.43839338
-4.9978051 -1.1139374 -0.44798052
-5.1312833 -1.1098934 -0.45931077
-5.1479058 -1.0796744 -0.46018231
-5.1545877 -1.0473094 -0.46018231
-5.1610665 -1.0149003 -0.46018231
-5.147768 -0.97873241 -0.4584392
-5.1341681 -0.9430508 -0.45669609
-5.1301041 -0.90948206 -0.45582452
-5.1258688 -0.87572145 -0.45495296
-5.1214395 -0.84188306 -0.45408142
-5.1265845 -0.80996478 -0.45408142
-5.1315045 -0.77818453 -0.45408142
-5.12641 -0.74466336 -0.45320985
-5.12112 -0.71106994 -0.45233831
-5.1254869 -0.67887771 -0.45233831
-5.1197672 -0.64541548 -0.45146674
-5.1237216 -0.61323309 -0.45146674
-5.1175747 -0.57990754 -0.45059517
-5.1210876 -0.5480212 -0.45059517
-5.1144729 -0.51528144 -0.44972363
-5.1175938 -0.48330387 -0.44972363
-5.1106057 -0.45026675 -0.44885206
-5.1133342 -0.41814578 -0.44885206
-5.1158605 -0.38601103 -0.44885206
-5.118185 -0.35385829 -0.44885206
-5.1103649 -0.32106969 -0.44798052
-5.1122656 -0.28923324 -0.44798052
-5.1040101 -0.25705066 -0.44710895
-5.1055169 -0.22514354 -0.44710895
-5.1068306 -0.19306171 -0.44710895
-5.1079431 -0.16096953 -0.44710895
-5.1088538 -0.12887372 -0.44710895
-5.0996022 -0.096581459 -0.44623739
-5.1001086 -0.064539321 -0.44623739
-5.1103735 -0.032835737 -0.44710895
-5.1005168 -0.0011685909 -0.44623739
-5.1004243 0.030711694 -0.44623739
-5.1001306 0.062756486 -0.44623739
-5.0896754 0.094616354 -0.44536585
-5.0989394 0.12684008 -0.44623739
-5.0980506 0.15859668 -0.44623739
-5.0969701 0.19018151 -0.44623739
-5.0956817 0.22203588 -0.44623739
-5.0941863 0.2540471 -0.44623739
-5.0924892 0.28605101 -0.44623739
-5.0806489 0.31741974 -0.44536585
-5.0884929 0.35002095 -0.44623739
-5.0762591 0.3812384 -0.44536585
-5.083715 0.41365942 -0.44623739
-5.0810542 0.44515055 -0.44623739
-5.0781732 0.47689778 -0.44623739
-5.0750766 0.50879395 -0.44623739
-5.0717793 0.54067272 -0.44623739
-5.0682821 0.57252747 -0.44623739
-5.0645847 0.60436237 -0.44623739
-5.0606875 0.63617063 -0.44623739
-5.066503 0.66898584 -0.44710895
-5.0622606 0.70036542 -0.44710895
-5.0676432 0.73341978 -0.44798052
-5.0629354 0.76524472 -0.44798052
-5.0580268 0.79704219 -0.44798052
-5.0627499 0.83041793 -0.44885206
-5.0574322 0.8622129 -0.44885206
-5.0617247 0.89570707 -0.44972363
-5.0461984 0.92569685 -0.44885206
-5.0500698 0.95924228 -0.44972363
-5.0439429 0.99095237 -0.44972363
-5.0473804 1.0246052 -0.45059517
-5.0409002 1.0560259 -0.45059517
-5.0439973 1.0893424 -0.45146674
-5.0468144 1.1230118 -0.45233831
-5.039659 1.1546983 -0.45233831
-5.0420003 1.1886276 -0.45320985
-5.0344324 1.2202824 -0.45320985
-5.0363321 1.2542993 -0.45408142
-5.0283523 1.2859173 -0.45408142
-5.0394444 1.3225447 -0.45582452
-5.0310354 1.3541808 -0.45582452
-4.8879838 1.3486712 -0.44362271
-2.1021922 1.2203132 -0.21266001
-2.0944829 1.233498 -0.21266001
-2.0781395 1.2415239 -0.21178845
-2.0532579 1.2442317 -0.21004534
-2.0199387 1.2414589 -0.20743066
-1.9868029 1.2382102 -0.204816
-1.9622494 1.2398543 -0.20307288
-1.9292967 1.2359735 -0.2004582
-1.9047846 1.2372179 -0.19871509
-1.8803335 1.2382034 -0.19697197
-1.8476605 1.2334001 -0.19435731
-1.823373 1.2338196 -0.19261418
-1.7991544 1.2339821 -0.19087107
-1.7750057 1.2338903 -0.18912795
-1.7509305 1.2335433 -0.18738484
-1.7269299 1.2329438 -0.18564174
-1.7030071 1.232091 -0.18389861
-1.6791631 1.2309875 -0.1821555
-1.6554016 1.2296327 -0.18041238
-1.6317234 1.2280294 -0.17866927
-1.6160538 1.2322167 -0.1777977
-1.5925788 1.2300804 -0.1760546
-1.5692341 1.227648 -0.17431149
-1.5459149 1.2250581 -0.17256837
-1.5226502 1.2222745 -0.17082526
-1.5072114 1.2255322 -0.16995369
-1.4841026 1.2223113 -0.16821058
-1.4687433 1.2252309 -0.16733903
-1.4534068 1.2280054 -0.16646747
-1.4305242 1.2241595 -0.16472435
-1.4077486 1.2200742 -0.16298124
-1.3925676 1.2223239 -0.16210967
-1.3699695 1.2178121 -0.16036656
-1.3549529 1.2196573 -0.15949501
-1.3400072 1.2213187 -0.15862344
-1.3250266 1.222914 -0.15775189
-1.3027611 1.2176102 -0.15600878
-1.2878495 1.2189242 -0.15513723
-1.2729738 1.2200983 -0.15426566
-1.2582008 1.2210655 -0.1533941
-1.243505 1.221856 -0.15252255
-1.2287153 1.2226449 -0.151651
-1.2068684 1.2163043 -0.14990787
-1.1922566 1.216722 -0.14903632
-1.1777667 1.2169275 -0.14816476
-1.1632543 1.2170638 -0.14729321
-1.1487468 1.2171037 -0.14642164
-1.1342845 1.2170103 -0.14555009
-1.1198696 1.2167828 -0.14467853
-1.1055019 1.216423 -0.14380698
-1.0978374 1.2233448 -0.14380698
-1.0835892 1.2227036 -0.14293541
-1.0694315 1.2218977 -0.14206386
-1.0552593 1.2210211 -0.1411923
-1.0411005 1.2200491 -0.14032075
-1.0269952 1.2189482 -0.13944918
-1.0129457 1.2177181 -0.13857763
1.0036501 1.107066 -0.13073361
1.0240606 1.1154146 -0.13247673
1.0310488 1.1089582 -0.13247673
1.0447645 1.1097682 -0.13334829
1.0584937 1.1104846 -0.13421984
1.0723324 1.1110146 -0.13509139
1.0862551 1.1113793 -0.13596296
1.0932167 1.1045322 -0.13596296
1.1071872 1.1046778 -0.13683452
1.1212022 1.1046911 -0.13770607
1.1352611 1.1045716 -0.13857763
1.1565459 1.1112208 -0.14032075
1.163505 1.1039321 -0.14032075
1.1776879 1.1034111 -0.1411923
1.1919099 1.1027551 -0.14206386
1.2061698 1.1019636 -0.14293541
1.2130698 1.0943633 -0.14293541
1.2273009 1.0934131 -0.14380698
1.241531 1.0923685 -0.14467853
1.2633747 1.0976543 -0.14642164
1.2702465 1.0896947 -0.14642164
1.2846698 1.0881307 -0.14729321
1.2991232 1.0864282 -0.14816476
1.3212875 1.0909294 -0.14990787
1.3358375 1.0889002 -0.15077943
1.3504138 1.0867311 -0.151651
1.3572153 1.0782248 -0.151651
1.3796408 1.0819712 -0.1533941
1.3942891 1.0793794 -0.15426566
1.4168154 1.082772 -0.15600878
1.423497 1.0739728 -0.15600878
1.4461616 1.0769545 -0.15775189
1.4609268 1.0737464 -0.15862344
1.4837724 1.0762444 -0.16036656
1.498606 1.0726987 -0.16123812
1.52159 1.0747563 -0.16298124
1.5364856 1.0708709 -0.1638528
1.5596006 1.0724851 -0.1655959
1.5663084 1.0626646 -0.1655959
1.5894537 1.0639713 -0.16733903
1.6126405 1.065083 -0.16908213
1.6359597 1.0658586 -0.17082526
1.6510051 1.0609441 -0.17169681
1.6744674 1.061215 -0.17343992
1.6979977 1.0612327 -0.17518304
1.7131127 1.0557697 -0.1760546
1.7367393 1.0553315 -0.1777977
1.7604274 1.0546377 -0.17954083
1.7841746 1.0536875 -0.18128394
1.8079786 1.0524801 -0.18302706
1.8318373 1.0510147 -0.18477017
1.8556911 1.0493919 -0.18651329
1.8882624 1.0524237 -0.18912795
1.9122672 1.0501916 -0.19087107
1.9363515 1.0476366 -0.19261418
1.9604785 1.0448202 -0.19435731
1.9846458 1.0417415 -0.19610041
2.0088513 1.0383999 -0.19784354
2.0419705 1.0393138 -0.2004582
2.066273 1.0353891 -0.20220132
2.0995405 1.0356064 -0.204816
2.123873 1.0312115 -0.20655911
2.1571863 1.0309191 -0.20917378
2.1906326 1.0301334 -0.21178845
2.2151446 1.0247139 -0.21353157
2.2487419 1.0231525 -0.21614625
2.2824059 1.0212088 -0.21876091
2.3160777 1.019008 -0.22137558
2.349776 1.0165043 -0.22399026
2.3927543 1.0173897 -0.22747648
2.4266753 1.0138565 -0.23009115
2.4607005 1.0098027 -0.23270583
2.5040433 1.0089996 -0.23619206
2.5473647 1.0079621 -0.23967829
2.581418 1.0029833 -0.24229296
2.6248686 1.0010278 -0.24577919
2.6684272 0.99848038 -0.24926542
2.7214077 0.99885702 -0.25362322
2.7557497 0.99185967 -0.25623786
8.0971737 0.82319504 -0.71206242
8.1021862 0.77230299 -0.71206242
8.1068783 0.72138047 -0.71206242
8.4686623 0.69997102 -0.74343848
8.9695082 0.68514597 -0.78701633
9.4605198 0.66372162 -0.82972264
9.9913931 0.63823479 -0.87591523
10.60188 0.61037362 -0.92908019
11.311876 0.57996422 -0.99096078
9.8041801 -1.8290462 1.9386194
9.3491335 -1.8050127 1.8508472
8.9332991 -1.783022 1.7707075
8.5661964 -1.7657893 1.7001082
8.1709766 -1.7374007 1.6237845
7.8244481 -1.7144563 1.5570014
7.5646076 -1.7071855 1.5073911
7.3051281 -1.6969324 1.4577807
7.0366387 -1.6807855 1.4062623
6.7019558 -1.6448015 1.3413873
6.4821267 -1.6339115 1.2994093
6.2911706 -1.6278857 1.2631556
6.0721865 -1.6116066 1.2211776
5.9484205 -1.6182753 1.1982805
5.9098134 -1.6475478 1.1925561
5.8993449 -1.6846477 1.1925561
5.8699031 -1.7158197 1.18874
5.2854695 -1.5805962 1.0723466
5.2191563 -1.5964031 1.0608979
5.0684915 -1.5852121 1.0322766
4.9649301 -1.5871373 1.0131958
4.8802104 -1.5939202 0.997931
4.7677641 -1.5900972 0.97694206
3.1155355 -1.5167933 0.67355573
3.0707903 -1.5188459 0.66592336
3.0173299 -1.5160743 0.65638292
2.964118 -1.512514 0.64684248
2.9111104 -1.5082711 0.63730204
2.8755555 -1.5127425 0.63157779
2.822701 -1.5076566 0.62203729
2.7787454 -1.5064797 0.61440498
2.734956 -1.5047398 0.6067726
2.6912062 -1.5026774 0.59914023
2.6475496 -1.5001997 0.59150785
2.6040318 -1.4972334 0.58387554
2.560657 -1.4937801 0.57624316
2.5174298 -1.4898418 0.56861079
2.4827707 -1.4904724 0.56288654
2.439909 -1.4854752 0.55525416
2.4056001 -1.4850944 0.54952991
2.3713014 -1.4844884 0.5438056
2.3370647 -1.4835756 0.53808135
2.3029346 -1.4822915 0.5323571
2.2606928 -1.4752734 0.52472472
2.2269068 -1.4730666 0.51900047
2.2258906 -1.4923021 0.52090853
2.2165112 -1.5061978 0.52090853
2.2150881 -1.5256628 0.52281666
2.2136002 -1.5450366 0.52472472
2.203985 -1.558722 0.52472472
2.170254 -1.555325 0.51900047
2.7635906 -2.3718226 0.70790136
2.7708597 -2.4084589 0.71362561
2.7779231 -2.4451132 0.71934992
2.7773762 -2.4753408 0.72316611
2.7764111 -2.505821 0.72698224
2.7751038 -2.5364606 0.73079842
2.7664695 -2.5603492 0.73270655
2.7577152 -2.5841534 0.73461461
2.7557371 -2.6148677 0.7384308
2.7534094 -2.6457336 0.74224699
2.7578373 -2.6835186 0.74797124
2.7549062 -2.7145731 0.75178742
2.7518578 -2.7455313 0.75560361
1.4805564 -1.5721762 0.41977978
1.4706923 -1.5814073 0.41977978
1.4540874 -1.5833867 0.41787168
1.4376109 -1.5851339 0.41596359
1.4146633 -1.5793866 0.41214743
1.3982519 -1.5808526 0.41023934
1.3818344 -1.5822134 0.40833125
1.3654553 -1.5834305 0.40642315
1.3427519 -1.5770304 0.40260696
1.3265945 -1.5778426 0.40069887
1.3105222 -1.5784795 0.39879081
1.2943989 -1.5790552 0.39688271
1.2721014 -1.5718958 0.39306653
1.2622945 -1.579782 0.39306653
1.2524823 -1.5875726 0.39306653
1.230463 -1.5798876 0.38925034
1.2145292 -1.5798054 0.38734224
1.1928054 -1.5716943 0.38352609
1.1771584 -1.5711988 0.38161799
1.1614698 -1.5706394 0.3797099
1.1515783 -1.5779061 0.3797099
1.1301676 -1.5691798 0.37589371
1.1145991 -1.5682485 0.37398562
1.1047236 -1.5752208 0.37398562
1.0836334 -1.5659864 0.37016943
1.0849377 -1.5889131 0.37398562
1.0586166 -1.5711825 0.36826137
1.0433331 -1.5695992 0.36635327
1.0226853 -1.5597056 0.36253709
1.0182905 -1.5742822 0.36444518
1.0032364 -1.5722861 0.36253709
-1.0124208 -1.3999381 0.33582383
-1.021075 -1.3936384 0.33582383
-1.0356243 -1.3951056 0.33773193
-1.0502698 -1.3964161 0.33963999
-1.0649726 -1.3975973 0.34154809
-1.073733 -1.3908783 0.34154809
-1.0944614 -1.3996348 0.34536427
-1.1031126 -1.3928267 0.34536427
-1.1179467 -1.3935555 0.34727237
-1.1266806 -1.3865038 0.34727237
-1.1416082 -1.3869764 0.34918046
-1.1565858 -1.3873162 0.35108855
-1.1715295 -1.3875921 0.35299665
-1.1801047 -1.3803066 0.35299665
-1.1951419 -1.3803183 0.35490471
-1.210263 -1.3801622 0.3568128
-1.2254292 -1.3798705 0.3587209
-1.2406392 -1.3794423 0.36062899
-1.2558092 -1.3789525 0.36253709
-1.2709832 -1.3783618 0.36444518
-1.2862804 -1.3775587 0.36635327
-1.2949104 -1.3694496 0.36635327
-1.3101963 -1.3684551 0.36826137
-1.3254826 -1.3673589 0.37016943
-1.3408868 -1.3660457 0.37207752
-1.3563637 -1.3645557 0.37398562
-1.3718745 -1.3629249 0.37589371
-1.7941799 -1.6743262 0.47702247
-1.8407114 -1.6963309 0.48656294
-1.8585935 -1.6913387 0.48847103
-1.8764852 -1.6861886 0.4903791
-1.8943853 -1.6808801 0.49228719
-1.9195751 -1.6819967 0.49610338
-1.9373829 -1.676494 0.49801147
-1.9627587 -1.6770949 0.50182766
-1.9807602 -1.6710594 0.50373572
-2.0137477 -1.6775491 0.50946003
-2.0316837 -1.6712762 0.5113681
-2.0573385 -1.670911 0.51518428
-2.0831134 -1.6702325 0.51900047
-2.1089606 -1.6692957 0.52281666
-2.1348774 -1.6680995 0.52663285
-2.160862 -1.666643 0.53044897
-2.1869121 -1.6649255 0.53426516
-2.2130251 -1.6629459 0.53808135
-2.2391989 -1.6607033 0.54189754
-2.265332 -1.6583328 0.54571372
-2.2914762 -1.6557637 0.54952991
-2.3177741 -1.6527952 0.5533461
-2.3441689 -1.6494975 0.55716228
-2.3785777 -1.6516739 0.56288654
-2.4130585 -1.6535509 0.56861079
-2.4396195 -1.6494192 0.57242697
-2.4662678 -1.6449519 0.57624316
-2.5011561 -1.6456099 0.58196741
-2.5361493 -1.6458936 0.58769172
-2.5629759 -1.6405101 0.59150785
-2.598135 -1.6400938 0.59723216
-2.6249578 -1.6342696 0.60104835
-2.6684937 -1.6385202 0.60868067
-2.7038832 -1.6370467 0.61440498
-2.7394025 -1.635119 0.62012923
-2.7665429 -1.6278307 0.62394542
-2.8106821 -1.6301153 0.63157779
-2.8379135 -1.6221658 0.63539392
-2.8822606 -1.6235737 0.64302629
-2.9266386 -1.6246629 0.65065867
-2.9624841 -1.6206323 0.65638292
-2.9984879 -1.6160396 0.66210723
-3.0432637 -1.6155789 0.66973954
-3.0881505 -1.6146185 0.67737192
-3.1331441 -1.6131573 0.68500429
-3.1693883 -1.6069449 0.69072855
-3.223197 -1.6092001 0.70026898
-3.25963 -1.6019943 0.70599329
-3.3138154 -1.6028533 0.71553373
-3.3592751 -1.598875 0.72316611
-3.4048142 -1.5943882 0.73079842
-3.4593439 -1.5934986 0.74033886
-4.5669446 -1.5405799 0.93687212
-4.6510587 -1.5366154 0.95213687
-4.7073216 -1.5224655 0.96167731
-4.7355118 -1.4987826 0.9654935
-4.7167039 -1.4602897 0.95976925
-4.7163911 -1.4277809 0.95786113
-4.7064428 -1.3925487 0.95404494
-4.7055879 -1.3605059 0.95213687
-4.7044806 -1.3286569 0.95022881
-4.7032371 -1.2965922 0.94832069
-4.7018113 -1.264466 0.94641262
-4.7001681 -1.2324092 0.9445045
-4.698308 -1.200423 0.94259644
-4.8703589 -1.1155455 0.97121775
-4.9826441 -1.1085052 0.99220675
-5.1046534 -1.1020331 1.0151038
-5.2075572 -1.0900512 1.0341847
-5.1950626 -1.0534068 1.0303686
-5.1828847 0.03324284 1.0074714
-5.1629429 0.065559156 1.0036553
-5.1722436 0.098182358 1.0055634
-5.1715245 0.1306798 1.0055634
-5.1215539 0.16131298 0.99602294
-5.1106472 0.19267358 0.99411488
-5.2270231 0.22981468 1.0170119
-5.2744956 0.26511765 1.0265523
-5.2531247 0.29714274 1.0227362
-5.2805443 0.3319923 1.0284605
-5.2783542 0.36516282 1.0284605
-5.2857442 0.39906073 1.0303686
-5.2733746 0.43114752 1.0284605
-5.2706022 0.46381345 1.0284605
-5.2675977 0.49677581 1.0284605
-5.2741394 0.53084475 1.0303686
-5.2707 0.5639711 1.0303686
-5.2670522 0.59707803 1.0303686
-5.2729435 0.63132548 1.0322766
-5.2786117 0.66567332 1.0341847
-5.2743669 0.69851047 1.0341847
-5.2504911 0.72847933 1.0303686
-5.2264023 0.75849104 1.0265523
-5.1244788 0.77660728 1.0074714
-5.0852566 0.83616239 1.0017473
-5.0508747 0.86313546 0.99602294
-5.0453515 0.8948552 0.99602294
-5.068593 0.93186182 1.0017473
-5.0626378 0.96369153 1.0017473
-5.0564833 0.99548048 1.0017473
-5.0405097 1.0252736 0.99983913
-5.0340314 1.0566219 0.99983913
-5.0369821 1.0898688 1.0017473
-5.0396466 1.1234934 1.0036553
-5.0324879 1.1551374 1.0036553
-5.0346842 1.1889894 1.0055634
-5.0271139 1.220601 1.0055634
-5.0288701 1.2545377 1.0074714
-5.0303974 1.2885472 1.0093796
-5.0222025 1.3201272 1.0093796
-5.0043306 1.3491026 1.0074714
-4.8727541 1.3465276 0.98266631
-4.7414112 1.3423564 0.95786113
-3.1227593 1.2324493 0.65256673
-3.1513865 1.2666887 0.66019911
-2.0472696 1.2241738 0.46366584
-2.056324 1.2471936 0.46748203
-2.0233638 1.24466 0.46175775
-1.9905924 1.2416422 0.4560335
-1.9579713 1.2382123 0.45030922
-1.9253967 1.2345412 0.44458497
-1.9011414 1.2359143 0.44076878
-1.8769462 1.2370309 0.43695259
-1.8446505 1.2324393 0.43122831
-1.8206153 1.2329959 0.42741215
-1.796646 1.2333003 0.42359596
-1.772746 1.2333518 0.41977978
-1.7489161 1.2331531 0.41596359
-1.7251602 1.2327031 0.41214743
-1.7014788 1.2320045 0.40833125
-1.6699612 1.2252499 0.40260696
-1.6464738 1.2240057 0.39879081
-1.6230692 1.2225145 0.39497462
-1.5997483 1.2207787 0.39115843
-1.5843536 1.2247072 0.38925034
-1.5612767 1.2223976 0.38543415
-1.545908 1.2260408 0.38352609
-1.5228685 1.2234344 0.3797099
-1.4999242 1.2205865 0.37589371
-1.484651 1.2237427 0.37398562
-1.4618623 1.2204643 0.37016943
-1.4391733 1.2169492 0.36635327
-1.4240433 1.2195821 0.36444518
-1.4015211 1.215642 0.36062899
-1.3864808 1.2179451 0.3587209
-1.3641325 1.2135836 0.35490471
-1.3492603 1.2154793 0.35299665
-1.3271984 1.2105856 0.34918046
-1.3123884 1.2122041 0.34727237
-1.3047457 1.2204264 0.34727237
-1.2827988 1.2150987 0.34345618
-1.2680544 1.2163399 0.34154809
-1.2463776 1.2105289 0.33773193
-1.2248548 1.204463 0.33391574
-1.2102681 1.2052476 0.33200765
-1.1887432 1.1989912 0.32819146
-1.1812253 1.2063985 0.32819146
-1.1600796 1.1995815 0.32437527
-1.1525527 1.2068152 0.32437527
-1.1382121 1.206892 0.32246721
-1.1239169 1.2068359 0.32055911
-1.1096668 1.2066487 0.31865102
-1.0954646 1.2063297 0.31674293
-1.0813097 1.2058808 0.31483483
-1.0607693 1.1978881 0.31101865
-1.0597888 1.2118269 0.31292674
-1.0393558 1.2035739 0.30911058
-1.0254036 1.2026113 0.30720249
-1.0115056 1.2015206 0.30529439
-1.0039361 1.2078526 0.30529439
1.0028756 1.0914791 0.28812158
1.0230874 1.0995291 0.29193777
1.0299101 1.0931411 0.29193777
1.0434389 1.0938418 0.29384586
1.0570813 1.0943531 0.29575393
1.0708005 1.094707 0.29766202
1.0776576 1.0879574 0.29766202
1.0914239 1.0880954 0.29957011
1.1052341 1.0881032 0.30147821
1.1190873 1.0879799 0.3033863
1.1329823 1.0877254 0.30529439
1.1469181 1.0873388 0.30720249
1.1608933 1.0868199 0.30911058
1.1749071 1.0861679 0.31101865
1.1817085 1.0787644 0.31101865
1.1957543 1.0778908 0.31292674
1.2171029 1.0834826 0.31674293
1.2237927 1.0759208 0.31674293
1.2379122 1.074679 0.31865102
1.2595459 1.0796568 0.32246721
1.2737976 1.0780631 0.32437527
1.2880788 1.0763328 0.32628337
1.3023882 1.0744652 0.32819146
1.3167245 1.0724601 0.33009955
1.3310869 1.070317 0.33200765
1.3531624 1.0741386 0.33582383
1.3598847 1.0656153 0.33582383
1.3820823 1.0690619 0.33963999
1.3965101 1.0663978 0.34154809
1.4109291 1.0636338 0.34345618
1.4254308 1.0606463 0.34536427
1.4478909 1.0632898 0.34918046
1.4704397 1.0656924 0.35299665
1.485091 1.0621428 0.35490471
1.5077753 1.0641114 0.3587209
1.5144316 1.0546167 0.3587209
1.5372092 1.0561984 0.36253709
1.5600657 1.0575349 0.36635327
1.5747762 1.0532634 0.36826137
1.5894649 1.0488927 0.37016943
1.6124492 1.0496392 0.37398562
1.6355329 1.0500942 0.37780181
1.6503919 1.0450487 0.3797099
1.6735781 1.0450571 0.38352609
1.6968287 1.0448148 0.38734224
1.711751 1.039227 0.38925034
1.7350923 1.0385342 0.39306653
1.7584919 1.0375887 0.39688271
1.7819475 1.0363897 0.40069887
1.8054568 1.0349365 0.40451506
1.8289553 1.0333383 0.40833125
1.8524752 1.0315378 0.41214743
1.8761041 1.0293725 0.41596359
1.8998058 1.0268997 0.41977978
1.9235497 1.0241696 0.42359596
1.9473336 1.0211811 0.42741215
1.9798771 1.0224379 0.4331364
2.0125124 1.0233256 0.43886068
2.036458 1.0194488 0.44267687
2.0692389 1.0196501 0.44840112
2.0932086 1.0153214 0.45221731
2.1171761 1.0107913 0.4560335
2.1412275 1.0058743 0.45984969
2.1831486 1.0088722 0.46748203
2.2162538 1.0073205 0.47320631
2.2494249 1.0053922 0.47893056
2.2825978 1.0032231 0.48465484
2.3158026 1.0007432 0.4903791
2.349123 0.99774873 0.49610338
2.3825228 0.99431109 0.50182766
2.4160304 0.99034756 0.50755191
2.4587157 0.98959684 0.51518428
2.4922404 0.98503411 0.52090853
2.5349007 0.98377997 0.52854091
2.5776987 0.98187971 0.53617328
2.6205974 0.97941035 0.5438056
2.6635654 0.97644013 0.55143797
2.706598 0.9729681 0.55907035
6.3543568 0.76474267 1.2440746
6.5150862 0.7425887 1.2746041
6.7831411 0.72999841 1.3261225
7.0903497 0.7180239 1.3852733
7.426981 0.70499939 1.4501483
7.7930493 0.69037044 1.5207477
8.1787786 0.67277741 1.5951632
8.603693 0.65385187 1.677211
9.028656 0.62991011 1.7592589
9.5222473 0.6045121 1.8546634
10.084473 0.57661098 1.9634246
11.089338 0.58505034 -0.58197582
14.205162 0.65996093 -0.74526399
14.208991 0.57162368 -0.74526399
14.192299 0.48289737 -0.74421728
14.195045 0.39402354 -0.74421728
14.19724 0.30482611 -0.74421728
14.198875 0.21561663 -0.74421728
14.189963 0.12630977 -0.74369395
14.190477 0.037149534 -0.74369395
14.180444 -0.051975556 -0.74317056
14.239761 -0.14073563 -0.74631071
14.188691 -0.22815691 -0.74369395
14.186985 -0.31699234 -0.74369395
14.184713 -0.4061251 -0.74369395
14.151973 -0.49327099 -0.74212384
14.148645 -0.58094442 -0.74212384
14.144731 -0.66952401 -0.74212384
14.140244 -0.75838435 -0.74212384
14.135256 -0.84628868 -0.74212384
14.119776 -0.93319315 -0.74160051
13.987493 -1.1008391 -0.73532015
14.040003 -1.1937793 -0.7384603
14.04217 -1.2828798 -0.73898369
14.023892 -1.3701127 -0.7384603
14.015007 -1.4581999 -0.7384603
14.015595 -1.5464071 -0.73898369
14.005746 -1.6332153 -0.73898369
14.005269 -1.7211808 -0.73950702
13.994336 -1.8079216 -0.73950702
13.992638 -1.8968526 -0.74003041
13.792587 -1.9580641 -0.73008657
13.740499 -2.0388234 -0.72799313
10.922559 -1.830013 -0.58040577
10.399284 -1.8093541 -0.55319107
9.9061613 -1.7877539 -0.52754641
9.4628201 -1.7692083 -0.50451863
9.0691423 -1.75465 -0.48410758
8.6760359 -1.7352172 -0.46369657
8.3324471 -1.7210168 -0.44590235
7.9406672 -1.6916438 -0.4254913
7.949542 -1.7450926 -0.42653805
7.0808277 -1.6477607 -0.38100576
6.8664904 -1.6429543 -0.3700152
6.749506 -1.6592425 -0.36425826
6.7486672 -1.7039155 -0.36478162
6.5154891 -1.6886599 -0.35274434
6.3976746 -1.7431564 -0.34751076
6.2231212 -1.7375273 -0.33861363
5.3287616 -1.5598798 -0.29098791
5.5868578 -1.6730821 -0.30564198
5.1179485 -1.5676444 -0.28052071
5.0317593 -1.5758932 -0.27633384
4.9266491 -1.5770327 -0.27110025
4.8122358 -1.5738107 -0.26534331
3.2092738 -1.2531798 -0.18055904
3.2477329 -1.2917733 -0.18317585
3.2396383 -1.3119416 -0.18317585
3.2406802 -1.3357942 -0.18369921
3.2414615 -1.3599224 -0.18422256
3.2328529 -1.3802621 -0.18422256
3.2333679 -1.4043149 -0.18474592
3.2337399 -1.4283562 -0.18526928
3.2338424 -1.4526681 -0.18579264
3.2246511 -1.4729581 -0.18579264
3.2425046 -1.5058086 -0.18736272
3.1513958 -1.5116715 -0.18317585
3.1060612 -1.5136689 -0.18108241
3.0517752 -1.5109328 -0.1784656
3.0065358 -1.5121295 -0.17637217
2.9526086 -1.5080823 -0.17375538
2.8988826 -1.5033599 -0.17113857
2.854068 -1.5028703 -0.16904514
2.8005354 -1.4972317 -0.16642834
2.756063 -1.4955637 -0.16433489
2.7117534 -1.4933422 -0.16224146
2.6674809 -1.4908044 -0.16014802
2.6233156 -1.4878289 -0.15805459
2.5966048 -1.49432 -0.15700787
2.5526688 -1.490464 -0.15491442
2.5088854 -1.4861157 -0.15282099
2.4738185 -1.48642 -0.15125091
2.4304175 -1.4809868 -0.14915748
2.3957086 -1.4802696 -0.14758739
2.3525436 -1.4740318 -0.14549395
2.3263779 -1.4780734 -0.14444724
2.2918599 -1.4764364 -0.14287716
2.2658162 -1.4798857 -0.14183044
2.2482438 -1.4884326 -0.14130709
2.2389786 -1.5023338 -0.14130709
2.246043 -1.5275556 -0.1423538
2.252845 -1.5529733 -0.14340052
2.2349589 -1.5612319 -0.14287716
2.1926386 -1.5519716 -0.14078373
2.9162908 -2.381012 -0.19730656
2.8935773 -2.3929243 -0.19678319
2.7561476 -2.308279 -0.18840943
2.7874889 -2.3640673 -0.1915496
2.7953587 -2.4009945 -0.19311967
2.7952867 -2.4316194 -0.19416639
2.8100879 -2.4753561 -0.19625983
2.8021491 -2.4993675 -0.19678319
2.8012669 -2.5302503 -0.19782992
2.8074193 -2.568022 -0.19939999
2.7987244 -2.5922136 -0.19992335
2.7898936 -2.6163361 -0.20044671
2.78794 -2.6475065 -0.20149343
2.7784483 -2.6718934 -0.20201679
2.7902231 -2.7171664 -0.20411022
2.7802062 -2.7416561 -0.20463358
1.4534694 -1.5255597 -0.11042886
1.4850503 -1.5781722 -0.11356902
1.461544 -1.5728089 -0.1125223
1.451633 -1.5819609 -0.1125223
1.4350629 -1.5835563 -0.11199895
1.4252239 -1.5924172 -0.11199895
1.4086123 -1.5938271 -0.11147559
1.3854381 -1.5875978 -0.11042886
1.3689169 -1.5887061 -0.1099055
1.3524368 -1.5896698 -0.10938215
1.3361031 -1.5904019 -0.10885879
1.3198471 -1.5909642 -0.10833543
1.3035319 -1.5914713 -0.10781207
1.2872275 -1.5918651 -0.10728871
1.2710743 -1.5920337 -0.10676535
1.2550037 -1.5920359 -0.10624199
1.2388778 -1.5919816 -0.10571863
1.2227672 -1.5918148 -0.10519527
1.2068121 -1.5914296 -0.10467191
1.1909438 -1.5908822 -0.10414855
1.175025 -1.5902761 -0.10362519
1.1650099 -1.5976276 -0.10362519
1.1491156 -1.5968103 -0.10310183
1.1332779 -1.5958568 -0.10257848
1.1174982 -1.5947672 -0.10205511
1.1017767 -1.5935431 -0.10153175
1.0862192 -1.5921134 -0.10100839
1.0763335 -1.5988132 -0.10100839
1.0607768 -1.5972023 -0.10048503
1.0452479 -1.5954825 -0.099961676
1.0298872 -1.5935634 -0.099438317
1.0146252 -1.5914935 -0.098914959
1.0046408 -1.5978149 -0.098914959
-1.0100259 -1.4139148 -0.091064565
-1.0246527 -1.4156972 -0.091587923
-1.0334045 -1.4093214 -0.091587923
-1.0422084 -1.4028233 -0.091587923
-1.0570077 -1.4042258 -0.092111282
-1.0718656 -1.4054974 -0.092634641
-1.0867808 -1.4066374 -0.093157999
-1.0955058 -1.3998531 -0.093157999
-1.1103615 -1.4008645 -0.093681358
-1.125363 -1.4016718 -0.094204716
-1.1341478 -1.3945732 -0.094204716
-1.155586 -1.4028357 -0.095251441
-1.1707752 -1.4032152 -0.0957748
-1.1794772 -1.3959086 -0.0957748
-1.1945961 -1.3961616 -0.096298158
-1.2098542 -1.3962014 -0.096821517
-1.2251899 -1.396078 -0.097344875
-1.2405716 -1.3958166 -0.097868234
-1.2493172 -1.3879943 -0.097868234
-1.26465 -1.3875805 -0.098391593
-1.2799953 -1.3870572 -0.098914959
-1.3022916 -1.3936083 -0.099961676
-1.3110222 -1.3853984 -0.099961676
-1.3265197 -1.3844306 -0.10048503
-1.3420258 -1.3833525 -0.10100839
-1.3576593 -1.3820465 -0.10153175
-1.373359 -1.3805686 -0.10205511
-1.3890934 -1.3789479 -0.10257848
-1.796701 -1.6753776 -0.12874645
-1.8438866 -1.6979181 -0.13136324
-1.8840725 -1.7131724 -0.13345669
-1.90223 -1.7079725 -0.13398005
-1.9129239 -1.6959867 -0.13398005
-1.9309455 -1.6906384 -0.13450341
-1.9564917 -1.6917051 -0.13555013
-1.9822352 -1.6923902 -0.13659684
-2.0004649 -1.6863385 -0.1371202
-2.0262618 -1.6866454 -0.13816692
-2.0521026 -1.686741 -0.13921364
-2.0703776 -1.6801517 -0.139737
-2.1042743 -1.6858417 -0.14130709
-2.1304905 -1.6849765 -0.1423538
-2.1567783 -1.6838478 -0.14340052
-2.1831355 -1.6824549 -0.14444724
-2.2095597 -1.6807967 -0.14549395
-2.2360485 -1.6788726 -0.14654067
-2.2545764 -1.6707356 -0.14706403
-2.2891014 -1.6743722 -0.14863411
-2.3156247 -1.6718485 -0.14968084
-2.3504465 -1.6747013 -0.15125091
-2.3690917 -1.6656437 -0.15177427
-2.4040167 -1.6679593 -0.15334435
-2.4307854 -1.6643153 -0.15439107
-2.4577088 -1.6602429 -0.15543778
-2.493022 -1.6613818 -0.15700787
-2.5284457 -1.6621418 -0.15857795
-2.5555973 -1.6570885 -0.15962467
-2.5911975 -1.6571397 -0.16119474
-2.6184516 -1.6514807 -0.16224146
-2.6625876 -1.6562672 -0.16433489
-2.6898227 -1.6501827 -0.16538163
-2.7257361 -1.6488146 -0.1669517
-2.753196 -1.6418856 -0.16799842
-2.7978935 -1.6447982 -0.17009185
-2.8254538 -1.6371995 -0.17113857
-2.8703721 -1.6392238 -0.17323202
-2.9067233 -1.6358497 -0.17480209
-2.9430373 -1.6322758 -0.17637217
-2.9881456 -1.6331674 -0.1784656
-3.0246909 -1.6286287 -0.18003568
-3.0701532 -1.6283082 -0.18212913
-3.106878 -1.6228564 -0.18369921
-3.152535 -1.6215746 -0.18579264
-3.1892822 -1.6154795 -0.18736272
-3.2349763 -1.6135163 -0.18945616
-3.2898362 -1.6152354 -0.19207296
-3.3358865 -1.6119121 -0.19416639
-3.3910422 -1.6123614 -0.19678319
-3.437288 -1.6079489 -0.19887663
-4.5804076 -1.5431463 -0.25330603
-4.6658478 -1.5394686 -0.2574929
-4.7324457 -1.5285381 -0.26063305
-4.7324343 -1.4957637 -0.26010969
-4.7417388 -1.4659995 -0.26010969
-4.7221794 -1.4275085 -0.25853962
-4.7119012 -1.3921509 -0.2574929
-4.7108717 -1.3600571 -0.25696954
-4.7095966 -1.3281329 -0.25644618
-4.7081919 -1.2959684 -0.25592282
-4.7065969 -1.2637708 -0.25539947
-4.7047839 -1.2316445 -0.25487611
-4.7124295 -1.2020594 -0.25487611
-4.8772745 -1.1151421 -0.26220313
-5.0206447 -1.1148911 -0.26953018
-5.15446 -1.1106683 -0.27633384
-5.1613364 -1.0782615 -0.27633384
-5.1680098 -1.0458093 -0.27633384
-5.1744781 -1.0133187 -0.27633384
-5.1709313 -0.97892767 -0.27581048
-5.1572709 -0.94316614 -0.27476376
-5.1531816 -0.90945762 -0.2742404
-5.1489296 -0.87550145 -0.27371705
-5.144474 -0.84151918 -0.27319369
-5.1496067 -0.809515 -0.27319369
-5.144649 -0.77610254 -0.27267033
-5.139524 -0.74244863 -0.27214697
-5.1440878 -0.71014017 -0.27214697
-5.1385469 -0.67650294 -0.27162361
-5.1426964 -0.64420193 -0.27162361
-5.1367259 -0.6106993 -0.27110025
-5.1404614 -0.57841104 -0.27110025
-5.134028 -0.54538476 -0.27057689
-5.1373086 -0.51356345 -0.27057689
-5.1404233 -0.48138845 -0.27057689
-5.1333985 -0.4482109 -0.27005354
-5.1361132 -0.41594946 -0.27005354
-5.1286669 -0.38292536 -0.26953018
-5.1309714 -0.35069495 -0.26953018
-5.1330738 -0.31844798 -0.26953018
-5.1249833 -0.28597122 -0.26900682
-5.126657 -0.25421098 -0.26900682
-5.1281481 -0.22210774 -0.26900682
-5.119463 -0.18951161 -0.26848346
-5.1205525 -0.15734287 -0.26848346
-5.1214404 -0.12516516 -0.26848346
-5.1221256 -0.092985258 -0.26848346
-5.1126232 -0.060680438 -0.2679601
-5.1228876 -0.028948596 -0.26848346
-5.1129823 0.0027882885 -0.2679601
-5.112865 0.034800876 -0.2679601
-5.112545 0.066926472 -0.2679601
-5.1120238 0.0990467 -0.2679601
-5.1113005 0.13116574 -0.2679601
-5.1004052 0.16262384 -0.26743674
-5.0992994 0.19422318 -0.26743674
-5.0979834 0.22614636 -0.26743674
-5.0964618 0.25817466 -0.26743674
-5.094739 0.29019007 -0.26743674
-5.0928154 0.32219672 -0.26743674
-5.0906901 0.35418797 -0.26743674
-5.0883646 0.38616791 -0.26743674
-5.0958176 0.41861704 -0.2679601
-5.0931258 0.45018306 -0.2679601
-5.0902076 0.48206255 -0.2679601
-5.0870786 0.51403421 -0.2679601
-5.0837483 0.54598564 -0.2679601
-5.0802174 0.57791817 -0.2679601
-5.086401 0.61101627 -0.26848346
-5.0824614 0.64296424 -0.26848346
-5.0783653 0.67455405 -0.26848346
-5.0740881 0.70600706 -0.26848346
-5.0695682 0.73776233 -0.26848346
-5.0747056 0.77110219 -0.26900682
-5.0697608 0.80297077 -0.26900682
-5.0744686 0.83643448 -0.26953018
-5.0691133 0.86830032 -0.26953018
-5.0733895 0.90188241 -0.27005354
-5.0676227 0.93374014 -0.27005354
-5.0616555 0.96556371 -0.27005354
-5.0652866 0.99927932 -0.27057689
-5.0589085 1.0310842 -0.27057689
-5.0523992 1.0625201 -0.27057689
-5.0554786 1.0959204 -0.27110025
-5.0582638 1.1297283 -0.27162361
-5.0510654 1.1614891 -0.27162361
-5.0533862 1.1955006 -0.27214697
-5.0554781 1.2295896 -0.27267033
-5.0476532 1.2613283 -0.27267033
-5.0589738 1.2979835 -0.27371705
-5.0507193 1.3297429 -0.27371705
-5.0229821 1.3562461 -0.27267033
-4.8699942 1.3478229 -0.26481992
-5.0316672 2.3238881 -0.29046455
-4.9265699 2.3130176 -0.28523096
-4.7316856 2.2579095 -0.27476376
-4.7915792 2.4740443 -0.28261417
-5.005836 2.6247776 -0.29622149
-5.0068746 2.6655655 -0.29726821
-5.0075989 2.7064669 -0.29831496
-4.9904943 2.7378783 -0.29831496
-4.9908257 2.7785683 -0.29936168
-2.0966957 1.2017597 -0.12665302
-2.115001 1.2299713 -0.12822309
-2.1158326 1.2483097 -0.12874645
-2.0993781 1.2564514 -0.12822309
-2.0658331 1.2540704 -0.12665302
-2.0324011 1.2513192 -0.12508294
-2.0076392 1.2533555 -0.12403622
-1.9745204 1.2497485 -0.12246613
-1.9414434 1.245906 -0.12089606
-1.9168357 1.2471877 -0.11984934
-1.9006257 1.2537078 -0.11932598
-1.8678073 1.2489715 -0.1177559
-1.8351243 1.2438729 -0.11618582
-1.8190413 1.2497244 -0.11566246
-1.7865677 1.2440091 -0.11409238
-1.7542381 1.2379367 -0.1125223
-1.7301798 1.237316 -0.11147559
-1.7061986 1.2364433 -0.11042886
-1.6822979 1.2353175 -0.10938215
-1.6664907 1.2399026 -0.10885879
-1.6427189 1.238326 -0.10781207
-1.6269691 1.2425621 -0.10728871
-1.6034144 1.2404333 -0.10624199
-1.5799767 1.2380258 -0.10519527
-1.5565506 1.235477 -0.10414855
-1.5409741 1.2389756 -0.10362519
-1.5176729 1.2360204 -0.10257848
-1.5021738 1.2391766 -0.10205511
-1.4866951 1.2421871 -0.10153175
-1.4636146 1.238602 -0.10048503
-1.4482213 1.2412746 -0.099961676
-1.4253107 1.2372571 -0.098914959
-1.4025089 1.2330006 -0.097868234
-1.3947338 1.2417889 -0.097868234
-1.3795685 1.2437503 -0.097344875
-1.3570846 1.2388091 -0.096298158
-1.3419687 1.2405028 -0.0957748
-1.3195667 1.2352612 -0.094728082
-1.3045323 1.2366571 -0.094204716
-1.2895319 1.237914 -0.093681358
-1.2674886 1.2319868 -0.092634641
-1.2598308 1.2398167 -0.092634641
-1.2448885 1.2407126 -0.092111282
-1.2299315 1.2415234 -0.091587923
-1.2151769 1.2420355 -0.091064565
-1.1935791 1.2351785 -0.09001784
-1.1789279 1.2354027 -0.089494482
-1.171142 1.242786 -0.089494482
-1.1497047 1.2354983 -0.088447765
-1.1351619 1.2353448 -0.087924406
-1.1206673 1.235057 -0.087401047
-1.1128849 1.2420743 -0.087401047
-1.0919057 1.2340118 -0.086354323
-1.0776676 1.2332338 -0.085830964
-1.0634011 1.2323962 -0.085307606
-1.0556365 1.2390537 -0.085307606
-1.0414025 1.2380196 -0.084784247
-1.0272226 1.2368565 -0.084260888
-1.0130994 1.2355636 -0.08373753
1.0133198 1.1301569 -0.079550654
1.0204009 1.1237677 -0.079550654
1.0274415 1.1173341 -0.079550654
1.0480525 1.1254731 -0.080597371
1.0481794 1.1116691 -0.080074012
1.0619427 1.1123766 -0.080597371
1.0827686 1.1200655 -0.081644088
1.0897846 1.1132401 -0.081644088
1.1037884 1.113463 -0.082167447
1.1178375 1.1135535 -0.082690813
1.1319312 1.1135112 -0.083214171
1.138905 1.1063772 -0.083214171
1.1602472 1.1130259 -0.084260888
1.1744673 1.1125817 -0.084784247
1.1814348 1.1051804 -0.084784247
1.2030264 1.1112877 -0.085830964
1.2099851 1.103707 -0.085830964
1.2317362 1.1094495 -0.086877689
1.2460721 1.1084067 -0.087401047
1.2604182 1.1072557 -0.087924406
1.27487 1.1058859 -0.088447765
1.2893778 1.1043501 -0.088971123
1.2962911 1.0962269 -0.088971123
1.3108189 1.0944608 -0.089494482
1.333081 1.0989072 -0.090541206
1.3477048 1.0968131 -0.091064565
1.3623545 1.0945784 -0.091587923
1.3770289 1.0922027 -0.092111282
1.39959 1.0958419 -0.093157999
1.4143491 1.0931333 -0.093681358
1.4290577 1.0903758 -0.094204716
1.4437628 1.0875089 -0.094728082
1.4585577 1.084406 -0.095251441
1.4814451 1.0870359 -0.096298158
1.5044224 1.0894204 -0.097344875
1.5193627 1.0857526 -0.097868234
1.5261546 1.0761847 -0.097868234
1.5492808 1.0779818 -0.098914959
1.5642563 1.0738782 -0.099438317
1.579241 1.0696286 -0.099961676
1.6024671 1.070886 -0.10100839
1.6257457 1.0719309 -0.10205511
1.6407969 1.0671754 -0.10257848
1.6642807 1.0676291 -0.10362519
1.6878343 1.0678294 -0.10467191
1.7114553 1.0677754 -0.10571863
1.7351418 1.0674663 -0.10676535
1.7503527 1.0617223 -0.10728871
1.7741306 1.0609543 -0.10833543
1.7979671 1.0599291 -0.10938215
1.8218601 1.0586458 -0.11042886
1.8458073 1.0571039 -0.11147559
1.8697373 1.0554246 -0.1125223
1.9111475 1.0632396 -0.11461575
1.9352812 1.0608529 -0.11566246
1.9594823 1.0581626 -0.11670918
1.9837253 1.0552096 -0.1177559
2.0080078 1.0519935 -0.11880262
2.0323277 1.0485134 -0.11984934
2.0566823 1.0447689 -0.12089606
2.0900011 1.0452262 -0.12246613
2.1234057 1.0453055 -0.12403622
2.1568241 1.0451471 -0.1256063
2.1812856 1.0403618 -0.12665302
2.2148778 1.0394108 -0.12822309
2.2394986 1.0338451 -0.12926981
2.2732289 1.0321393 -0.13083988
2.3070252 1.0300499 -0.13240996
2.3316727 1.0237148 -0.13345669
2.3746448 1.02508 -0.13555013
2.3994026 1.0179921 -0.13659684
2.4426212 1.0182663 -0.13869028
2.4860034 1.017874 -0.14078373
2.5202339 1.0131912 -0.1423538
2.5636611 1.0121149 -0.14444724
2.5978162 1.0070399 -0.14601731
2.6414051 1.0049587 -0.14811075
2.6944458 1.0058044 -0.15072756
2.7382221 1.0025891 -0.15282099
8.1275454 0.81983316 -0.42810813
8.1027107 0.76593095 -0.42653805
8.1272583 0.71675986 -0.42758477
8.5098152 0.69664282 -0.44747242
8.9720449 0.67835116 -0.47154695
9.4542675 0.65592551 -0.49666822
10.016313 0.63192844 -0.52597636
10.618299 0.60295099 -0.55737793
11.359924 0.57348287 -0.59610653
14.206623 0.62772942 -0.74526399
8.2140512 -1.7532096 1.9390781
7.879477 -1.7329115 1.8625947
7.5453615 -1.7090719 1.7861114
7.2497964 -1.6900823 1.718626
7.0401754 -1.6873946 1.6713864
6.7362914 -1.6587614 1.6016514
6.499053 -1.6436085 1.5476632
6.2811136 -1.6305486 1.498174
6.03547 -1.6068662 1.4419363
5.8843985 -1.6057543 1.4081936
5.7522311 -1.6084875 1.3789499
5.6108723 -1.6070378 1.3474568
5.4698777 -1.6034884 1.3159636
5.3011761 -1.5897676 1.277722
5.2072711 -1.5972418 1.2574763
5.0762691 -1.592023 1.2282327
4.9733791 -1.5941443 1.2057376
4.8521471 -1.5889727 1.1787435
4.7405334 -1.5850961 1.1539989
3.1621046 -1.5183147 0.80982381
3.10885 -1.5165184 0.79857624
3.0556333 -1.5143377 0.78732866
3.011246 -1.5159811 0.77833062
2.9583921 -1.5124811 0.76708311
2.9057243 -1.5083365 0.75583553
