# .PCD v0.7 - Point Cloud Data file format
VERSION 0.7
FIELDS x y z
SIZE 4 4 4
TYPE F F F
COUNT 1 1 1
WIDTH 1474
HEIGHT 1
VIEWPOINT 0 0 0 1 0 0 0
POINTS 1474
DATA ascii
1.7274389 -2.7994211 0.057418417
1.7358006 -2.8529279 0.058291037
1.7281275 -2.8809264 0.058640085
1.7252761 -2.917537 0.059163656
1.7172383 -2.9454458 0.059512705
1.7089039 -2.9733758 0.059861753
1.7098986 -3.0188539 0.06055985
1.7006427 -3.0469992 0.060908899
1.7007362 -3.092669 0.061606992
1.6907965 -3.1208763 0.061956041
1.6852766 -3.157901 0.062479615
1.6840276 -3.2038195 0.063177712
1.6779354 -3.2408295 0.063701279
1.6805151 -3.2957091 0.064573906
1.6777189 -3.3419454 0.065271996
1.6699957 -3.3793025 0.065795571
1.6665214 -3.4255488 0.066493668
1.6460481 -3.8633084 0.073300108
1.6449095 -3.9289114 0.07434725
1.646814 -4.0038972 0.075568922
1.6216244 -4.0141654 0.075568922
1.5889972 -4.0056872 0.07521987
1.5565633 -3.9969494 0.074870825
1.5246269 -3.987839 0.074521773
1.4963548 -3.9878559 0.07434725
1.4678153 -3.9877961 0.074172728
1.439358 -3.9875271 0.073998205
1.411288 -3.9869432 0.073823676
1.3832585 -3.9861727 0.073649153
1.354967 -3.9853189 0.073474631
1.326741 -3.9842672 0.073300108
1.2954825 -3.9735126 0.072951056
-1.0069617 -1.3444585 0.029320043
-1.0152726 -1.3381934 0.029320043
-1.0296444 -1.3397994 0.029494567
-1.0380422 -1.3333036 0.029494567
-1.0525908 -1.3346057 0.029669091
-1.0671965 -1.3357773 0.029843615
-1.0818506 -1.3368238 0.030018138
-1.0901127 -1.3300953 0.030018138
-1.1047258 -1.3310031 0.030192662
-1.1195009 -1.331689 0.030367186
-1.1343278 -1.3322415 0.030541711
-1.1426761 -1.3250881 0.030541711
-1.1575563 -1.3254131 0.030716235
-1.1724855 -1.3256031 0.030890759
-1.1874549 -1.3256642 0.031065283
-1.2023629 -1.3256876 0.031239808
-1.2173238 -1.3255701 0.03141433
-1.2324375 -1.3252169 0.031588856
-1.2475947 -1.3247259 0.031763379
-1.262794 -1.3240963 0.031937905
-1.2710812 -1.316143 0.031937905
-1.2931923 -1.3225398 0.032286953
-1.3084034 -1.3216001 0.032461476
-1.3237603 -1.3204142 0.032635998
-1.3320305 -1.3120707 0.032635998
-1.3545824 -1.3176185 0.032985047
-1.3700452 -1.3160079 0.033159573
-1.385541 -1.3142545 0.033334095
-1.4010686 -1.3123583 0.033508621
-1.4166267 -1.3103185 0.033683144
-1.4322069 -1.3081427 0.03385767
-1.4477085 -1.305941 0.034032192
-1.4707104 -1.31024 0.034381241
-1.486421 -1.3075774 0.034555763
-1.5021559 -1.3047688 0.034730289
-1.5179138 -1.3018138 0.034904812
-1.5336864 -1.2987206 0.035079338
-1.557044 -1.302021 0.035428386
-1.5727981 -1.2987064 0.035602909
-1.5886767 -1.2951163 0.035777431
-1.6123681 -1.2976378 0.03612648
-1.6362599 -1.299778 0.036475528
-1.6523685 -1.2955056 0.036650054
-1.6762898 -1.2973371 0.036999103
-1.7002915 -1.298928 0.037348147
-1.7162895 -1.2943888 0.037522674
-1.7403234 -1.295662 0.037871722
-1.7564871 -1.2906221 0.038046245
-1.7807431 -1.2913094 0.038395293
-1.7968404 -1.2860702 0.038569819
-1.8292806 -1.292209 0.03909339
-1.8455662 -1.2864072 0.039267913
-1.8700891 -1.2861173 0.039616961
-2.0946317 -1.3456335 0.043456491
-2.1199296 -1.3431603 0.04380554
-2.145169 -1.3405968 0.044154588
-2.161953 -1.3325142 0.044329111
-2.1788273 -1.3240964 0.044503637
-2.2128344 -1.3257966 0.045027208
-2.2383389 -1.3220364 0.045376256
-2.2638826 -1.3180076 0.045725305
-2.3068082 -1.3236619 0.046423402
-2.3324859 -1.318985 0.04677245
-3.0897565 -1.6216642 0.060908899
-3.1441629 -1.6254302 0.061781518
-3.1899555 -1.6237857 0.062479615
-3.2179728 -1.6126699 0.06282866
-3.2639089 -1.6101127 0.063526757
-3.318933 -1.611408 0.064399377
-3.3560572 -1.603454 0.064922951
-3.4022601 -1.59935 0.065621048
-4.7928224 -1.5238262 0.087785602
-4.8882198 -1.5204353 0.089356318
-4.9932017 -1.5192223 0.091101557
-5.0887775 -1.5138874 0.092672274
-5.1845989 -1.5070006 0.09424299
-5.2805314 -1.4989685 0.095813707
-5.3765645 -1.4897894 0.097384423
-5.491991 -1.4846802 0.099304192
-5.6172295 -1.4807268 0.10139848
-5.7038946 -1.465306 0.10279467
-5.7129884 -1.4294387 0.10279467
-5.7218494 -1.3935468 0.10279467
-5.7303739 -1.3580672 0.10279467
-5.709456 -1.3157717 0.1022711
-5.6980968 -1.2755027 0.10192205
-5.6962276 -1.2375542 0.10174753
-5.6843238 -1.1976154 0.10139848
-5.6819396 -1.159878 0.10122395
-5.6891155 -1.1241531 0.10122395
-5.6764245 -1.0846338 0.10087491
-5.7617869 -1.0634633 0.1022711
-5.9160032 -1.0535678 0.10488896
-6.1096487 -1.0490395 0.10820492
-6.1850882 -1.0225502 0.10942659
-6.2012658 -0.98523539 0.10960111
-6.1861796 0.18870097 0.10803039
-6.1649075 0.22632338 0.10768135
-6.1433849 0.26419646 0.1073323
-6.4511805 0.31805199 0.11274254
-6.4490547 0.35858119 0.11274254
-6.4666333 0.4003284 0.1130916
-6.4739656 0.44163355 0.11326612
-6.4710631 0.48230004 0.11326612
-6.467905 0.52295095 0.11326612
-6.4744554 0.56441164 0.11344064
-6.4708338 0.60451698 0.11344064
-6.4669604 0.64463353 0.11344064
-6.4627824 0.68525547 0.11344064
-6.4583492 0.72584689 0.11344064
-6.4635901 0.76758873 0.11361516
-6.4288769 0.80445921 0.1130916
-6.0866494 0.80051076 0.10715777
-6.0715995 0.83733833 0.10698325
-6.3631768 0.91776168 0.11221897
-6.040978 0.90956765 0.1066342
-6.0548987 0.95060921 0.10698325
-6.0488067 0.98863274 0.10698325
-6.0424752 1.0266204 0.10698325
-6.045752 1.066301 0.10715777
-6.068439 1.1096634 0.10768135
-6.0416994 1.1440483 0.1073323
-6.0343919 1.1819882 0.1073323
-6.0268464 1.2198783 0.1073323
-6.0288496 1.2597686 0.10750682
-6.0208154 1.2976223 0.10750682
-6.0223045 1.3375927 0.10768135
-6.0235286 1.377633 0.10785587
-5.8979621 1.3879695 0.10576158
-5.7142005 1.3826717 0.10262015
-5.5210419 1.3727117 0.099304192
-5.3669925 1.3702714 0.096686333
-5.2131968 1.3659539 0.094068468
-5.0500178 1.3571616 0.091276087
-4.8968 1.3490325 0.088658221
-5.9919424 2.1882932 0.11134635
-5.9780741 2.2258999 0.11134635
-5.9920149 2.2740586 0.11186992
-6.0055842 2.3224831 0.1123935
-2.8938837 1.2680678 0.055149604
-2.8310647 1.2618028 0.054102458
-2.7866609 1.2630397 0.053404361
-2.7333765 1.2593622 0.052531742
-2.6892948 1.2593281 0.051833645
-2.6361885 1.2547163 0.050961025
-2.5922499 1.25384 0.050262928
-2.5484269 1.2524631 0.049564835
-2.5047257 1.2505844 0.048866738
-2.4522324 1.2436855 0.047994118
-2.4088154 1.2407544 0.047296021
-2.3743927 1.2419629 0.04677245
-2.3400517 1.2427871 0.046248876
-2.2969935 1.2384855 0.045550779
-2.2628546 1.2384918 0.045027208
-2.2200663 1.2332642 0.044329111
-2.1861448 1.2324578 0.04380554
-2.1523221 1.2312742 0.043281969
-2.1186016 1.2297151 0.042758394
-2.0936017 1.2328559 0.042409346
-2.0600703 1.2305919 0.041885775
-2.0267508 1.227791 0.041362204
-1.9935396 1.2246356 0.040838629
-1.9603462 1.2212769 0.040315058
-1.9357284 1.2228892 0.03996601
-1.9111679 1.2242417 0.039616961
-1.886668 1.2253335 0.039267913
-1.853879 1.2206684 0.038744342
-1.829541 1.2211903 0.038395293
-1.8052695 1.2214559 0.038046245
-1.7728225 1.2158093 0.037522674
-1.748728 1.2155116 0.037173625
-1.7247087 1.2149584 0.036824577
-1.700766 1.2141519 0.036475528
-1.6769021 1.2130929 0.03612648
-1.6531185 1.2117834 0.035777431
-1.6294191 1.2102225 0.035428386
-1.5978153 1.2024009 0.034904812
-1.582278 1.206354 0.034730289
-1.558841 1.2040484 0.034381241
-1.5433774 1.207649 0.034206714
-1.520193 1.2047684 0.03385767
-1.5048952 1.2079139 0.033683144
-1.4817598 1.204731 0.033334095
-1.4587251 1.2013047 0.032985047
-1.44347 1.2040423 0.032810524
-1.4206014 1.2001824 0.032461476
-1.4054351 1.2025846 0.032286953
-1.3902957 1.2048429 0.032112427
-1.3676691 1.2003635 0.031763379
-1.3526273 1.2022902 0.031588856
-1.3376149 1.2040763 0.03141433
-1.3226343 1.2057207 0.031239808
-1.3003391 1.2004433 0.030890759
-1.2854738 1.2017545 0.030716235
-1.2707416 1.2028229 0.030541711
-1.2560394 1.2037621 0.030367186
-1.2341008 1.1977037 0.030018138
-1.2265514 1.2054337 0.030018138
-1.204779 1.199011 0.029669091
-1.1901796 1.1994593 0.029494567
-1.1756216 1.1997726 0.029320043
-1.1611077 1.1999499 0.029145518
-1.1466374 1.199993 0.028970994
-1.1322135 1.1999013 0.02879647
-1.1178362 1.1996762 0.028621946
-1.1035068 1.1993179 0.028447421
-1.0892255 1.1988279 0.028272899
-1.0749949 1.1982055 0.028098375
-1.0608149 1.1974524 0.02792385
-1.0466875 1.1965681 0.027749326
-1.0326127 1.1955545 0.027574802
-1.0250808 1.2020187 0.027574802
-1.0110679 1.2007877 0.027400278
1.0019624 1.0889463 0.025829561
1.015684 1.0898669 0.026004085
1.0224172 1.083553 0.026004085
1.0360237 1.0844213 0.02617861
1.049769 1.0850762 0.026353134
1.056566 1.078459 0.026353134
1.077405 1.0859952 0.026702181
1.0842072 1.0792042 0.026702181
1.1052276 1.0863886 0.027051229
1.1192062 1.0863868 0.027225753
1.1260099 1.0793333 0.027225753
1.1400248 1.0791167 0.027400278
1.1466889 1.0720325 0.027400278
1.1680127 1.0784601 0.027749326
1.1748593 1.0709975 0.027749326
1.1965101 1.0768818 0.028098375
1.2106323 1.0760902 0.028272899
1.217288 1.0685552 0.028272899
1.2316265 1.067327 0.028447421
1.2459867 1.0659728 0.028621946
1.260205 1.064685 0.02879647
1.2744608 1.0632547 0.028970994
1.2888337 1.0615828 0.029145518
1.3032358 1.0597721 0.029320043
1.3176656 1.0578221 0.029494567
1.3399581 1.0619425 0.029843615
1.3544788 1.0596632 0.030018138
1.3690236 1.0572431 0.030192662
1.3835911 1.0546818 0.030367186
1.4156674 1.0841224 -0.41166043
1.4224513 1.0752062 -0.41166043
1.4369886 1.0720739 -0.41390994
1.4593885 1.0745785 -0.41840896
1.4739938 1.0711157 -0.42065847
1.4965309 1.0731897 -0.42515749
1.511198 1.0693941 -0.427407
1.5338651 1.0710346 -0.43190601
1.548588 1.0669039 -0.43415552
1.5633193 1.0626303 -0.43640503
1.5861388 1.0636574 -0.44090405
1.6089507 1.0645627 -0.44540307
1.6318456 1.065208 -0.44990209
1.6466988 1.0602084 -0.45215163
1.6697788 1.0602872 -0.45665064
1.6929241 1.0601175 -0.46114966
1.7078421 1.0545789 -0.46339917
1.7310795 1.0539618 -0.46789819
1.7543758 1.0530937 -0.47239721
1.7777289 1.0519742 -0.47689623
1.7927201 1.0456932 -0.47914574
1.8245965 1.0489777 -0.48589426
1.8481064 1.0470994 -0.49039328
1.8716642 1.0449665 -0.4948923
1.8952674 1.0425785 -0.49939135
1.9189138 1.0399348 -0.50389034
1.9426012 1.0370346 -0.50838935
1.9749514 1.0384122 -0.51513791
1.9987421 1.0349433 -0.51963693
2.0225663 1.0312161 -0.52413595
2.0551302 1.0316014 -0.5308845
2.0877779 1.0316175 -0.537633
2.111732 1.0270253 -0.54213202
2.1444206 1.0265429 -0.54888058
2.1771946 1.0256705 -0.55562907
2.2101173 1.0242618 -0.56237763
2.2431073 1.0224797 -0.56912613
2.6138082 -1.2191162 -0.66585511
2.6325097 -1.2480372 -0.67260367
2.5047755 -1.2652189 -0.64785904
2.3841681 -1.2229297 -0.61861539
2.3505125 -1.2243814 -0.61186683
2.3427866 -1.2391003 -0.61186683
2.3436491 -1.2582011 -0.61411637
2.3443506 -1.2773852 -0.61636585
2.344805 -1.2968056 -0.61861539
2.3366106 -1.3115128 -0.61861539
2.3367908 -1.3309906 -0.62086493
2.336818 -1.3505223 -0.62311441
2.3366916 -1.3701067 -0.62536395
2.3364112 -1.3897423 -0.62761343
2.3359761 -1.4094285 -0.62986296
2.3354008 -1.4291385 -0.63211244
2.3430598 -1.4538556 -0.63661146
2.3422384 -1.4735589 -0.638861
2.3000753 -1.4672853 -0.62986296
2.3071737 -1.4922917 -0.63436198
2.2733076 -1.4907292 -0.62761343
2.2314391 -1.4834065 -0.61861539
2.205914 -1.4865075 -0.61411637
2.1724091 -1.4838274 -0.60736781
2.14715 -1.4861681 -0.6028688
2.1139529 -1.4826813 -0.5961203
2.0887115 -1.4846442 -0.59162128
2.0635295 -1.486349 -0.58712226
2.030539 -1.482052 -0.5803737
2.0055349 -1.4831715 -0.57587469
1.9807107 -1.483885 -0.57137567
1.9481775 -1.4784791 -0.56462711
1.9234005 -1.4788127 -0.56012809
1.8910099 -1.4729062 -0.5533796
1.874069 -1.4787228 -0.55113006
1.8419074 -1.472218 -0.54438156
1.8250481 -1.4776307 -0.54213202
1.8006756 -1.4766915 -0.537633
1.7764999 -1.4753699 -0.53313398
1.7523944 -1.4738245 -0.52863497
1.7282647 -1.4721694 -0.52413595
1.7042415 -1.4702511 -0.51963693
1.6804233 -1.4679613 -0.51513791
1.6639816 -1.4719073 -0.51288837
1.6401855 -1.4693303 -0.50838935
1.6164882 -1.466513 -0.50389034
1.5928916 -1.4634564 -0.49939135
1.5765314 -1.4667988 -0.49714181
1.5531006 -1.4633119 -0.49264279
1.536826 -1.4663152 -0.49039328
1.5135682 -1.4624015 -0.48589426
1.4974011 -1.465052 -0.48364475
1.4744506 -1.4605871 -0.47914574
1.4584771 -1.4628104 -0.47689623
1.435585 -1.4580591 -0.47239721
1.4196191 -1.4600489 -0.4701477
1.4037963 -1.4617891 -0.46789819
1.3812858 -1.4563347 -0.46339917
1.3654474 -1.4578732 -0.46114966
1.3496604 -1.4592557 -0.45890015
1.3340217 -1.4603959 -0.45665064
1.318405 -1.4614129 -0.45440114
1.2962344 -1.4551167 -0.44990209
1.2806307 -1.4559163 -0.44765258
1.2650684 -1.4565774 -0.44540307
1.2432058 -1.4497044 -0.44090405
1.2340726 -1.4574871 -0.44090405
1.218657 -1.4577233 -0.43865454
1.2096015 -1.4652462 -0.43865454
1.2066401 -1.480278 -0.44090405
1.209533 -1.5030123 -0.44540307
1.2182651 -1.5334566 -0.45215163
1.1967134 -1.5256423 -0.44765258
1.1991529 -1.548448 -0.45215163
1.1775653 -1.5404698 -0.44765258
1.1619945 -1.54006 -0.44540307
1.7435782 -2.7132313 -0.74458796
1.7476002 -2.7569008 -0.75358599
1.7511173 -2.8007417 -0.76258409
1.7488259 -2.836571 -0.76933259
1.7461528 -2.8724813 -0.77608114
1.7430967 -2.908469 -0.78282964
1.7347326 -2.9361227 -0.78732866
1.7312206 -2.9720728 -0.79407722
1.7321482 -3.0165598 -0.80307525
1.7275568 -3.0528238 -0.80982381
1.7273229 -3.0976582 -0.81882185
1.7125176 -3.1169899 -0.82107133
1.7160896 -3.1705334 -0.8323189
1.7144715 -3.2156451 -0.84131694
1.7214491 -3.2780948 -0.85481399
1.7190112 -3.3233161 -0.86381203
1.7116195 -3.3599677 -0.87056059
1.7035791 -3.3967848 -0.87730908
1.6994947 -3.4423506 -0.88630712
1.7036884 -3.5053957 -0.89980417
1.6987176 -3.5510614 -0.90880227
1.6852666 -3.7612953 -0.95154297
1.6851693 -3.8253107 -0.96504003
1.6804622 -3.8805294 -0.97628754
1.6789418 -3.9448042 -0.9897846
1.6541228 -3.9552755 -0.9897846
1.640347 -3.9926286 -0.99653316
1.6079361 -3.9847848 -0.99203414
1.5756888 -3.976692 -0.98753512
1.5436503 -3.9683352 -0.9830361
1.5155566 -3.9687209 -0.98078656
1.4874752 -3.9689271 -0.97853708
1.4591463 -3.9690497 -0.97628754
1.4309181 -3.9689574 -0.97403806
1.403052 -3.9685605 -0.97178853
1.3752024 -3.9679859 -0.96953905
1.3439782 -3.9580956 -0.96504003
1.3160076 -3.957216 -0.96279049
1.2881012 -3.9561417 -0.96054101
-1.0051864 -1.3410057 -0.3869158
-1.0252607 -1.3502722 -0.39141482
-1.0336218 -1.3438827 -0.39141482
-1.048034 -1.3450477 -0.39366433
-1.0625013 -1.3460844 -0.39591384
-1.070938 -1.3393819 -0.39591384
-1.0854503 -1.3402102 -0.39816335
-1.0999124 -1.3409929 -0.40041286
-1.1144403 -1.3416355 -0.40266237
-1.1291209 -1.3420627 -0.40491191
-1.1438507 -1.3423581 -0.40716141
-1.1586285 -1.3425211 -0.40941092
-1.1670408 -1.3352147 -0.40941092
-1.1818655 -1.3351516 -0.41166043
-1.1967205 -1.3349676 -0.41390994
-1.2115175 -1.3347422 -0.41615945
-1.2263719 -1.334371 -0.41840896
-1.2413701 -1.3337716 -0.42065847
-1.2564089 -1.3330362 -0.42290798
-1.2714872 -1.3321642 -0.42515749
-1.2865894 -1.331169 -0.427407
-1.2948127 -1.3231717 -0.427407
-1.3098582 -1.3220313 -0.42965651
-1.3319414 -1.3275319 -0.43415552
-1.3472005 -1.3259718 -0.43640503
-1.3624923 -1.3242722 -0.43865454
-1.3778157 -1.3224324 -0.44090405
-1.3931695 -1.3204521 -0.44315356
-1.4085525 -1.3183308 -0.44540307
-1.4311192 -1.3226813 -0.44990209
-1.4465841 -1.3202474 -0.45215163
-1.4619739 -1.317783 -0.45440114
-1.4774027 -1.3151622 -0.45665064
-1.4929553 -1.3122863 -0.45890015
-1.5158885 -1.3156532 -0.46339917
-1.5315237 -1.312443 -0.46564868
-1.5471638 -1.3091048 -0.46789819
-1.5701994 -1.3119889 -0.47239721
-1.5858281 -1.3084189 -0.47464672
-1.6015723 -1.3045827 -0.47689623
-1.624938 -1.3066885 -0.48139524
-1.6408613 -1.3023679 -0.48364475
-1.6644511 -1.3039241 -0.48814377
-1.680319 -1.2994009 -0.49039328
-1.7039263 -1.3006601 -0.4948923
-1.7275155 -1.301806 -0.49939135
-1.7511978 -1.3026899 -0.50389034
-1.7750567 -1.3031938 -0.50838935
-1.791086 -1.2977515 -0.51063889
-1.8149436 -1.2979649 -0.51513791
-1.8309252 -1.2922937 -0.51738739
-1.8550001 -1.2919012 -0.52188641
-1.8791418 -1.2912569 -0.52638549
-1.903348 -1.2903597 -0.5308845
-1.9763308 -1.2861437 -0.54438156
-2.0827713 -1.3368595 -0.57137567
-2.1240466 -1.3446163 -0.5803737
-2.1406019 -1.3365903 -0.58262324
-2.1654501 -1.3334968 -0.58712226
-2.198772 -1.3350354 -0.59387076
-2.2238374 -1.3312029 -0.59836978
-2.2573323 -1.3320596 -0.60511833
-2.2909248 -1.3325473 -0.61186683
-2.3161585 -1.327819 -0.61636585
-2.349906 -1.3276185 -0.62311441
-3.125267 -1.6141074 -0.81207329
-3.1961434 -1.6253561 -0.82781988
-3.2411435 -1.6226904 -0.83681792
-3.2774951 -1.6152155 -0.84356642
-3.3226466 -1.6115996 -0.85256445
-3.3590872 -1.6032823 -0.85931301
-2.7861607 1.2641138 -0.70634627
-2.7251866 1.2568684 -0.69284922
-2.6732199 1.2530822 -0.6816017
-2.6301088 1.2530892 -0.67260367
-2.5871038 1.252606 -0.66360557
-2.5442107 1.2516313 -0.65460753
-2.5014329 1.2501689 -0.6456095
-2.4587758 1.2482178 -0.63661146
-2.4162426 1.245782 -0.62761343
-2.3738394 1.2428604 -0.61861539
-2.3401723 1.2440308 -0.61186683
-2.306586 1.2448264 -0.60511833
-2.2645371 1.2405696 -0.5961203
-2.2311504 1.2405679 -0.58937174
-2.1978543 1.2401963 -0.58262324
-2.1646519 1.2394558 -0.57587469
-2.1315458 1.2383488 -0.56912613
-2.0985408 1.2368741 -0.56237763
-2.0656526 1.2350122 -0.55562907
-2.0329654 1.2326322 -0.54888058
-2.0086744 1.2350208 -0.54438156
-1.976071 1.2321503 -0.537633
-1.9518188 1.2341279 -0.53313398
-1.9194185 1.2305897 -0.52638549
-1.8953093 1.2320052 -0.52188641
-1.8631237 1.2278042 -0.51513791
-1.839168 1.2286615 -0.51063889
-1.8072084 1.2238023 -0.50389034
-1.7914497 1.2296196 -0.50164086
-1.7676915 1.2297221 -0.49714181
-1.7440034 1.2295752 -0.49264279
-1.7203877 1.2291794 -0.48814377
-1.6968457 1.2285368 -0.48364475
-1.6733809 1.2276465 -0.47914574
-1.6421744 1.2206982 -0.47239721
-1.6266893 1.2251298 -0.4701477
-1.6034667 1.2235055 -0.46564868
-1.588039 1.2275965 -0.46339917
-1.5649652 1.2255181 -0.45890015
-1.5420737 1.2230815 -0.45440114
-1.5268557 1.2265278 -0.45215163
-1.5040039 1.2237972 -0.44765258
-1.4812465 1.2208291 -0.44315356
-1.466067 1.2238673 -0.44090405
-1.4434669 1.2204729 -0.43640503
-1.4283694 1.2231802 -0.43415552
-1.4059342 1.2193621 -0.42965651
-1.3909247 1.2217412 -0.427407
-1.3686603 1.2175047 -0.42290798
-1.3537446 1.2195581 -0.42065847
-1.3388567 1.2214731 -0.41840896
-1.3239992 1.2232487 -0.41615945
-1.3020704 1.2182153 -0.41166043
-1.2874235 1.2195587 -0.40941092
-1.2727965 1.2207819 -0.40716141
-1.2581118 1.221966 -0.40491191
-1.2365154 1.2161821 -0.40041286
-1.2219462 1.217051 -0.39816335
-1.2074146 1.2177858 -0.39591384
-1.1929228 1.2183856 -0.39366433
-1.1852436 1.2258571 -0.39366433
-1.164061 1.2191851 -0.38916531
-1.1496937 1.2193853 -0.3869158
-1.1353703 1.2194533 -0.38466629
-1.1210908 1.2193904 -0.38241678
-1.1068579 1.2191958 -0.38016728
-1.0991753 1.2261266 -0.38016728
-1.0849917 1.2257124 -0.37791777
-1.0644441 1.217833 -0.37341875
-1.0504054 1.2171203 -0.37116924
-1.0364174 1.2162801 -0.36891973
-1.0224823 1.2153119 -0.36667022
-1.0086135 1.2142061 -0.36442071
1.0028485 1.1030586 -0.3441751
1.0164555 1.1038153 -0.34642461
1.0300884 1.1044655 -0.34867412
1.0369118 1.098062 -0.34867412
1.0571744 1.1056902 -0.35317314
1.0641007 1.0990261 -0.35317314
1.0778067 1.0992759 -0.35542265
1.0984225 1.1063111 -0.35992169
1.105352 1.0993876 -0.35992169
1.1191893 1.0992485 -0.3621712
1.1330682 1.0989786 -0.36442071
1.1469877 1.0985774 -0.36667022
1.1609344 1.098057 -0.36891973
1.1748358 1.0974945 -0.37116924
1.1887984 1.0967757 -0.37341875
1.2029645 1.0957415 -0.37566826
1.2171417 1.0945977 -0.37791777
1.2311854 1.0935059 -0.38016728
1.2452859 1.0922548 -0.38241678
1.2595848 1.0906777 -0.38466629
1.27389 1.0889906 -0.3869158
1.2880583 1.0873621 -0.38916531
1.2947824 1.0793465 -0.38916531
1.3165852 1.0835736 -0.39366433
1.3309296 1.0814244 -0.39591384
1.3528992 1.0852343 -0.40041286
1.3596911 1.0767124 -0.40041286
1.3817827 1.0801497 -0.40491191
1.4039704 1.0833513 -0.40941092
1.4107494 1.0745085 -0.40941092
1.3720416 1.049859 0.090541206
1.3865798 1.0472362 0.091064565
1.4091454 1.0504403 0.092111282
1.4237615 1.0474837 0.092634641
1.4383957 1.0443846 0.093157999
1.4611645 1.0469593 0.094204716
1.4758679 1.0435232 0.094728082
1.4987754 1.0456575 0.0957748
1.5135416 1.0418822 0.096298158
1.5283192 1.0379624 0.096821517
1.5430901 1.0339231 0.097344875
1.5744579 1.0408641 0.098914959
1.5892582 1.0365185 0.099438317
1.6125367 1.0373179 0.10048503
1.6358873 1.0378652 0.10153175
1.6593077 1.0381597 0.10257848
1.6827958 1.0382005 0.10362519
1.7063493 1.0379866 0.10467191
1.7214016 1.0323811 0.10519527
1.7450467 1.0317094 0.10624199
1.7601228 1.0257529 0.10676535
1.7838519 1.0246215 0.10781207
1.8163261 1.0281512 0.10938215
1.8489143 1.0313126 0.11095223
1.872861 1.0292948 0.11199895
1.8968548 1.0270165 0.11304566
1.9208931 1.0244769 0.11409238
1.9449737 1.0216753 0.1151391
1.9690942 1.0186112 0.11618582
2.0021508 1.0198168 0.1177559
2.0263724 1.0161698 0.11880262
2.0506265 1.0122585 0.11984934
2.0838766 1.0124801 0.12141941
2.1081281 1.008166 0.12246613
2.1414573 1.0078075 0.12403622
2.1749339 1.0069189 0.1256063
2.1993942 1.0015109 0.12665302
2.2421005 1.0039971 0.12874645
2.2757671 1.0019989 0.13031653
7.0839219 0.8111819 0.37367871
7.0888786 0.76665652 0.37367871
7.0935559 0.72210085 0.37367871
7.3763041 0.70408601 0.38833278
7.7486167 0.69052434 0.40769708
8.1309881 0.67313349 0.42758477
8.5333347 0.65262616 0.44851914
8.9556084 0.62913382 0.47050023
9.4476728 0.60474575 0.49614486
9.9996204 0.57701343 0.52492964
10.641329 0.54698157 0.55842465
13.188475 0.59485 0.69188136
13.171994 0.51119852 0.69083458
13.164965 0.42810217 0.69031125
13.167395 0.34537619 0.69031125
13.169305 0.2626366 0.69031125
13.170692 0.18010236 0.69031125
13.171556 0.09849412 0.69031125
13.161926 0.016655477 0.68978786
13.161772 -0.066043273 0.68978786
13.141126 -0.1485137 0.68874115
13.159903 -0.23142968 0.68978786
13.158194 -0.31389531 0.68978786
13.155996 -0.39541662 0.68978786
13.153286 -0.47713646 0.68978786
13.150028 -0.55977118 0.68978786
13.126303 -0.64140898 0.68874115
13.122014 -0.72387093 0.68874115
13.107252 -0.8054769 0.68821782
13.111974 -0.8873474 0.68874115
13.106208 -0.96878427 0.68874115
13.060045 -1.0479186 0.68664771
12.993509 -1.124787 0.68350756
13.016016 -1.2091762 0.68507767
13.018099 -1.2919202 0.685601
12.999793 -1.3726408 0.68507767
12.990936 -1.4540807 0.68507767
12.991594 -1.5357161 0.685601
12.991714 -1.6176265 0.68612438
12.981293 -1.6992235 0.68612438
12.980254 -1.7821118 0.68664771
12.968801 -1.8636335 0.68664771
12.966743 -1.9463519 0.6871711
12.717643 -1.9896109 0.67461044
12.705038 -2.0685768 0.67461044
12.878868 -2.1800308 0.68455428
10.639943 -1.9388808 0.56679839
9.7247486 -1.8353127 0.51864934
9.2915716 -1.8140937 0.49614486
8.8982182 -1.7954065 0.47573385
8.5250349 -1.7759253 0.45636952
8.1817513 -1.7581223 0.4385753
7.858542 -1.7403972 0.42182779
7.5553908 -1.7229999 0.40612701
7.2917881 -1.7104828 0.39251965
6.9218249 -1.6691309 0.37315536
6.9583998 -1.770642 0.37629551
6.8120213 -1.778406 0.36896849
5.9418135 -1.6307914 0.32291284
5.7584352 -1.6193342 0.31349236
5.7290988 -1.6494563 0.31244564
5.7187414 -1.6850146 0.31244564
5.6793575 -1.7122653 0.31087556
5.5348864 -1.7067192 0.30354854
4.9790874 -1.6734713 0.27528712
4.855125 -1.6658317 0.26900682
2.6795065 -1.2716067 0.15543778
2.6174951 -1.2623887 0.15229763
2.573642 -1.2612318 0.1502042
2.2453976 -1.2429796 0.13450341
2.228837 -1.252172 0.13398005
2.2296009 -1.2710973 0.13450341
2.2215705 -1.2850811 0.13450341
2.2134523 -1.2990142 0.13450341
2.2052469 -1.3128958 0.13450341
2.2055027 -1.3318881 0.13502677
2.2056286 -1.3508991 0.13555013
2.2056997 -1.3698076 0.13607349
2.2055981 -1.3888046 0.13659684
2.1968286 -1.4026352 0.13659684
2.2047384 -1.4272642 0.13764356
2.1957271 -1.4410888 0.13764356
2.1949434 -1.4603882 0.13816692
2.210562 -1.4909023 0.139737
2.2011755 -1.5047261 0.139737
2.1671829 -1.5012755 0.13816692
2.1251206 -1.4917594 0.13607349
2.099431 -1.4935049 0.13502677
2.0657034 -1.4891471 0.13345669
2.0401781 -1.4903157 0.13240996
2.0147448 -1.4911897 0.13136324
1.9814972 -1.4856725 0.12979317
1.9563246 -1.485873 0.12874645
1.9311211 -1.4859556 0.12769973
1.8981185 -1.479641 0.12612966
1.8809469 -1.4853491 0.1256063
1.8481824 -1.4784237 0.12403622
1.823339 -1.4774331 0.1229895
1.7986059 -1.4761595 0.12194277
1.7740651 -1.474509 0.12089606
1.7572306 -1.4790709 0.1203727
1.7327036 -1.4771254 0.11932598
1.7082953 -1.4749024 0.11827926
1.6389784 -1.4328758 0.11409238
1.6150907 -1.4297912 0.11304566
1.545609 -1.4758554 0.11199895
1.5147685 -1.4647123 0.11042886
1.4984245 -1.4671894 0.1099055
1.4822134 -1.4694145 0.10938215
1.451912 -1.4573703 0.10781207
1.4357229 -1.4593453 0.10728871
1.4195907 -1.4611514 0.10676535
1.3966815 -1.4555082 0.10571863
1.3807431 -1.4569085 0.10519527
1.3647382 -1.4582638 0.10467191
1.3420173 -1.4521196 0.10362519
1.3262622 -1.4530308 0.10310183
1.3038373 -1.446407 0.10205511
1.2947235 -1.4545707 0.10205511
1.2657808 -1.4401742 0.10048503
1.256707 -1.4480989 0.10048503
1.2345879 -1.4408001 0.099438317
1.2190607 -1.4409049 0.098914959
1.2036049 -1.4408519 0.098391593
1.1882998 -1.4405782 0.097868234
1.185634 -1.4556755 0.098391593
1.1827222 -1.4708787 0.098914959
1.1858993 -1.4939045 0.099961676
1.1951015 -1.5248028 0.10153175
1.1856059 -1.5321977 0.10153175
1.1638322 -1.5237445 0.10048503
1.160247 -1.5390011 0.10100839
1.1445929 -1.538249 0.10048503
1.7535392 -2.7310565 0.17009185
1.7205536 -2.7165594 0.16852178
1.7300985 -2.7695434 0.17113857
1.7336129 -2.8143697 0.17323202
1.7366314 -2.8593483 0.17532545
1.7237617 -2.8787711 0.17584881
1.7158405 -2.9067163 0.17689553
1.7128673 -2.9431846 0.1784656
1.7144277 -2.9884169 0.18055904
1.7103616 -3.0252094 0.18212913
1.7059003 -3.0620677 0.18369921
1.7010429 -3.0989883 0.18526928
1.7005383 -3.144752 0.18736272
1.6901354 -3.1730025 0.18840943
1.6887761 -3.2189043 0.19050288
1.6871376 -3.2647929 0.19259632
1.6849408 -3.310811 0.19468975
1.6819997 -3.3570454 0.19678319
1.6785986 -3.4033446 0.19887663
1.6749263 -3.4496136 0.20097007
1.6706874 -3.4959931 0.2030635
1.6699345 -3.5516074 0.20568031
1.664415 -3.5982568 0.20777375
1.6449189 -3.869082 0.22033437
1.6436725 -3.9346282 0.22347453
1.6454577 -4.0095482 0.22713804
1.6164994 -4.0105457 0.22661468
1.5912687 -4.0206232 0.22661468
1.5551914 -4.0025911 0.22504461
1.5232433 -3.993489 0.22399789
1.4949042 -3.9935224 0.22347453
1.4663405 -3.9934618 0.22295117
1.4379029 -3.9931769 0.22242782
1.4098094 -3.9925926 0.22190446
1.3817124 -3.9918368 0.2213811
1.3533967 -3.9909823 0.22085772
1.3251464 -3.9899299 0.22033437
1.2938749 -3.9791834 0.21928765
-1.0007818 -1.3340528 0.087401047
-1.0150706 -1.3357774 0.087924406
-1.0294405 -1.337359 0.088447765
-1.0378231 -1.3308644 0.088447765
-1.0461646 -1.3243175 0.088447765
-1.0669438 -1.3333124 0.089494482
-1.0752782 -1.3266 0.089494482
-1.089813 -1.3276311 0.09001784
-1.1044236 -1.3285145 0.090541206
-1.1127491 -1.3215491 0.090541206
-1.1339905 -1.3297282 0.091587923
-1.1488506 -1.3301345 0.092111282
-1.1571853 -1.3228899 0.092111282
-1.1720964 -1.323068 0.092634641
-1.1870333 -1.3231302 0.093157999
-1.201923 -1.3231421 0.093681358
-1.2168801 -1.3229997 0.094204716
-1.2319752 -1.3226352 0.094728082
-1.2471135 -1.3221328 0.095251441
-1.255396 -1.314271 0.095251441
-1.2705503 -1.313556 0.0957748
-1.2926393 -1.3199278 0.096821517
-1.3008142 -1.311872 0.096821517
-1.316107 -1.3107198 0.097344875
-1.3385564 -1.3164291 0.098391593
-1.3539652 -1.3149502 0.098914959
-1.3694079 -1.3133293 0.099438317
-1.3848834 -1.3115661 0.099961676
-1.4003905 -1.30966 0.10048503
-1.4159281 -1.3076104 0.10100839
-1.4314734 -1.3054407 0.10153175
-1.4469544 -1.3032297 0.10205511
-1.4624842 -1.3008527 0.10257848
-1.4856353 -1.3048179 0.10362519
-1.5088933 -1.3085431 0.10467191
-1.5246706 -1.3055319 0.10519527
-1.540448 -1.3023992 0.10571863
-1.5638194 -1.3056302 0.10676535
-1.5719002 -1.29589 0.10676535
-1.5955018 -1.2985957 0.10781207
-1.6114352 -1.2947742 0.10833543
-1.6431241 -1.303098 0.1099055
-1.6592348 -1.2987862 0.11042886
-1.6831669 -1.300547 0.11147559
-1.6992242 -1.2960298 0.11199895
-1.7231768 -1.2974907 0.11304566
-1.7472337 -1.2986752 0.11409238
-1.763411 -1.2935781 0.11461575
-1.7876608 -1.2942145 0.11566246
-1.8037707 -1.2889191 0.11618582
-1.828065 -1.2891994 0.11723254
-1.8525231 -1.2890958 0.11827926
-1.8688189 -1.2830831 0.11880262
-1.9674494 -1.2792641 0.1229895
-2.0931346 -1.3423506 0.13031653
-2.1099453 -1.3345455 0.13083988
-2.1351192 -1.332018 0.1318866
-2.1603637 -1.3291944 0.13293333
-2.1942868 -1.3311328 0.13450341
-2.219748 -1.3275709 0.13555013
-2.2452505 -1.3237413 0.13659684
-2.2794261 -1.3246609 0.13816692
-2.3050354 -1.3202394 0.13921364
-2.3393748 -1.3204567 0.14078373
-3.1049376 -1.6265662 0.18369921
-3.1416061 -1.6209831 0.18526928
-3.1873417 -1.6193047 0.18736272
-3.2242475 -1.6126477 0.18893281
-3.2701538 -1.6100012 0.19102624
-3.3161526 -1.6068408 0.19311967
-3.3622391 -1.6031654 0.19521311
-3.4174502 -1.6032149 0.19782992
-3.4637253 -1.5984485 0.19992335
-4.8167348 -1.5272646 0.26481992
-4.9120526 -1.5236772 0.26953018
-4.997848 -1.5164081 0.27371705
-5.0933375 -1.5108908 0.27842727
-5.1986461 -1.5066569 0.28366089
-5.3040986 -1.5011581 0.28889447
-5.4193096 -1.4970517 0.29465142
-5.5346742 -1.4915556 0.30040839
-5.6598377 -1.4872056 0.3066887
-5.7271152 -1.4664776 0.30982885
-5.7459059 -1.4328806 0.31035221
-5.7450681 -1.3944894 0.30982885
-5.7535982 -1.3588657 0.30982885
-5.7229962 -1.3141581 0.30773541
-5.7116466 -1.2738277 0.3066887
-5.7195377 -1.2379138 0.3066887
-5.7174292 -1.1999031 0.30616534
-5.7052836 -1.1599751 0.30511862
-5.7124591 -1.1241065 0.30511862
-5.709599 -1.086324 0.30459526
-5.7948866 -1.0648687 0.30878213
-5.9587736 -1.0564241 0.3171559
-6.1423888 -1.0497645 0.32657635
-6.2177687 -1.0229354 0.33023989
-6.2339368 -0.98540884 0.33076325
-6.209507 -0.15636694 0.32552963
-6.1903982 -0.11697289 0.32448292
-6.2009964 -0.078199625 0.32500628
-6.1813931 -0.039111547 0.32395956
-6.191503 -0.00027091682 0.32448292
-6.1904082 0.11642785 0.32448292
-6.179574 0.15496995 0.32395956
-6.2084394 0.19419266 0.32552963
-6.4466162 0.24173699 0.33809027
-6.2454352 0.27349764 0.32762307
-6.4330955 0.32222688 0.33756691
-6.4209738 0.36207673 0.33704355
-6.4385052 0.40366501 0.33809027
-6.4458046 0.44479692 0.33861363
-6.4428825 0.48528984 0.33861363
-6.4397063 0.52576017 0.33861363
-6.436285 0.56610692 0.33861363
-6.442596 0.60691231 0.33913699
-6.4287648 0.64592743 0.33861363
-6.4245796 0.68630588 0.33861363
-6.4300637 0.7277838 0.33913699
-6.425364 0.76816881 0.33913699
-6.3609629 0.80103713 0.33599684
-6.1182041 0.80954778 0.3234362
-6.3603005 0.88217324 0.3365202
-6.3744783 0.92443162 0.33756691
-6.0822716 0.92067242 0.32238948
-6.0763669 0.9588685 0.32238948
-6.0702219 0.9970299 0.32238948
-6.063838 1.0351487 0.32238948
-6.0768805 1.0767145 0.3234362
-6.0896397 1.1184816 0.32448292
-6.0628705 1.1529919 0.3234362
-6.0555067 1.1910615 0.3234362
-6.0479031 1.2290874 0.3234362
-6.0498352 1.2691116 0.32395956
-6.0417414 1.3071002 0.32395956
-6.0431566 1.347207 0.32448292
-6.0443063 1.3873829 0.32500628
-5.8896861 1.390903 0.3171559
-5.706152 1.3854705 0.30773541
-5.5326157 1.3802024 0.29883832
-5.3593769 1.3728129 0.28994119
-5.1961145 1.3658384 0.28156745
-5.042799 1.3594702 0.27371705
-4.8994002 1.3538883 0.26639003
-2.8357425 1.266559 0.16276482
-2.7822878 1.263656 0.16014802
-2.7290714 1.2599418 0.15753123
-2.6850293 1.2599037 0.15543778
-2.6319921 1.2552544 0.15282099
-2.5881069 1.2543461 0.15072756
-2.5443392 1.2529352 0.14863411
-2.5006919 1.2510258 0.14654067
-2.4482687 1.2440927 0.14392388
-2.4137805 1.2457123 0.1423538
-2.3705251 1.2423112 0.14026035
-2.3274088 1.2384177 0.13816692
-2.2932231 1.2387774 0.13659684
-2.2591252 1.2387581 0.13502677
-2.2251196 1.2383585 0.13345669
-2.1825135 1.2326713 0.13136324
-2.1573973 1.2364283 0.13031653
-2.1236877 1.2348988 0.12874645
-2.0900836 1.2329952 0.12717637
-2.0566077 1.2306857 0.1256063
-2.0233312 1.2278625 0.12403622
-1.9901491 1.2247075 0.12246613
-1.9654715 1.2266129 0.12141941
-1.9408484 1.2282581 0.1203727
-1.9078789 1.2242485 0.11880262
-1.8750366 1.2198747 0.11723254
-1.8506626 1.2206346 0.11618582
-1.8263531 1.2211378 0.1151391
-1.7938451 1.2157804 0.11356902
-1.769708 1.2157189 0.1125223
-1.7456439 1.2154015 0.11147559
-1.729813 1.2205887 0.11095223
-1.7058637 1.2198155 0.1099055
-1.6739066 1.2129304 0.10833543
-1.6501538 1.2116029 0.10728871
-1.6264837 1.2100261 0.10624199
-1.5949253 1.2021885 0.10467191
-1.5794032 1.2061254 0.10414855
-1.5559971 1.2038035 0.10310183
-1.5405625 1.2073711 0.10257848
-1.5174086 1.2044761 0.10153175
-1.5021133 1.2076228 0.10100839
-1.4790094 1.2044247 0.099961676
-1.4560049 1.2009853 0.098914959
-1.4407668 1.2037069 0.098391593
-1.4255517 1.2062854 0.097868234
-1.4027793 1.2022212 0.096821517
-1.387656 1.2044656 0.096298158
-1.3650604 1.1999738 0.095251441
-1.3500354 1.2018864 0.094728082
-1.3350406 1.2036577 0.094204716
-1.3127017 1.1985557 0.093157999
-1.2978131 1.1999999 0.092634641
-1.2829777 1.2012842 0.092111282
-1.2682626 1.20234 0.091587923
-1.2463597 1.1963652 0.090541206
-1.2244968 1.1902514 0.089494482
-1.2098769 1.1909164 0.088971123
-1.1952978 1.1914445 0.088447765
-1.1807597 1.1918373 0.087924406
-1.1662645 1.192094 0.087401047
-1.1518124 1.1922166 0.086877689
-1.1374058 1.1922042 0.086354323
-1.1230444 1.1920589 0.085830964
-1.1087306 1.1917799 0.085307606
-1.0944649 1.1913682 0.084784247
-1.0802485 1.1908246 0.084260888
-1.0727447 1.1975888 0.084260888
-1.0519669 1.1893448 0.083214171
-1.0444731 1.1959312 0.083214171
-1.0238953 1.1873446 0.082167447
-1.0164144 1.1937547 0.082167447
-1.0024681 1.1924731 0.081644088
1.0084753 1.0804527 0.077457212
1.0220094 1.0814415 0.07798057
1.0356119 1.082287 0.078503937
1.049341 1.0829304 0.079027295
1.0561244 1.0763159 0.079027295
1.069905 1.0767426 0.079550654
1.0837325 1.0770385 0.080074012
1.0976057 1.0772028 0.080597371
1.1115234 1.077235 0.081120729
1.1254843 1.0771346 0.081644088
1.1394702 1.0769197 0.082167447
1.1534209 1.0766532 0.082690813
1.1674471 1.0762168 0.083214171
1.1816648 1.0754796 0.08373753
1.1958849 1.0746439 0.084260888
1.2099894 1.0738423 0.084784247
1.2166544 1.0662849 0.084784247
1.2309744 1.0650467 0.085307606
1.2528862 1.0701959 0.086354323
1.2671262 1.0688515 0.086877689
1.2737417 1.0609591 0.086877689
1.295809 1.065621 0.087924406
1.3024789 1.0574583 0.087924406
1.3246819 1.0617448 0.088971123
1.3469895 1.0657936 0.09001784
1.3536594 1.0573094 0.09001784
1.360276 1.0487832 0.09001784
1.3827322 1.0523112 0.091064565
1.3958759 1.0672278 -0.34154809
1.4182249 1.0702623 -0.34536427
1.4249215 1.0613303 -0.34536427
1.4473803 1.0639846 -0.34918046
1.4619825 1.0606338 -0.35108855
1.4845809 1.0628557 -0.35490471
1.4992471 1.0591708 -0.3568128
1.521978 1.060957 -0.36062899
1.536702 1.056936 -0.36253709
1.5595579 1.0582837 -0.36635327
1.5824677 1.0594199 -0.37016943
1.6053828 1.0604154 -0.37398562
1.6201694 1.0557723 -0.37589371
1.6350287 1.0508791 -0.37780181
1.6581811 1.0510962 -0.38161799
1.6813999 1.0510635 -0.38543415
1.6963271 1.0456291 -0.38734224
1.7280289 1.050245 -0.39306653
1.743014 1.0444124 -0.39497462
1.7664456 1.0434251 -0.39879081
1.789933 1.0421841 -0.40260696
1.8049597 1.0358031 -0.40451506
1.8285211 1.0341064 -0.40833125
1.8521318 1.0321541 -0.41214743
1.8757896 1.0299455 -0.41596359
1.899492 1.02748 -0.41977978
1.9232367 1.0247569 -0.42359596
1.9470216 1.0217757 -0.42741215
1.9795648 1.0230426 -0.4331364
2.0034511 1.0194883 -0.43695259
2.0361466 1.0200708 -0.44267687
2.0601234 1.0159407 -0.44649303
2.092937 1.0158808 -0.45221731
2.1257634 1.0155884 -0.45794159
2.1586874 1.0148809 -0.46366584
2.2006595 1.0177798 -0.47129822
2.2248814 1.012062 -0.47511441
2.2670388 1.0140958 -0.48274675
2.6056314 -1.2177954 -0.55907035
2.5713284 -1.2215066 -0.5533461
2.5282426 -1.2205677 -0.54571372
2.5293367 -1.2407521 -0.54762179
2.5566616 -1.2740779 -0.55525416
2.5312016 -1.2810287 -0.55143797
2.5668414 -1.319177 -0.56097841
2.5672047 -1.3398206 -0.56288654
2.5761125 -1.3650612 -0.56670272
2.5676055 -1.380996 -0.56670272
2.5503531 -1.3922306 -0.5647946
2.5329688 -1.4034699 -0.56288654
2.5241005 -1.4193572 -0.56288654
2.498081 -1.4254584 -0.55907035
2.4890754 -1.4411258 -0.55907035
2.4968996 -1.4666802 -0.56288654
2.4792025 -1.4773145 -0.56097841
2.4614706 -1.4877847 -0.55907035
2.4018927 -1.4723864 -0.54762179
2.37605 -1.4768757 -0.5438056
2.3502119 -1.4811534 -0.53998947
2.3325877 -1.490605 -0.53808135
2.2984612 -1.4892185 -0.5323571
2.2562408 -1.4820733 -0.52472472
2.2223728 -1.479898 -0.51900047
2.188622 -1.4773561 -0.51327616
2.1550241 -1.4744022 -0.50755191
2.1297135 -1.4765401 -0.50373572
2.0883632 -1.4671813 -0.49610338
2.0631101 -1.4688872 -0.49228719
2.037919 -1.4703341 -0.48847103
2.0048673 -1.4657294 -0.48274675
1.9798745 -1.4665682 -0.47893056
1.9550468 -1.4670237 -0.47511441
1.9302577 -1.4672706 -0.47129822
1.8976686 -1.4614017 -0.46557394
1.87297 -1.4612198 -0.46175775
1.8406478 -1.454699 -0.4560335
1.8238083 -1.4601005 -0.4541254
1.7993495 -1.4591651 -0.45030922
1.7750069 -1.4579418 -0.44649303
1.7508459 -1.4563571 -0.44267687
1.7267418 -1.4545666 -0.43886068
1.702633 -1.4526448 -0.4350445
1.6786489 -1.4504414 -0.43122831
1.6622423 -1.4543502 -0.42932025
1.6458201 -1.4581478 -0.42741215
1.6147068 -1.4487931 -0.42168787
1.5983069 -1.4523085 -0.41977978
1.5819268 -1.4556754 -0.41787168
1.5583863 -1.4522017 -0.41405553
1.5420918 -1.4552275 -0.41214743
1.5187243 -1.4513242 -0.40833125
1.5095755 -1.460838 -0.40833125
1.4863766 -1.4565204 -0.40451506
1.4703553 -1.4587882 -0.40260696
1.4543313 -1.4609452 -0.40069887
1.4313601 -1.4560536 -0.39688271
1.4153777 -1.457944 -0.39497462
1.3927294 -1.452515 -0.39115843
1.3836713 -1.4611465 -0.39115843
1.3610539 -1.4554718 -0.38734224
1.3452544 -1.4567536 -0.38543415
1.3229731 -1.450555 -0.38161799
1.3073589 -1.4514589 -0.3797099
1.2916896 -1.4523097 -0.37780181
1.2695841 -1.4456455 -0.37398562
1.2604759 -1.453594 -0.37398562
1.2385492 -1.4465719 -0.37016943
1.2230985 -1.4468288 -0.36826137
1.2077252 -1.4469227 -0.36635327
1.1987368 -1.454378 -0.36635327
1.2020632 -1.4770303 -0.37016943
1.2050556 -1.4998586 -0.37398562
1.2078413 -1.5227559 -0.37780181
1.1862785 -1.5147535 -0.37398562
1.1828417 -1.5298659 -0.37589371
1.173206 -1.5372677 -0.37589371
1.1517115 -1.5289274 -0.37207752
1.7126632 -2.6332426 -0.61058879
1.7226443 -2.6852255 -0.62012923
1.7322191 -2.7373223 -0.62966967
1.7359558 -2.7813492 -0.63730204
1.7338811 -2.8172812 -0.64302629
1.7263303 -2.8449039 -0.64684248
1.7185004 -2.8725424 -0.65065867
1.7254145 -2.9255226 -0.66019911
1.717124 -2.9531286 -0.66401529
1.7182549 -2.9978142 -0.67164767
1.7138687 -3.0341921 -0.67737192
1.7138666 -3.0792093 -0.68500429
1.7039256 -3.1071312 -0.68882048
1.7216961 -3.1868677 -0.70408517
1.7154731 -3.2236195 -0.70980942
1.7089267 -3.2603805 -0.71553373
1.702202 -3.2970738 -0.72125798
1.6994644 -3.3425946 -0.72889036
1.696004 -3.3883188 -0.73652273
1.6964501 -3.442898 -0.74606317
1.6922215 -3.4886715 -0.75369555
1.6874139 -3.53456 -0.76132786
1.6630907 -3.7832432 -0.80330586
1.6626509 -3.8476834 -0.81475437
1.6576281 -3.9032304 -0.82429487
1.6557523 -3.9679236 -0.83574337
1.6270652 -3.9691658 -0.8338353
1.6020943 -3.9793105 -0.8338353
1.5734512 -3.9801695 -0.83192718
1.541396 -3.9716408 -0.82811105
1.5097681 -3.962769 -0.82429487
1.4816622 -3.9628849 -0.82238674
1.4499737 -3.9536841 -0.81857055
1.421868 -3.9534483 -0.81666249
1.3973458 -3.962182 -0.81666249
1.366269 -3.9522386 -0.8128463
1.3382607 -3.9514475 -0.81093824
1.3103163 -3.9504609 -0.80903012
1.2824373 -3.9492795 -0.80712205
-1.0019317 -1.3345088 -0.32437527
-1.0161233 -1.3360885 -0.32628337
-1.0304017 -1.3375211 -0.32819146
-1.0448247 -1.3387589 -0.33009955
-1.0532157 -1.3321677 -0.33009955
-1.0677013 -1.3331859 -0.33200765
-1.082212 -1.334098 -0.33391574
-1.0966882 -1.3349522 -0.33582383
-1.1049672 -1.3281076 -0.33582383
-1.1196157 -1.3286451 -0.33773193
-1.1343142 -1.3290508 -0.33963999
-1.1490618 -1.3293239 -0.34154809
-1.1638573 -1.3294638 -0.34345618
-1.1786997 -1.32947 -0.34536427
-1.1870009 -1.3220637 -0.34536427
-1.2083756 -1.3292109 -0.34918046
-1.2232649 -1.3288941 -0.35108855
-1.2315905 -1.3211819 -0.35108855
-1.2533442 -1.3276938 -0.35490471
-1.2616615 -1.3197927 -0.35490471
-1.2835553 -1.3259733 -0.3587209
-1.2917465 -1.3179948 -0.3587209
-1.3068308 -1.3169055 -0.36062899
-1.3220373 -1.3155926 -0.36253709
-1.3372788 -1.3141404 -0.36444518
-1.352554 -1.3125484 -0.36635327
-1.3678615 -1.3108159 -0.36826137
-1.3903304 -1.3156898 -0.37207752
-1.3985696 -1.3069282 -0.37207752
-1.4139677 -1.3047719 -0.37398562
-1.436621 -1.3091165 -0.37780181
-1.452001 -1.306757 -0.3797099
-1.467435 -1.3042247 -0.38161799
-1.4829787 -1.3014538 -0.38352609
-1.5059637 -1.3049672 -0.38734224
-1.521592 -1.3018609 -0.38925034
-1.5372123 -1.298643 -0.39115843
-1.5603043 -1.3016703 -0.39497462
-1.5759441 -1.2981851 -0.39688271
-1.5993011 -1.3006446 -0.40069887
-1.6151245 -1.2966806 -0.40260696
-1.6387395 -1.2985581 -0.40642315
-1.6546826 -1.2941757 -0.40833125
-1.6705515 -1.2897524 -0.41023934
-1.6864017 -1.2852174 -0.41214743
-1.7021765 -1.2806456 -0.41405553
-1.7258675 -1.2817428 -0.41787168
-1.7497214 -1.2824798 -0.42168787
-1.7656705 -1.2772524 -0.42359596
-1.7975175 -1.2833997 -0.42932025
-1.8134868 -1.2778528 -0.43122831
-1.8375993 -1.2776406 -0.4350445
-1.8617799 -1.2771753 -0.43886068
-1.8860267 -1.2764561 -0.44267687
-2.0745456 -1.3292803 -0.47893056
-2.1077223 -1.331997 -0.48465484
-2.132596 -1.3292969 -0.48847103
-2.1575451 -1.3262929 -0.49228719
-2.1826251 -1.3228866 -0.49610338
-2.2161734 -1.3242522 -0.50182766
-2.2413661 -1.3202658 -0.50564384
-2.2665956 -1.3160146 -0.50946003
-2.2918594 -1.3114983 -0.51327616
-2.3257058 -1.3115377 -0.51900047
-3.0874813 -1.6158981 -0.67737192
-3.1323698 -1.6146607 -0.68500429
-3.1774664 -1.6127187 -0.69263667
-3.222661 -1.610273 -0.70026898
-3.2503321 -1.5986575 -0.70408517
-3.3044901 -1.5995885 -0.71362561
-3.3499243 -1.5956798 -0.72125798
-3.4043269 -1.5954282 -0.73079842
-4.6977825 -1.5200603 -0.95976925
-4.8008237 -1.5201459 -0.97885013
-4.8852615 -1.5132934 -0.99411488
-4.9469399 1.3357114 -0.99602294
-4.8060007 1.330112 -0.96930969
-2.8576515 1.2562066 -0.6067726
-2.8048959 1.2541026 -0.59723216
-2.7523086 1.2513258 -0.58769172
-2.7088594 1.2518831 -0.58005935
-2.6565983 1.2478356 -0.57051891
-2.613271 1.2475871 -0.56288654
-2.5612221 1.2425579 -0.5533461
-2.5181451 1.2412663 -0.54571372
-2.4751875 1.2394817 -0.53808135
-2.4323528 1.2372082 -0.53044897
-2.3983674 1.2389503 -0.52472472
-2.3557639 1.2357558 -0.51709235
-2.3219612 1.2366889 -0.5113681
-2.2709703 1.22791 -0.50182766
-2.2373946 1.227985 -0.49610338
-2.203908 1.2276882 -0.4903791
-2.1705148 1.2270186 -0.48465484
-2.1372185 1.2259784 -0.47893056
-2.1040218 1.2245687 -0.47320631
-2.0709274 1.222792 -0.46748203
-2.0379667 1.2206028 -0.46175775
-2.0051949 1.2179191 -0.4560335
-1.9725089 1.2149198 -0.45030922
-1.948185 1.2168891 -0.44649303
-1.9239155 1.2186002 -0.44267687
-1.8914418 1.2147511 -0.43695259
-1.8673202 1.215898 -0.4331364
-1.8432589 1.2167913 -0.42932025
-1.8274194 1.2228889 -0.42741215
-1.7953284 1.2178159 -0.42168787
-1.7714638 1.2179488 -0.41787168
-1.7476684 1.2178314 -0.41405553
-1.7159274 1.2117999 -0.40833125
-1.7002972 1.2168441 -0.40642315
-1.6767253 1.215977 -0.40260696
-1.6532313 1.2148631 -0.39879081
-1.6298188 1.2135015 -0.39497462
-1.6064886 1.211895 -0.39115843
-1.5910435 1.2160037 -0.38925034
-1.5678481 1.2139574 -0.38543415
-1.544769 1.2116337 -0.38161799
-1.5295459 1.2150761 -0.3797099
-1.506665 1.212256 -0.37589371
-1.4914089 1.2154975 -0.37398562
-1.4686024 1.2123455 -0.37016943
-1.453425 1.2152528 -0.36826137
-1.4382701 1.2180166 -0.36635327
-1.4156864 1.2142483 -0.36253709
-1.4006188 1.2166815 -0.36062899
-1.3782067 1.2124896 -0.3568128
-1.3632324 1.2145947 -0.35490471
-1.3555737 1.2231364 -0.35490471
-1.3333689 1.2183859 -0.35108855
-1.3184822 1.220073 -0.34918046
-1.2964915 1.21488 -0.34536427
-1.2818179 1.2161336 -0.34345618
-1.2671522 1.2172798 -0.34154809
-1.2524424 1.2183731 -0.33963999
-1.2377697 1.2193291 -0.33773193
-1.2161844 1.2132171 -0.33391574
-1.201632 1.2138581 -0.33200765
-1.1802572 1.2073456 -0.32819146
-1.1726482 1.2147372 -0.32819146
-1.151446 1.2078712 -0.32437527
-1.1371058 1.2079343 -0.32246721
-1.1228107 1.207865 -0.32055911
-1.1085616 1.2076641 -0.31865102
-1.0943589 1.2073328 -0.31674293
-1.0802051 1.2068703 -0.31483483
-1.0660999 1.2062786 -0.31292674
-1.0520457 1.2055569 -0.31101865
-1.0380422 1.204707 -0.30911058
-1.0240918 1.2037286 -0.30720249
-1.0101944 1.2026232 -0.30529439
-1.0026449 1.2089245 -0.30529439
1.0116007 1.0967892 -0.29002967
1.0185196 1.0903672 -0.29002967
1.038746 1.0982993 -0.29384586
1.0455549 1.0918194 -0.29384586
1.0592281 1.0922754 -0.29575393
1.072948 1.0926024 -0.29766202
1.0867134 1.0927999 -0.29957011
1.1005236 1.0928671 -0.30147821
1.1143771 1.0928038 -0.3033863
1.1212214 1.0857805 -0.3033863
1.1351159 1.0854987 -0.30529439
1.1490271 1.0851098 -0.30720249
1.1629066 1.0846653 -0.30911058
1.1768719 1.0840387 -0.31101865
1.1982784 1.0897284 -0.31483483
1.2051488 1.0821253 -0.31483483
1.2265193 1.0876635 -0.31865102
1.233282 1.0799894 -0.31865102
1.2475629 1.0785309 -0.32055911
1.2618279 1.0769889 -0.32246721
1.2759824 1.0754765 -0.32437527
1.2977346 1.0800811 -0.32819146
1.3120795 1.0781379 -0.33009955
1.3264511 1.0760568 -0.33200765
1.340848 1.0738375 -0.33391574
1.355269 1.0714796 -0.33582383
1.3697128 1.0689826 -0.33773193
1.3841788 1.0663459 -0.33963999
1.406479 1.0695115 -0.34345618
1.3774347 1.0522716 0.151651
1.3919733 1.0495939 0.15252255
1.4065322 1.0467747 0.1533941
1.4211104 1.0438139 0.15426566
1.4437723 1.0465577 0.15600878
1.4665241 1.0490574 0.15775189
1.4812251 1.0455672 0.15862344
1.4959399 1.0419334 0.15949501
1.5106671 1.0381558 0.16036656
1.5336511 1.0398245 0.16210967
1.5484064 1.0357485 0.16298124
1.5714228 1.0371095 0.16472435
1.5861949 1.0327458 0.1655959
1.6010348 1.0281421 0.16646747
1.6242952 1.0287226 0.16821058
1.6560749 1.0343281 0.17082526
1.6710234 1.0291264 0.17169681
1.6944865 1.0289481 0.17343992
1.7180128 1.028515 0.17518304
1.7415998 1.0278265 0.17692615
1.7652453 1.0268818 0.17866927
1.7803048 1.0207253 0.17954083
1.8213758 1.0291216 0.18302706
1.8452137 1.0273492 0.18477017
1.8778346 1.0301088 0.18738484
1.9017979 1.0277623 0.18912795
1.9258052 1.0251548 0.19087107
1.9498541 1.0222859 0.19261418
1.9739424 1.0191549 0.19435731
1.9980675 1.0157611 0.19610041
2.0311358 1.0165629 0.19871509
2.0553555 1.012586 0.2004582
2.088541 1.0127479 0.20307288
2.1127567 1.0083698 0.204816
2.1460419 1.0079072 0.20743066
2.1794627 1.0069377 0.21004534
2.2038853 1.0014665 0.21178845
2.246515 1.0038562 0.21527468
7.0917673 0.85160518 0.62490666
7.1167741 0.80928081 0.6266498
7.1118135 0.76348573 0.6257782
7.1065588 0.71778589 0.62490666
7.3886213 0.6994065 0.64931029
7.7401862 0.68364525 0.67981476
8.1514025 0.66837716 0.71554863
8.5428314 0.64669698 0.74953938
8.9541321 0.62206179 0.78527325
9.4549351 0.5977537 0.8288511
10.035363 0.57116729 0.87940145
10.625757 0.53781295 0.93082333
13.107019 0.58085996 1.1478411
13.100455 0.49811655 1.1469696
13.103327 0.41579452 1.1469696
13.095722 0.33320272 1.146098
13.087597 0.25072289 1.1452265
13.078948 0.16871533 1.1443549
13.079742 0.087677486 1.1443549
13.070073 0.0062726997 1.1434833
13.069855 -0.075848714 1.1434833
13.059158 -0.15784673 1.1426117
13.057909 -0.23989633 1.1426117
13.046194 -0.32133475 1.1417402
13.043953 -0.40216026 1.1417402
13.041197 -0.48332804 1.1417402
13.037903 -0.56525838 1.1417402
13.034094 -0.64716464 1.1417402
13.029771 -0.72904706 1.1417402
13.024955 -0.81054521 1.1417402
13.029621 -0.8919118 1.1426117
13.033752 -0.97372133 1.1434833
13.017448 -1.0547906 1.1426117
13.020488 -1.1374273 1.1434833
13.023003 -1.2201439 1.1443549
13.024992 -1.302937 1.1452265
13.006642 -1.3836955 1.1443549
12.987832 -1.4639202 1.1434833
12.998297 -1.5467165 1.1452265
12.978535 -1.6263393 1.1443549
12.977937 -1.7091541 1.1452265
12.986678 -1.7933882 1.1469696
12.975154 -1.8749502 1.1469696
12.973022 -1.9575706 1.1478411
