# .PCD v0.7 - Point Cloud Data file format
VERSION 0.7
FIELDS x y z
SIZE 4 4 4
TYPE F F F
COUNT 1 1 1
WIDTH 1479
HEIGHT 1
VIEWPOINT 0 0 0 1 0 0 0
POINTS 1479
DATA ascii
-2.1807387 -1.2796878 -0.40047222
-2.2143433 -1.2808686 -0.40516526
-2.239397 -1.2769091 -0.40829393
-2.2731798 -1.2773782 -0.41298699
-2.3071949 -1.2772218 -0.41768003
-2.3412569 -1.2767606 -0.42237306
-2.3666344 -1.2713732 -0.42550173
-2.4007249 -1.2704144 -0.43019477
-2.4260666 -1.2646465 -0.43332347
-2.469043 -1.2675546 -0.43958083
-2.5034029 -1.265383 -0.44427386
-2.5289896 -1.2584289 -0.44740257
-2.5634568 -1.2555474 -0.4520956
-2.6068838 -1.2565706 -0.45835298
-2.6504235 -1.2570969 -0.46461037
-2.6851208 -1.2529485 -0.4693034
-2.7198699 -1.2484133 -0.47399643
-2.7636688 -1.2475541 -0.48025379
-2.8075628 -1.2461932 -0.48651117
-2.8515472 -1.2443299 -0.49276856
-4.7105522 -1.5473846 -0.78530103
-4.7954035 -1.5419456 -0.79781574
-4.8803697 -1.5354991 -0.81033051
-4.9748812 -1.53095 -0.8244096
-5.0695248 -1.5252727 -0.8384887
-5.1737657 -1.5212517 -0.85413218
-5.2686596 -1.5132533 -0.86821127
-5.363605 -1.5042959 -0.88229036
-5.4776115 -1.4997256 -0.89949816
-5.5918121 -1.493616 -0.91670597
-5.7157841 -1.4883182 -0.93547809
-5.8399062 -1.4815204 -0.95425022
-5.9737525 -1.4755889 -0.97458673
-6.1077504 -1.468031 -0.99492317
-6.1079011 1.380394 -0.99179447
-5.8970861 1.371752 -0.95894325
-5.6866293 1.3605142 -0.92609203
-5.486145 1.3490493 -0.89480513
-5.2094288 1.3157681 -0.85100347
-5.2297406 1.3559116 -0.8556965
-2.7998347 1.2392545 -0.48494685
-2.7469614 1.2365497 -0.47712511
-2.6942334 1.2332318 -0.4693034
-2.6416581 1.2292994 -0.46148166
-2.5981681 1.2289805 -0.45522428
-2.5547886 1.2281631 -0.44896692
-2.5115225 1.226851 -0.44270954
-2.4683757 1.2250431 -0.43645215
-2.4253519 1.2227434 -0.43019477
-2.3824561 1.2199508 -0.42393738
-2.348455 1.2212262 -0.41924435
-2.3057995 1.2175101 -0.41298699
-2.2719889 1.2179747 -0.40829393
-2.2295899 1.2133405 -0.40203658
-2.1959851 1.2129993 -0.39734355
-2.1624744 1.212283 -0.39265051
-2.1290596 1.2111953 -0.38795745
-2.0957456 1.2097349 -0.38326442
-2.0625343 1.2079055 -0.37857139
-2.0294304 1.205706 -0.37387836
-2.0048954 1.2082378 -0.37074968
-1.9635556 1.2002062 -0.3644923
-1.939186 1.2021123 -0.36136362
-1.9148712 1.2037592 -0.35823491
-1.8822836 1.1998402 -0.35354188
-1.8664128 1.2062814 -0.35197753
-1.8340124 1.2017453 -0.3472845
-1.8099716 1.2023144 -0.34415582
-1.7859958 1.2026302 -0.34102714
-1.762089 1.2026916 -0.33789843
-1.7301291 1.1968822 -0.3332054
-1.7144879 1.2020588 -0.33164105
-1.6827468 1.1956456 -0.32694802
-1.6671861 1.2004231 -0.32538369
-1.6436527 1.1992321 -0.32225499
-1.6202012 1.1977923 -0.31912631
-1.5968329 1.1961063 -0.3159976
-1.5814185 1.2001446 -0.31443328
-1.5581862 1.1980172 -0.31130457
-1.5428363 1.2017143 -0.30974025
-1.5197474 1.1991487 -0.30661154
-1.4967527 1.19634 -0.30348286
-1.4738541 1.1932901 -0.30035415
-1.4586906 1.1962636 -0.29878983
-1.4435476 1.1990944 -0.29722548
-1.4208697 1.1954231 -0.2940968
-1.3982948 1.1915154 -0.29096809
-1.3833038 1.1938242 -0.28940377
-1.3683386 1.1959926 -0.28783941
-1.3460059 1.1914729 -0.28471074
-1.3311385 1.1933141 -0.28314638
-1.3089892 1.1883759 -0.28001767
-1.2942253 1.1898926 -0.27845335
-1.2794951 1.1912702 -0.276889
-1.257651 1.1856936 -0.27376032
-1.2431358 1.1866435 -0.27219597
-1.2286181 1.1875 -0.27063161
-1.2140744 1.1882871 -0.26906729
-1.1995695 1.1889387 -0.26750293
-1.1851046 1.1894552 -0.26593858
-1.1706803 1.1898378 -0.26437426
-1.1562989 1.1900856 -0.2628099
-1.1419214 1.1902379 -0.26124555
-1.1275232 1.1903181 -0.2596812
-1.11321 1.1902266 -0.25811687
-1.0990086 1.1899415 -0.25655252
-1.0848937 1.1894901 -0.25498816
-1.0708923 1.1888508 -0.25342384
-1.0569021 1.1881182 -0.25185949
-1.0428983 1.1873144 -0.25029513
-1.0289459 1.1863824 -0.24873079
-1.0150474 1.1853217 -0.24716645
-1.0012023 1.184134 -0.2456021
1.0091728 1.0846699 -0.2346517
1.0227412 1.0854964 -0.23621604
1.0295414 1.079049 -0.23621604
1.0431638 1.079662 -0.23778038
1.0568342 1.0801461 -0.23934473
1.0636001 1.0734844 -0.23934473
1.0773196 1.0737529 -0.24090907
1.0910841 1.0738912 -0.24247342
1.1048926 1.0738984 -0.24403776
1.1116183 1.0669351 -0.24403776
1.1326371 1.0735184 -0.24716645
1.1393598 1.0663807 -0.24716645
1.1460376 1.0592009 -0.24716645
1.1672609 1.0652955 -0.25029513
1.1812683 1.0645525 -0.25185949
1.1953121 1.0636753 -0.25342384
1.2093914 1.0626633 -0.25498816
1.2235048 1.0615163 -0.25655252
1.2376512 1.0602335 -0.25811687
1.2442884 1.0524362 -0.25811687
1.2660387 1.0572592 -0.26124555
1.2802773 1.0555667 -0.2628099
6.0408235 0.87533909 -0.96676499
6.0559874 0.83872133 -0.96832931
6.041554 0.79806799 -0.96520066
6.0464244 0.76029027 -0.96520066
5.8552022 -1.6166404 -0.96207196
5.8639369 -1.6587746 -0.96520066
5.8723726 -1.7010813 -0.96832931
4.9328833 -1.5983303 -0.82128096
4.7916088 -1.5854263 -0.79938012
3.2460799 -1.5223023 -0.56785709
3.1740401 -1.5129194 -0.5569067
3.0745549 -1.5366032 -0.54439193
3.0119975 -1.5290651 -0.53500587
2.958437 -1.5253288 -0.52718413
2.913794 -1.5255619 -0.52092677
2.8693166 -1.525201 -0.51466936
2.8250418 -1.5241902 -0.508412
2.7721782 -1.5180376 -0.50059026
2.736686 -1.521031 -0.49589723
2.6926641 -1.5187867 -0.48963988
2.6487799 -1.5160499 -0.48338249
2.6135786 -1.5177823 -0.47868946
2.5699515 -1.5141194 -0.47243208
2.5349529 -1.5150359 -0.46773905
2.4915996 -1.5104524 -0.46148166
2.4484541 -1.5053049 -0.45522428
2.4139352 -1.5047718 -0.45053124
2.3794687 -1.5039473 -0.44583821
2.3533409 -1.5082091 -0.44270954
2.3106899 -1.5014397 -0.43645215
1.8934429 -1.3104708 0.28273687
1.7795848 -1.2481771 0.26689386
1.7637265 -1.2534297 0.26567516
1.7397693 -1.2528003 0.26323777
1.7960064 -1.3105109 0.27298734
1.6210637 -1.2623044 0.25226954
1.5819294 -1.2478763 0.24739476
1.5740576 -1.2577912 0.24739476
1.5506939 -1.2551671 0.24495737
1.5274258 -1.2522997 0.24251999
1.5042557 -1.2491899 0.24008261
1.4811854 -1.2458389 0.23764521
1.4657729 -1.2486843 0.23642652
1.4503833 -1.2513855 0.23520783
1.427544 -1.2474117 0.23277044
1.40486 -1.2431473 0.23033306
1.3897386 -1.2452042 0.22911437
1.3745979 -1.2471744 0.22789566
1.3580703 -1.2796687 0.22911437
1.4433544 -1.3772525 0.24495737
1.463223 -1.413882 0.24983215
1.1822511 -1.2315615 0.20961526
1.1677216 -1.231705 0.20839657
1.1599596 -1.2390176 0.20839657
1.145414 -1.2389932 0.20717788
1.1509902 -1.2608263 0.20961526
1.1364479 -1.2606177 0.20839657
1.1484158 -1.289874 0.21205266
1.1600134 -1.3193705 0.21570873
1.1647143 -1.3416232 0.21814612
1.1691809 -1.3639865 0.22058351
1.1541755 -1.3637294 0.21936481
1.1583129 -1.3861872 0.2218022
1.1495808 -1.3934374 0.2218022
1.1533393 -1.4160244 0.22423959
1.1381997 -1.415508 0.2230209
1.1020696 -1.4811009 0.22667697
1.086867 -1.4799962 0.22545828
1.0775465 -1.4867959 0.22545828
1.0681834 -1.4935369 0.22545828
1.0416088 -1.4758912 0.2218022
1.032315 -1.4824066 0.2218022
1.0229805 -1.4888636 0.2218022
1.0080363 -1.487046 0.22058351
-1.0225556 -3.8978407 0.49478951
-1.0499458 -3.9008319 0.49600822
-1.0744772 -3.8941462 0.49600822
-1.1012831 -3.8969655 0.49722692
-1.1283147 -3.8995588 0.4984456
-1.152794 -3.8923924 0.4984456
-1.180106 -3.8945713 0.49966431
-1.2074908 -3.8965602 0.50088298
-1.2318016 -3.8889434 0.50088298
-1.2589288 -3.8906801 0.50210166
-1.2862738 -3.8921804 0.5033204
-1.3107036 -3.8840218 0.5033204
-1.3383143 -3.8850939 0.50453907
-1.36599 -3.8859723 0.50575775
-1.3937296 -3.8866558 0.50697649
-1.4181215 -3.8778224 0.50697649
-1.445926 -3.8781357 0.50819516
-1.4737902 -3.8782523 0.50941384
-1.5017127 -3.8781714 0.51063251
-1.5260502 -3.8686593 0.51063251
-1.0090492 -1.5102918 0.2230209
-1.0240843 -1.5121402 0.22423959
-1.0391823 -1.5138588 0.22545828
-1.0486736 -1.5072997 0.22545828
-1.0638431 -1.5087926 0.22667697
-1.0733021 -1.5020787 0.22667697
-1.0885397 -1.5033445 0.22789566
-1.1037782 -1.5045199 0.22911437
-1.1130787 -1.4976523 0.22911437
-1.1283638 -1.4986132 0.23033306
-1.1437771 -1.4993858 0.23155175
-1.1592448 -1.5000232 0.23277044
-1.1747653 -1.5005251 0.23398913
-1.1841701 -1.4931142 0.23398913
-1.1997446 -1.4933822 0.23520783
-1.2153687 -1.493513 0.23642652
-1.2310418 -1.4935062 0.23764521
-1.2467625 -1.4933611 0.23886392
-1.2625296 -1.493077 0.24008261
-1.2782854 -1.4927022 0.2413013
-1.294012 -1.4922523 0.24251999
-1.3098389 -1.4916143 0.24373868
-1.3191851 -1.483355 0.24373868
-1.3484064 -1.4971627 0.24739476
-1.3845412 -1.517994 0.25226954
-1.3603789 -1.4728092 0.24617606
-1.3628253 -1.4569843 0.24495737
-1.3582469 -1.4340326 0.24251999
-1.3739758 -1.4327533 0.24373868
-1.3967098 -1.4384016 0.24617606
-1.412679 -1.4366746 0.24739476
-1.4076712 -1.4137034 0.24495737
-1.4024311 -1.3908526 0.24251999
-1.4040513 -1.3750687 0.2413013
-1.4055287 -1.3593194 0.24008261
-1.399686 -1.3367512 0.23764521
-1.4008366 -1.3211205 0.23642652
-1.4163731 -1.3190572 0.23764521
-1.4392446 -1.3235691 0.24008261
-1.4622282 -1.3278451 0.24251999
-1.4779321 -1.3252578 0.24373868
-1.4861792 -1.3160026 0.24373868
-1.5092474 -1.319837 0.24617606
-1.5249583 -1.3168895 0.24739476
-1.5483079 -1.3201616 0.24983215
-1.5717582 -1.3231918 0.25226954
-1.595307 -1.3259789 0.25470692
-1.6112796 -1.3222255 0.25592563
-1.6349798 -1.3245714 0.25836301
-1.6510214 -1.3204718 0.25958169
-1.6748657 -1.3223733 0.2620191
-1.6909698 -1.3179252 0.26323777
-1.7149507 -1.319379 0.26567516
-1.7311113 -1.3145803 0.26689386
-1.7552212 -1.3155832 0.26933125
-1.771432 -1.3104317 0.27054992
-1.7956634 -1.3109809 0.27298734
-1.8199207 -1.3113467 0.27542472
-1.8360991 -1.3057979 0.2766434
-1.8604525 -1.3057299 0.27908078
-1.8849397 -1.305316 0.28151819
-1.9094945 -1.3046455 0.28395557
-1.9341147 -1.3037176 0.28639296
-1.9587979 -1.3025314 0.28883034
-1.9835418 -1.3010859 0.29126772
-2.0083444 -1.2993807 0.29370511
-2.0332031 -1.2974145 0.29614249
-2.058116 -1.295187 0.29857987
-2.0830801 -1.2926971 0.30101728
-2.11656 -1.2951248 0.30467334
-2.1501515 -1.2971821 0.30832943
-2.16679 -1.2887205 0.30954814
-2.2005317 -1.2901407 0.3132042
-2.2257326 -1.2863066 0.31564158
-2.2595322 -1.287231 0.31929767
-2.2848711 -1.2827512 0.32173505
-2.3190532 -1.2825804 0.32539114
-2.3532758 -1.2821158 0.32904723
-2.3875215 -1.2813857 0.33270329
-2.4130266 -1.2757285 0.33514068
-2.4472942 -1.274507 0.33879676
-2.4816868 -1.2728142 0.34245285
-2.5162151 -1.2706182 0.34610894
-2.5508122 -1.2680382 0.349765
-2.5854757 -1.2650729 0.35342109
-2.6202011 -1.2617217 0.35707718
-2.6639552 -1.2622334 0.36195195
-2.6988218 -1.2580509 0.36560804
-2.7427619 -1.2576166 0.3704828
-2.7868018 -1.2566791 0.37535757
-2.8309364 -1.2552379 0.38023233
-4.7343307 -1.5531368 0.6117841
-4.8195972 -1.5476363 0.62153363
-4.9049788 -1.5411246 0.63128316
-4.9999533 -1.5365157 0.64225143
-5.0950599 -1.5307733 0.65321964
-5.2093358 -1.5294875 0.66662532
-5.3047104 -1.5213524 0.67759353
-5.4096856 -1.5149605 0.68978047
-5.5242839 -1.5102049 0.70318609
-5.6294942 -1.5013123 0.71537304
-5.7540898 -1.4958792 0.72999734
-5.8884568 -1.4913754 0.74584037
-6.0229888 -1.4852425 0.7616834
-6.1480207 -1.4751576 0.7763077
-6.29249 -1.4680727 0.79336941
-6.4467878 -1.4614202 0.8116498
-6.6109381 -1.4550223 0.83114892
-6.7849636 -1.4486871 0.85186672
-6.7842121 -1.4040178 0.85064799
-6.7929001 -1.361362 0.85064799
-6.8013191 -1.3186561 0.85064799
-6.7899594 -1.2722387 0.84821063
-6.7782845 -1.2260199 0.84577322
-6.7662535 -1.1802539 0.84333587
-6.7636485 -1.1366621 0.84211713
-6.7608042 -1.0928923 0.84089845
-6.7577295 -1.048871 0.83967978
-6.9212651 -1.029759 0.85917884
-7.1732578 -1.0212268 0.88964617
-7.2680478 -0.98816854 0.90061444
-7.1917171 0.24705531 0.88355273
-7.2197747 0.29344827 0.88720882
-7.3665066 0.34578437 0.90548921
-7.3542771 0.39153671 0.90427053
-7.3615799 0.43832505 0.90548921
-7.3685846 0.48522055 0.90670788
-7.3554912 0.53079259 0.90548921
-7.361928 0.57749397 0.90670788
-7.3582082 0.62309796 0.90670788
-7.3640652 0.66985911 0.90792662
-7.3597112 0.71611351 0.90792662
-7.3550663 0.76234353 0.90792662
-7.3106675 0.80419838 0.90305179
-7.1773043 0.83520418 0.88720882
-7.8713737 0.96613353 0.97373605
-7.4615545 0.96346033 0.92376959
-7.0914383 0.96100491 0.87867796
-7.1147408 1.0097284 0.88233405
-7.1082563 1.0544096 0.88233405
-7.1211505 1.1018159 0.88477141
-7.1239858 1.1474963 0.88599008
-7.116694 1.1918842 0.88599008
-7.1090651 1.2365741 0.88599008
-7.1011062 1.2814873 0.88599008
-7.0830426 1.3248723 0.88477141
-7.0842557 1.3715851 0.88599008
-7.0852308 1.4180155 0.88720882
-6.8429003 1.4142925 0.85796016
-6.5911989 1.4055085 0.82749283
-6.3495808 1.3957539 0.79824418
-6.1083555 1.3830172 0.76899552
-5.9062157 1.3763199 0.74462169
-5.7044091 1.3671356 0.72024781
-5.522233 1.3602223 0.69831133
-5.2345309 1.3242944 0.66296923
-5.2357135 1.3596538 0.66418791
-5.2270675 1.3925225 0.66418791
-5.2182145 1.4253389 0.66418791
-2.8924279 1.238351 0.38632581
-2.839092 1.2366807 0.38023233
-2.7858927 1.2343915 0.37413889
-2.7328365 1.2314818 0.36804542
-2.6889513 1.232091 0.36317062
-2.6361713 1.2280053 0.35707718
-2.58355 1.2233073 0.35098371
-2.5400379 1.2222997 0.34610894
-2.4966412 1.2207958 0.34123415
-2.4533658 1.2187941 0.33635938
-2.4102147 1.2162988 0.33148462
-2.3671939 1.2133088 0.32660982
-2.333111 1.2144109 0.32295376
-2.2815588 1.2058561 0.31686029
-2.247699 1.2060894 0.3132042
-2.2139282 1.2059442 0.30954814
-2.1802485 1.205424 0.30589205
-2.1380081 1.1996706 0.30101728
-2.1131775 1.2032584 0.29857987
-2.0797932 1.2016155 0.29492381
-2.0550764 1.2046214 0.29248643
-2.0133429 1.1972177 0.28761163
-1.9887823 1.1995918 0.28517425
-1.9558061 1.1965241 0.28151819
-1.9313812 1.198324 0.27908078
-1.8986114 1.1945777 0.27542472
-1.8743328 1.1958071 0.27298734
-1.8501149 1.1967779 0.27054992
-1.8176591 1.1920499 0.26689386
-1.7936028 1.1924561 0.26445648
-1.7696133 1.1926085 0.2620191
-1.737498 1.1869074 0.25836301
-1.713685 1.1865014 0.25592563
-1.6899471 1.1858425 0.25348824
-1.6743739 1.1906856 0.25226954
-1.63465 1.1779708 0.24739476
-1.6192002 1.1823654 0.24617606
-1.5957818 1.1807083 0.24373868
-1.572448 1.1788049 0.2413013
-1.5492026 1.1766545 0.23886392
-1.5339123 1.1803126 0.23764521
-1.5108101 1.1777223 0.23520783
-1.4955907 1.1810409 0.23398913
-1.4726393 1.178014 0.23155175
-1.4497857 1.1747459 0.22911437
-1.4347041 1.1775346 0.22789566
-1.4120119 1.1738361 0.22545828
-1.389424 1.1698986 0.2230209
-1.3744934 1.1721654 0.2218022
-1.3595901 1.1742903 0.22058351
-1.3372434 1.1697402 0.21814612
-1.3224382 1.1715373 0.21692742
-1.307663 1.1731954 0.21570873
-1.29292 1.1747136 0.21449004
-1.2709051 1.1693733 0.21205266
-1.2490096 1.1638025 0.20961526
-1.2417172 1.17158 0.20961526
-1.2272573 1.1723952 0.20839657
-1.2127901 1.1731229 0.20717788
-1.198305 1.1737741 0.20595919
-1.1768131 1.1673002 0.2035218
-1.1624532 1.167637 0.20230311
-1.1481351 1.1678402 0.20108442
-1.1338612 1.1679094 0.19986571
-1.1195867 1.1678891 0.19864702
-1.1053014 1.1677889 0.19742833
-1.0911072 1.1675131 0.19620964
-1.077019 1.1670513 0.19499095
-1.0697097 1.1737546 0.19499095
-1.0491363 1.1656055 0.19255356
-1.0418496 1.1721231 0.19255356
-1.0213702 1.1637262 0.19011617
-1.0140378 1.170121 0.19011617
-1.0002131 1.1689274 0.18889748
1.0009626 1.061546 0.17914793
1.0144672 1.0624143 0.18036662
1.0211226 1.0560192 0.18036662
1.0346816 1.0566744 0.18158531
1.0413004 1.0501524 0.18158531
1.0549109 1.050593 0.18280402
1.0685678 1.0509038 0.18402271
1.0822698 1.051084 0.1852414
1.0888525 1.0442632 0.1852414
1.1025988 1.0442263 0.18646009
1.1163874 1.0440575 0.18767878
1.130217 1.0437564 0.18889748
1.1440867 1.0433223 0.19011617
1.1653709 1.0493968 0.19255356
1.1793588 1.0486492 0.19377226
1.1859243 1.0412184 0.19377226
1.2074423 1.0467496 0.19620964
1.2139953 1.0391424 0.19620964
1.235662 1.0443078 0.19864702
1.24982 1.0428823 0.19986571
1.2640086 1.04132 0.20108442
6.0161757 0.9079814 0.74705905
6.0021152 0.86732388 0.74462169
6.036943 0.83366781 0.74827778
6.0322213 0.79442513 0.74705905
6.0469131 0.75797331 0.74827778
6.0416374 0.71931899 0.74705905
6.6180568 0.74613506 0.8177433
6.5732656 0.69928902 0.8116498
6.8639646 0.68636262 0.8469919
7.1646667 0.67036182 0.88355273
7.4950457 0.65371341 0.92376959
7.8056374 0.63209724 0.9615491
8.1855459 0.61152351 1.0078595
8.6150265 0.58920187 1.0602633
9.0742521 0.56335127 1.1163231
9.5731163 0.53396302 1.1772579
12.024853 0.59541106 1.4782751
12.028312 0.52089441 1.4782751
12.041244 0.44626716 1.4794939
12.033889 0.37029609 1.4782751
12.026055 0.29443505 1.4770564
12.017744 0.2186871 1.4758377
12.008956 0.14305522 1.474619
11.999693 0.067543991 1.4734004
11.999881 -0.0078532631 1.4734004
11.999594 -0.08325021 1.4734004
11.988915 -0.15805449 1.4721817
11.987706 -0.23233402 1.4721817
11.986025 -0.30706111 1.4721817
11.993779 -0.38268161 1.4734004
11.98122 -0.457654 1.4721817
11.978108 -0.53292483 1.4721817
11.974524 -0.60817462 1.4721817
11.970466 -0.68340039 1.4721817
11.965964 -0.75814188 1.4721817
11.961038 -0.8322677 1.4721817
11.965513 -0.90756756 1.4734004
11.959575 -0.98273081 1.4734004
11.953164 -1.0578552 1.4734004
11.956162 -1.133875 1.474619
11.938928 -1.2079759 1.4734004
11.94097 -1.2840258 1.474619
11.932719 -1.3585714 1.474619
11.933927 -1.4336636 1.4758377
11.934605 -1.5092789 1.4770564
11.924886 -1.5842345 1.4770564
11.924527 -1.660498 1.4782751
11.92368 -1.7368195 1.4794939
11.912533 -1.8117036 1.4794939
11.910717 -1.8880701 1.4807125
11.908487 -1.9640301 1.4819312
11.719996 -2.0076122 1.4599947
11.11114 -1.9746937 1.3856544
10.532363 -1.9401765 1.3149701
10.003228 -1.9077654 1.2503794
9.5431032 -1.8822299 1.1943195
9.0350828 -1.8410823 1.1321661
8.7416611 -1.8385719 1.096824
8.3807383 -1.8177224 1.0529511
8.0688696 -1.8032367 1.0151716
7.7769399 -1.7890605 0.97982949
7.4952583 -1.773229 0.94570607
7.2429485 -1.7612888 0.91523874
7.0006313 -1.7490231 0.88599008
6.7588301 -1.733526 0.85674149
6.5463843 -1.7223362 0.83114892
6.33428 -1.7088236 0.80555636
6.1416554 -1.6983271 0.78240114
5.8921227 -1.6692469 0.75193381
5.852921 -1.6979382 0.74827778
4.9848456 -1.6173 0.64347011
4.8993545 -1.6231827 0.63372058
4.766912 -1.6123515 0.61787754
11.795307 -4.746542 1.5611463
11.802226 -4.8350325 1.5660211
11.771614 -4.909091 1.5660211
11.786411 -5.0018954 1.5721145
11.791644 -5.0905633 1.5769893
3.1342607 -1.5436279 0.42898008
3.1068234 -1.5542554 0.4265427
3.0704508 -1.5602561 0.42288661
3.0164862 -1.5567578 0.41679314
2.9714799 -1.5572511 0.41191837
2.9178848 -1.5524671 0.4058249
2.864543 -1.5469351 0.39973143
2.8200285 -1.5456802 0.39485666
2.7755666 -1.5440675 0.3899819
2.7312376 -1.5419579 0.38510713
2.6870461 -1.5393529 0.38023233
2.6515775 -1.5412421 0.37657627
2.599093 -1.5326637 0.3704828
2.5638583 -1.5336782 0.36682671
2.5287147 -1.5343106 0.36317062
2.4937239 -1.5344676 0.35951456
2.450485 -1.5288736 0.35463977
2.4157422 -1.5282018 0.35098371
2.3810291 -1.5272733 0.34732762
2.3547447 -1.531381 0.34489024
1.8411261 -1.2814039 0.27542472
1.8276547 -1.266 -0.27298734
1.75473 -1.2317582 -0.26323777
1.7389761 -1.2368541 -0.2620191
1.7231728 -1.2418771 -0.26080039
1.7073202 -1.2468259 -0.25958169
1.691474 -1.2516247 -0.25836301
1.6597521 -1.2443662 -0.25470692
1.6440516 -1.2486945 -0.25348824
1.6205497 -1.2467526 -0.25105083
1.5970814 -1.2446374 -0.24861346
1.5814391 -1.2484976 -0.24739476
1.5658122 -1.2522099 -0.24617606
1.5964754 -1.293262 -0.25226954
1.5959915 -1.3095629 -0.25348824
1.6182647 -1.3449416 -0.25836301
1.6097826 -1.3550824 -0.25836301
1.6087893 -1.3716102 -0.25958169
1.6076523 -1.3881778 -0.26080039
1.6213125 -1.4178535 -0.26445648
1.6867404 -1.4937454 -0.2766434
1.6626734 -1.4909153 -0.27420601
1.6533388 -1.50126 -0.27420601
1.6292609 -1.4981824 -0.27176863
1.6125522 -1.5016253 -0.27054992
1.5886427 -1.4981087 -0.26811254
1.5648426 -1.4943508 -0.26567516
1.548287 -1.4972541 -0.26445648
1.2032149 -1.2389139 -0.21205266
1.1886445 -1.2391825 -0.21083397
1.1740639 -1.2393689 -0.20961526
1.1662533 -1.2467216 -0.20961526
1.1516623 -1.2467335 -0.20839657
1.1438059 -1.2539454 -0.20839657
1.1492457 -1.2758069 -0.21083397
1.1545135 -1.2977341 -0.21327135
1.1529443 -1.3123695 -0.21449004
1.1511799 -1.327085 -0.21570873
1.1557318 -1.3493689 -0.21814612
1.147231 -1.3566036 -0.21814612
1.1514074 -1.3790228 -0.22058351
1.1490334 -1.3938888 -0.2218022
1.1465182 -1.4087788 -0.2230209
1.1014882 -1.4815334 -0.22667697
1.0921574 -1.4884253 -0.22667697
1.0653199 -1.4711407 -0.2230209
1.0618259 -1.485881 -0.22423959
1.0467494 -1.4844115 -0.2230209
1.0260638 -1.4746647 -0.22058351
1.0167783 -1.4810822 -0.22058351
1.0018864 -1.4792237 -0.21936481
-1.0190636 -3.8782339 -0.49235213
-1.0437483 -3.8716636 -0.49235213
-1.0706986 -3.8745959 -0.49357083
-1.0946833 -3.8678877 -0.49357083
-1.121559 -3.8705153 -0.49478951
-1.1486772 -3.8729081 -0.49600822
-1.1729897 -3.8656139 -0.49600822
-1.2001954 -3.8676474 -0.49722692
-1.2243052 -3.8600831 -0.49722692
-1.2512573 -3.8618658 -0.4984456
-1.2784472 -3.8634064 -0.49966431
-1.3058746 -3.8647003 -0.50088298
-1.3301303 -3.8564193 -0.50088298
-1.3576307 -3.857348 -0.50210166
-1.3818393 -3.8487418 -0.50210166
-1.4094069 -3.849304 -0.5033204
-1.4405071 -3.8589699 -0.50575775
-1.4647241 -3.8498433 -0.50575775
-1.492473 -3.849818 -0.50697649
-1.0001355 -1.5162092 -0.2230209
-1.009642 -1.5098956 -0.2230209
-1.0302472 -1.5199537 -0.22545828
-1.0397766 -1.5134509 -0.22545828
-1.0549374 -1.5150329 -0.22667697
-1.0644354 -1.5083749 -0.22667697
-1.0796657 -1.5097303 -0.22789566
-1.094954 -1.510954 -0.22911437
-1.110235 -1.5120929 -0.23033306
-1.1195823 -1.5051851 -0.23033306
-1.1349254 -1.506097 -0.23155175
-1.150389 -1.5068256 -0.23277044
-1.1659063 -1.5074189 -0.23398913
-1.1814759 -1.5078766 -0.23520783
-1.1970978 -1.5081974 -0.23642652
-1.20655 -1.5006464 -0.23642652
-1.2222232 -1.5007316 -0.23764521
-1.237944 -1.5006794 -0.23886392
-1.253713 -1.5004879 -0.24008261
-1.2695274 -1.500158 -0.2413013
-1.2853222 -1.4997436 -0.24251999
-1.4082261 -1.4131508 -0.24495737
-1.4170777 -1.4042745 -0.24495737
-1.404591 -1.3745173 -0.2413013
-1.4060625 -1.3587673 -0.24008261
-1.4073912 -1.3430541 -0.23886392
-1.4085789 -1.3273772 -0.23764521
-1.4241569 -1.3252627 -0.23886392
-1.4397645 -1.3230036 -0.24008261
-1.4553988 -1.3206013 -0.2413013
-1.4710603 -1.3180537 -0.24251999
-1.4866887 -1.3154269 -0.24373868
-1.5097587 -1.319252 -0.24617606
-1.5405045 -1.3292592 -0.24983215
-1.5488263 -1.3195534 -0.24983215
-1.5722774 -1.3225747 -0.25226954
-1.5958278 -1.3253521 -0.25470692
-1.6041234 -1.3152995 -0.25470692
-1.6277854 -1.3176841 -0.2571443
-1.643786 -1.3136272 -0.25836301
-1.6675925 -1.3155677 -0.26080039
-1.6836561 -1.3111628 -0.2620191
-1.6997306 -1.306607 -0.26323777
-1.7237202 -1.307901 -0.26567516
-1.7477933 -1.3089439 -0.26811254
-1.7639645 -1.3038366 -0.26933125
-1.7881596 -1.304426 -0.27176863
-1.8043183 -1.2990432 -0.27298734
-1.836605 -1.3050864 -0.2766434
-1.8528384 -1.2993007 -0.2778621
-1.8772901 -1.2989279 -0.28029948
-1.9018091 -1.2982998 -0.28273687
-1.9263942 -1.2974132 -0.28517425
-1.9510419 -1.2962697 -0.28761163
-1.9757514 -1.2948661 -0.29004905
-2.0088544 -1.2985921 -0.29370511
-2.0337126 -1.2966157 -0.29614249
-2.0502217 -1.2890958 -0.2973612
-2.0751522 -1.2866485 -0.29979858
-2.1001318 -1.2839395 -0.30223596
-2.1336596 -1.2860897 -0.30589205
-2.1587632 -1.2827995 -0.30832943
-2.1839097 -1.279243 -0.31076682
-2.2176352 -1.2804816 -0.31442291
-2.2427785 -1.2765359 -0.31686029
-2.2767248 -1.2769859 -0.32051638
-2.3021886 -1.2720566 -0.32295376
-2.3363438 -1.271701 -0.32660982
-2.3617823 -1.2663774 -0.32904723
-2.3959675 -1.2655227 -0.33270329
-2.4301775 -1.2643969 -0.33635938
-2.4645195 -1.2627877 -0.34001547
-2.4989905 -1.2606887 -0.34367153
-2.5335307 -1.2582072 -0.34732762
-2.5770552 -1.2596984 -0.35220239
-2.6028075 -1.2520876 -0.35463977
-2.6465085 -1.252694 -0.35951456
-2.6723223 -1.2444216 -0.36195195
-2.725208 -1.2482724 -0.36804542
-2.7601459 -1.2433553 -0.37170148
-2.804204 -1.2420669 -0.37657627
-2.8392532 -1.2363107 -0.38023233
-4.7160759 -1.5450966 -0.60934669
-4.801302 -1.5396812 -0.61909628
-4.8866429 -1.5332562 -0.62884581
-4.9720902 -1.525816 -0.63859534
-5.0766468 -1.5230687 -0.65078229
-5.1813626 -1.5190638 -0.66296923
-5.2766814 -1.5110725 -0.67393744
-5.3815956 -1.5048469 -0.68612438
-5.4865675 -1.497611 -0.69831133
-5.6013093 -1.4914408 -0.71171695
-5.7258554 -1.4861382 -0.72634125
-5.8505511 -1.4793314 -0.7409656
-5.9850211 -1.4733845 -0.75680864
-6.1196418 -1.4658082 -0.77265161
-6.2737327 -1.4610965 -0.790932
-6.428 -1.4545083 -0.80921245
-6.5727324 -1.443905 -0.82627416
-6.7272868 -1.4336113 -0.84455454
-6.7556024 -1.3953279 -0.8469919
-6.7545033 -1.3509091 -0.84577322
-6.7628579 -1.308441 -0.84577322
-6.7709455 -1.2659249 -0.84577322
-6.7592306 -1.2198298 -0.84333587
-6.7373743 -1.1725284 -0.83967978
-6.7445102 -1.1307607 -0.83967978
-6.7318363 -1.0854981 -0.83724236
-6.738524 -1.0431777 -0.83724236
-6.8922148 -1.0226717 -0.85552275
-7.1441779 -1.0142218 -0.88599008
-7.1897511 -0.97464889 -0.89086491
-7.2055769 -0.93072492 -0.89208359
-7.2014308 -0.88422507 -0.89086491
-7.2068448 -0.83895802 -0.89086491
-7.2021074 -0.79257596 -0.88964617
-7.1872005 -0.74525899 -0.88720882
-7.1719832 -0.69816458 -0.88477141
-7.1762285 -0.65308625 -0.88477141
-7.1703 -0.60714847 -0.88355273
-7.1739736 -0.56208247 -0.88355273
-7.1674638 -0.516285 -0.88233405
-7.1705661 -0.47123858 -0.88233405
-7.1634774 -0.42558879 -0.88111532
-7.1660104 -0.38056925 -0.88111532
-7.1583304 -0.33538705 -0.87989664
-7.1602712 -0.29102707 -0.87989664
-7.1619477 -0.24634697 -0.87989664
-7.1534328 -0.2010617 -0.87867796
-7.1545548 -0.15611351 -0.87867796
-7.1653185 -0.11130952 -0.87989664
-7.1460295 -0.065792695 -0.87745923
-7.156229 -0.020297602 -0.87867796
-7.1562152 0.024668397 -0.87867796
-7.1459999 0.068908818 -0.87745923
-7.145431 0.11349671 -0.87745923
-7.1445765 0.15839221 -0.87745923
-7.1434407 0.20327766 -0.87745923
-7.132103 0.24781422 -0.87624055
-7.1304049 0.29261956 -0.87624055
-7.1284256 0.3374171 -0.87624055
-7.136076 0.38272911 -0.87745923
-7.1236229 0.42696291 -0.87624055
-7.1307034 0.47236747 -0.87745923
-7.1176953 0.51644504 -0.87624055
-7.124229 0.56162769 -0.87745923
-7.1206126 0.60575533 -0.87745923
-7.1265788 0.65107733 -0.87867796
-7.1124687 0.6948787 -0.87745923
-7.1079621 0.73955184 -0.87745923
-7.1031752 0.78419954 -0.87745923
-7.1079664 0.82996362 -0.87867796
-7.1026111 0.87460959 -0.87867796
-7.0969758 0.91921723 -0.87867796
-7.1107297 0.96646589 -0.88111532
-7.0946908 1.0097243 -0.87989664
-7.0980239 1.0557435 -0.88111532
-7.0912986 1.100009 -0.88111532
-7.0843468 1.143926 -0.88111532
-7.0868602 1.1897478 -0.88233405
-7.0792446 1.234254 -0.88233405
-7.0810614 1.2807833 -0.88355273
-7.0727587 1.3258653 -0.88355273
-7.0739727 1.3724755 -0.88477141
-7.0749412 1.4188488 -0.88599008
-6.8520637 1.4189913 -0.85917884
-6.5324073 1.3956566 -0.82018065
-6.2811804 1.3833033 -0.78971332
-6.0690932 1.3766358 -0.76412076
-5.857347 1.3673564 -0.73852819
-5.6459641 1.3554755 -0.71293563
-5.4638796 1.3481241 -0.69099915
-5.2051463 1.3190376 -0.65931314
-5.2159677 1.356712 -0.6617505
-5.2169299 1.3920182 -0.66296923
-5.2463756 1.4352443 -0.667844
-2.7854078 1.235485 -0.37413889
-2.7233047 1.2284746 -0.36682671
-2.6794457 1.2290083 -0.36195195
-2.6356883 1.2290413 -0.35707718
-2.5920384 1.2285724 -0.35220239
-2.5395572 1.2232981 -0.34610894
-2.4961617 1.2217758 -0.34123415
-2.4528863 1.2197584 -0.33635938
-2.4097371 1.2172449 -0.33148462
-2.3755479 1.21877 -0.32782853
-2.3326342 1.2153267 -0.32295376
-2.2898581 1.2113942 -0.31807899
-2.2559695 1.211668 -0.31442291
-2.2221684 1.2115656 -0.31076682
-2.1884594 1.2110857 -0.30711073
-2.1461904 1.2053713 -0.30223596
-2.112705 1.2040879 -0.29857987
-2.087913 1.2074016 -0.29614249
-2.0546033 1.2054281 -0.29248643
-2.0299304 1.2081616 -0.29004905
-1.9968083 1.2055022 -0.28639296
-1.9553356 1.1972928 -0.28151819
-1.9309107 1.199082 -0.27908078
-1.8981417 1.1953239 -0.27542472
-1.8738632 1.1965427 -0.27298734
-1.8496444 1.1975051 -0.27054992
-1.817191 1.1927633 -0.26689386
-1.8013972 1.1986595 -0.26567516
-1.7691449 1.1933031 -0.2620191
-1.7452248 1.1931921 -0.25958169
-1.7213774 1.1928272 -0.2571443
-1.6976033 1.192211 -0.25470692
-1.6739063 1.1913428 -0.25226954
-1.6502872 1.1902252 -0.24983215
-1.6267495 1.1888574 -0.24739476
-1.6032941 1.1872422 -0.24495737
-1.5878638 1.1913353 -0.24373868
-1.572445 1.1952826 -0.24251999
-1.5491766 1.1930265 -0.24008261
-1.5259984 1.1905266 -0.23764521
-1.5029141 1.1877822 -0.23520783
-1.4876734 1.1909983 -0.23398913
-1.4647428 1.1878183 -0.23155175
-1.4495806 1.1906984 -0.23033306
-1.426811 1.1870863 -0.22789566
-1.4117339 1.1896323 -0.22667697
-1.3891324 1.1855917 -0.22423959
-1.3741465 1.1878061 -0.2230209
-1.3517203 1.1833407 -0.22058351
-1.3368313 1.1852262 -0.21936481
-1.321973 1.1869708 -0.21814612
-1.2998016 1.1818991 -0.21570873
-1.2850488 1.1833189 -0.21449004
-1.2630701 1.1778318 -0.21205266
-1.2484801 1.1788751 -0.21083397
-1.2339768 1.1797298 -0.20961526
-1.219461 1.1805024 -0.20839657
-1.2120199 1.1881409 -0.20839657
-1.197487 1.1887398 -0.20717788
-1.175994 1.1821672 -0.20474049
-1.1615878 1.182452 -0.2035218
-1.154135 1.1897274 -0.2035218
-1.1328535 1.1826699 -0.20108442
-1.118476 1.1826518 -0.19986571
-1.1041973 1.1824499 -0.19864702
-1.0900171 1.182068 -0.19742833
-1.0759379 1.1815072 -0.19620964
-1.0619593 1.1807714 -0.19499095
-1.0479804 1.1799531 -0.19377226
-1.027457 1.17159 -0.19133486
-1.0135784 1.1705189 -0.19011617
-1.0062037 1.1768645 -0.19011617
1.0014589 1.0746851 -0.18036662
1.0150037 1.0755903 -0.18158531
1.028599 1.0763674 -0.18280402
1.042244 1.0770159 -0.18402271
1.0559373 1.0775352 -0.1852414
1.0626868 1.0708792 -0.1852414
1.0764298 1.0711823 -0.18646009
1.0902183 1.0713546 -0.18767878
1.1040512 1.0713956 -0.18889748
1.1107612 1.0644376 -0.18889748
1.1246364 1.0642598 -0.19011617
1.138553 1.0639492 -0.19133486
1.1452155 1.0567745 -0.19133486
1.1591693 1.0562432 -0.19255356
1.1731614 1.055578 -0.19377226
1.1871905 1.0547783 -0.19499095
1.2012556 1.0538439 -0.19620964
1.2153555 1.0527741 -0.19742833
1.2294891 1.0515683 -0.19864702
1.2436552 1.0502263 -0.19986571
1.2578528 1.0487475 -0.20108442
6.0319276 0.86921382 -0.74827778
6.0372696 0.83129716 -0.74827778
6.0423737 0.79334843 -0.74827778
6.0373573 0.75440025 -0.74705905
6.3178921 0.74972898 -0.78118247
6.5591688 0.73688763 -0.81043112
6.8795152 0.72913712 -0.84942931
7.1704121 0.71412253 -0.88477141
7.4811783 0.69697165 -0.92255092
7.8216105 0.67914456 -0.96398652
7.6904202 -1.7218316 -0.96764255
7.4667444 -1.7207454 -0.9408313
7.2434645 -1.7166216 -0.91402006
7.0108123 -1.7077557 -0.88599008
6.7784877 -1.6963514 -0.85796016
6.5562787 -1.684281 -0.83114892
6.3441629 -1.6717591 -0.80555636
6.1611347 -1.6647093 -0.78361988
5.8348951 -1.6159667 -0.74340296
5.8341756 -1.6553055 -0.74462169
5.8617854 -1.7030056 -0.74949646
4.994225 -1.5880996 -0.64347011
4.9275804 -1.6008297 -0.63615799
4.8045197 -1.5938282 -0.62153363
3.2428768 -1.5239083 -0.43994832
3.1974123 -1.5271428 -0.43507355
3.0618384 -1.5332541 -0.42044923
2.9990635 -1.5254626 -0.41313708
2.9541461 -1.5260545 -0.40826228
2.9093411 -1.526143 -0.40338752
2.8559592 -1.5209388 -0.39729404
2.8115547 -1.5197263 -0.39241928
2.7672098 -1.5181432 -0.38754451
2.7316012 -1.5210142 -0.38388842
2.6787844 -1.5137322 -0.37779495
2.6433892 -1.5157219 -0.37413889
2.5994968 -1.512336 -0.3692641
2.5557525 -1.5084591 -0.36438933
2.5206769 -1.5091916 -0.36073324
2.4856942 -1.5095433 -0.35707718
2.4508729 -1.5094091 -0.35342109
2.4162171 -1.5087938 -0.349765
2.3815982 -1.5079122 -0.34610894
2.3386674 -1.5013975 -0.34123415
1.775468 -1.2367418 -0.26567516
1.866917 -1.2942817 0.35979927
1.7699125 -1.2434392 0.34259146
1.7541277 -1.2486538 0.34102714
1.7462958 -1.2595838 0.34102714
1.8021398 -1.3171563 0.35354188
1.627719 -1.2695416 0.32694802
1.5964607 -1.2613742 0.32225499
1.5653702 -1.2528648 0.31756195
1.5421228 -1.2502354 0.31443328
1.518971 -1.2473638 0.31130457
1.5035101 -1.2505672 0.30974025
1.4805156 -1.2472621 0.30661154
1.4651362 -1.2501289 0.30504721
1.4423063 -1.2463939 0.30191851
1.4270142 -1.2489266 0.30035415
1.4118088 -1.2512476 0.29878983
1.3966782 -1.2533742 0.29722548
1.3742048 -1.2487868 0.2940968
1.4423537 -1.3784634 0.3159976
1.4194695 -1.3737611 0.31286892
1.2381188 -1.2758423 0.28158203
1.1823494 -1.2335755 0.27063161
1.1678332 -1.2337619 0.26906729
1.1600583 -1.2410753 0.26906729
1.1455384 -1.2410818 0.26750293
1.1443712 -1.2555546 0.26906729
1.1431293 -1.2700055 0.27063161
1.1549249 -1.2992094 0.27532464
1.1598204 -1.321242 0.27845335
1.1644341 -1.3434303 0.28158203
1.1623921 -1.358224 0.28314638
1.1602101 -1.373045 0.28471074
1.1578873 -1.3878917 0.28627506
1.1491445 -1.3951392 0.28627506
1.1528189 -1.417658 0.28940377
1.1377056 -1.4171712 0.28783941
1.1072978 -1.4905699 0.2940968
1.0862305 -1.481567 0.29096809
1.0711104 -1.4803607 0.28940377
1.0617878 -1.4870615 0.28940377
1.0467347 -1.4856294 0.28783941
1.0317416 -1.4840673 0.28627506
1.0223967 -1.4905206 0.28627506
1.0074757 -1.4887352 0.28471074
-1.025668 -3.8970551 0.63825262
-1.0530481 -3.8999774 0.63981694
-1.077489 -3.8932958 0.63981694
-1.1042838 -3.8960476 0.64138132
-1.1285924 -3.8890758 0.64138132
-1.1558179 -3.8913758 0.64294565
-1.1831169 -3.893487 0.64450997
-1.2075568 -3.8859766 0.64450997
-1.2317592 -3.8783729 0.64450997
-1.2618611 -3.8894563 0.64763868
-1.2861265 -3.8815 0.64763868
-1.3136545 -3.8826985 0.649203
-1.3380243 -3.874368 0.649203
-1.3656238 -3.8751998 0.65076739
-1.3932866 -3.8758373 0.65233171
-1.42101 -3.8762805 0.65389603
-1.4487951 -3.8765273 0.65546042
-1.476639 -3.8765779 0.65702474
-1.500967 -3.8672233 0.65702474
-1.5288672 -3.8669012 0.65858907
-1.0052906 -1.502111 0.28627506
-1.0147088 -1.495765 0.28627506
-1.029683 -1.4974984 0.28783941
-1.0503659 -1.5072057 0.29096809
-1.0541172 -1.4925088 0.28940377
-1.0749711 -1.5019194 0.29253244
-1.1017833 -1.5191216 0.29722548
-1.0995351 -1.4963053 0.2940968
-1.1205804 -1.5053095 0.29722548
-1.1240122 -1.4903963 0.29566112
-1.1453471 -1.4990011 0.29878983
-1.1607888 -1.4995855 0.30035415
-1.1762828 -1.5000347 0.30191851
-1.1856844 -1.4926144 0.30191851
-1.2012312 -1.49283 0.30348286
-1.2168274 -1.492909 0.30504721
-1.2261835 -1.485234 0.30504721
-1.248163 -1.4926542 0.30817589
-1.2639003 -1.4923193 0.30974025
-1.2796093 -1.4919081 0.31130457
-1.2953048 -1.4914082 0.31286892
-1.3111165 -1.4907063 0.31443328
-1.3270264 -1.4898143 0.3159976
-1.3495922 -1.4961147 0.31912631
-1.338981 -1.465729 0.31443328
-1.3615786 -1.4717873 0.31756195
-1.3640461 -1.4559958 0.3159976
-1.3595015 -1.4331325 0.31286892
-1.3820384 -1.4389286 0.3159976
-1.3909976 -1.4302696 0.3159976
-1.4276787 -1.44965 0.32225499
-1.4018861 -1.4056839 0.31443328
-1.4036722 -1.3898983 0.31286892
-1.3982537 -1.3672409 0.30974025
-1.3997115 -1.3515677 0.30817589
-1.3938798 -1.3291146 0.30504721
-1.409394 -1.3271012 0.30661154
-1.4249378 -1.3249452 0.30817589
-1.4405098 -1.322646 0.30974025
-1.4561089 -1.3202031 0.31130457
-1.4790926 -1.3242042 0.31443328
-1.4947187 -1.3214997 0.3159976
-1.5103178 -1.3187095 0.31756195
-1.5334842 -1.3221512 0.32069066
-1.5492821 -1.3188924 0.32225499
-1.57266 -1.321842 0.32538369
-1.5961355 -1.3245493 0.32851237
-1.6197066 -1.3270134 0.33164105
-1.6280125 -1.3168104 0.33164105
-1.6516905 -1.3188813 0.33476976
-1.6754581 -1.3207062 0.33789843
-1.6915182 -1.3162185 0.33946279
-1.7154208 -1.3175973 0.34259146
-1.7315363 -1.3127601 0.34415582
-1.7555662 -1.3136897 0.3472845
-1.7796756 -1.3143687 0.3504132
-1.7958806 -1.3089786 0.35197753
-1.8200417 -1.3092929 0.35510623
-1.8361722 -1.3037091 0.35667059
-1.8604558 -1.3035524 0.35979927
-1.8929826 -1.3086872 0.3644923
-1.9093274 -1.302333 0.36605665
-1.9338611 -1.301339 0.36918533
-1.9584571 -1.3000877 0.37231401
-1.9831131 -1.2985783 0.37544271
-2.0161235 -1.3021685 0.38013574
-2.040926 -1.3000882 0.38326442
-2.0657814 -1.2977471 0.38639313
-2.0906873 -1.2951447 0.38952181
-2.1156414 -1.2922801 0.39265051
-2.1406412 -1.2891525 0.39577919
-2.1741774 -1.2908038 0.40047222
-2.1992936 -1.2870951 0.4036009
-2.2329409 -1.2881658 0.40829393
-2.2580507 -1.284071 0.41142264
-2.2919366 -1.2843187 0.41611567
-2.3260126 -1.2840116 0.4208087
-2.3601131 -1.2834382 0.42550173
-2.3855433 -1.2779118 0.42863044
-2.4109342 -1.2722342 0.43175912
-2.4538252 -1.2754934 0.4380165
-2.4881186 -1.2736458 0.44270954
-2.5225322 -1.271323 0.44740257
-2.5570138 -1.2686175 0.4520956
-2.5915599 -1.2655283 0.45678863
-2.6261671 -1.2620546 0.46148166
-2.6697607 -1.2624177 0.46773905
-2.7045059 -1.258116 0.47243208
-2.7482827 -1.2575368 0.47868946
-2.7921576 -1.2564564 0.48494685
-2.8270934 -1.250878 0.48963988
-3.1853557 -1.2913351 0.54439193
-3.2484653 -1.2932144 0.55377799
-3.2933235 -1.28716 0.56003535
-4.7405334 -1.551049 0.78999406
-4.8254356 -1.5453316 0.80250877
-4.9198756 -1.5415608 0.81658787
-5.0050116 -1.5337692 0.82910264
-5.1091638 -1.5306369 0.84474611
-5.2134705 -1.5262551 0.86038953
-5.3179202 -1.5206219 0.87603301
-5.4319401 -1.5166571 0.89324081
-5.5365257 -1.5089443 0.90888423
-5.6508398 -1.5022523 0.92609203
-5.7749004 -1.4964484 0.94486415
-5.9086828 -1.4915609 0.96520066
-6.0426273 -1.4850502 0.98553711
-6.1863241 -1.4792093 1.0074379
-6.3398008 -1.4738598 1.0309031
-6.4934497 -1.4666352 1.0543683
-6.6665468 -1.4617712 1.0809622
-6.8011904 -1.4465657 1.1012986
-6.7907977 -1.3998181 1.0981699
-6.799459 -1.357121 1.0981699
-6.7981539 -1.3125017 1.0966055
-6.7965574 -1.2679487 1.0950413
-6.7849483 -1.2217211 1.0919125
-6.7729702 -1.1760213 1.0887839
-6.7703853 -1.1324036 1.0872195
-6.7675734 -1.0885315 1.0856552
-6.7645178 -1.0444828 1.0840908
-6.985898 -1.0337662 1.1185064
-7.2171807 -1.0216956 1.1544863
-7.2723975 -0.98294151 1.1623081
-7.195807 0.25285587 1.1404072
-7.2434182 0.30010951 1.148229
-7.3203149 0.34938008 1.1607437
-7.317975 0.39536589 1.1607437
-7.3252058 0.44193089 1.1623081
-7.3222842 0.48794952 1.1623081
-7.3289247 0.53466362 1.1638724
-7.3352947 0.58112484 1.1654367
-7.3118715 0.62488163 1.1623081
-7.3176618 0.67143512 1.1638724
-7.3231287 0.71836215 1.1654367
-7.3184705 0.76436228 1.1654367
-7.2448058 0.80271447 1.1544863
-7.1807604 0.84132469 1.1451002
-7.8713007 0.97240227 1.2561687
-7.4144855 0.96330541 1.1842089
-7.1146955 0.96984947 1.1372786
-7.1280165 1.017326 1.1404072
-7.1312528 1.0635474 1.1419716
-7.1244845 1.107982 1.1419716
-7.1272326 1.1536828 1.143536
-7.1198888 1.1981704 1.143536
-7.1219497 1.2445805 1.1451002
-7.104207 1.2878929 1.143536
-7.0958586 1.3331223 1.143536
-7.0872898 1.3779502 1.143536
-7.0591259 1.4185599 1.1404072
-6.7986302 1.4107131 1.0997343
-6.5481806 1.4017146 1.0606257
-6.307766 1.3917582 1.0230814
-6.087008 1.383212 0.98866582
-5.8666134 1.3719516 0.95425022
-5.6850224 1.3672131 0.92609203
-5.5037289 1.3602515 0.89793384
-5.2174482 1.3243349 0.85256779
-5.2185817 1.3595822 0.85413218
-5.2385626 1.3999934 0.85882521
-5.1725078 1.4172219 0.84943914
-5.0588999 1.4203247 0.83223134
-2.824229 1.2328473 0.48807552
-2.7712917 1.2305276 0.48025379
-2.7184975 1.2275907 0.47243208
-2.6658509 1.2240411 0.46461037
-2.6223083 1.2240555 0.45835298
-2.5788715 1.2235732 0.4520956
-2.5266497 1.2183028 0.44427386
-2.4834666 1.2167723 0.4380165
-2.4315627 1.2103454 0.43019477
-2.3974669 1.2122298 0.42550173
-2.3458729 1.2047088 0.41768003
-2.3119845 1.2057238 0.41298699
-2.2781775 1.2063596 0.40829393
-2.2357547 1.2019433 0.40203658
-2.2021492 1.2017725 0.39734355
-2.1686347 1.2012284 0.39265051
-2.1352153 1.2003101 0.38795745
-2.1018937 1.199021 0.38326442
-2.0772223 1.2023078 0.38013574
-2.0355589 1.1953305 0.37387836
-2.0110378 1.1979866 0.37074968
-1.9781102 1.1952751 0.36605665
-1.9452978 1.1921966 0.36136362
-1.9209911 1.1939685 0.35823491
-1.8883846 1.1902151 0.35354188
-1.8642238 1.1914194 0.3504132
-1.8401238 1.1923666 0.3472845
-1.8078305 1.1876363 0.34259146
-1.7838917 1.1880218 0.33946279
-1.7600193 1.1881546 0.33633408
-1.736217 1.1880339 0.3332054
-1.7043697 1.1820337 0.32851237
-1.6888289 1.1870391 0.32694802
-1.657203 1.1804365 0.32225499
-1.6257281 1.173483 0.31756195
-1.6023785 1.1720132 0.31443328
-1.5870479 1.1761768 0.31286892
-1.56383 1.1742644 0.30974025
-1.5485606 1.1780864 0.30817589
-1.5254817 1.1757346 0.30504721
-1.5102797 1.1792175 0.30348286
-1.4873477 1.1764286 0.30035415
-1.464511 1.1733986 0.29722548
-1.4417711 1.1701294 0.2940968
-1.4267613 1.1728927 0.29253244
-1.4041829 1.1691945 0.28940377
-1.389259 1.1716262 0.28783941
-1.3668494 1.1675026 0.28471074
-1.3520174 1.1696055 0.28314638
-1.3297837 1.1650603 0.28001767
-1.3150495 1.1668369 0.27845335
-1.3003453 1.1684753 0.276889
-1.2856733 1.1699746 0.27532464
-1.2710334 1.1713365 0.27376032
-1.2492073 1.1658216 0.27063161
-1.2347361 1.1668032 0.26906729
-1.2203462 1.1676033 0.26750293
-1.2059375 1.1683284 0.26593858
-1.1915228 1.1689652 0.26437426
-1.1771474 1.1694678 0.2628099
-1.1628135 1.1698357 0.26124555
-1.1485212 1.1700704 0.2596812
-1.1342727 1.1701714 0.25811687
-1.1200106 1.1701952 0.25655252
-1.1057497 1.1701275 0.25498816
-1.0915922 1.169873 0.25342384
-1.070835 1.162181 0.25029513
-1.0635693 1.1688339 0.25029513
-1.0431029 1.1607089 0.24716645
-1.0292779 1.1598132 0.2456021
-1.0089519 1.1514003 0.24247342
1.0035056 1.0492834 0.22995865
1.0100785 1.0429574 0.22995865
1.0304431 1.0506938 0.23308735
1.0370244 1.0441986 0.23308735
1.0505686 1.0446264 0.2346517
1.0641588 1.0449249 0.23621604
1.0707033 1.038218 0.23621604
1.091473 1.0451319 0.23934473
1.0980182 1.0382535 0.23934473
1.111739 1.0380747 0.24090907
1.1255008 1.0377643 0.24247342
1.1466054 1.0439711 0.2456021
1.1604871 1.0433496 0.24716645
1.1744059 1.0425948 0.24873079
1.1957879 1.0482166 0.25185949
1.2023505 1.0406826 0.25185949
1.2163739 1.0395243 0.25342384
1.2379787 1.0446001 0.25655252
1.2445177 1.0368011 0.25655252
1.2586356 1.0352353 0.25811687
9.6153812 3.1679451 1.6034533
9.6255779 3.1048038 1.6018889
9.6260576 3.0383177 1.5987602
9.6540222 2.9142618 1.5971959
9.6437225 2.8451622 1.5925028
9.6139565 2.7708366 1.5846812
6.0374012 0.82889962 0.96520066
6.04249 0.79095018 0.96520066
6.0375023 0.75204414 0.96363628
6.0420461 0.71462172 0.96363628
6.3506737 0.71093911 1.012131
6.5612831 0.69280338 1.0449822
6.8603983 0.68048894 1.0919125
7.1596336 0.66414028 1.1388429
7.4687042 0.64558822 1.1873375
7.7974548 0.62535673 1.238961
8.1755085 0.60431743 1.298406
8.5831747 0.58025128 1.3625442
9.0598526 0.5553149 1.4376327
9.5365381 0.52441019 1.5127213
12.035511 0.58659548 1.9085004
12.048782 0.51243263 1.9100648
12.061618 0.43753678 1.9116291
12.054256 0.3614471 1.9100648
12.036542 0.28523323 1.906936
12.038096 0.20960014 1.906936
12.0293 0.13384889 1.9053718
12.020026 0.058218066 1.9038074
12.020155 -0.017306766 1.9038074
12.009933 -0.092754632 1.902243
12.00912 -0.16762298 1.902243
11.997976 -0.2418285 1.9006788
12.006105 -0.31701112 1.902243
11.994005 -0.39211833 1.9006788
11.991304 -0.46747079 1.9006788
11.988131 -0.54280478 1.9006788
11.984484 -0.61811733 1.9006788
11.980364 -0.69340551 1.9006788
11.975808 -0.76807785 1.9006788
11.970819 -0.84226447 1.9006788
11.975174 -0.91775984 1.902243
11.959328 -0.992167 1.9006788
11.952858 -1.0672897 1.9006788
11.955749 -1.1433105 1.902243
11.948329 -1.2184078 1.902243
11.950256 -1.2945189 1.9038074
11.941955 -1.3689936 1.9038074
11.943048 -1.4441446 1.9053718
11.943595 -1.5199469 1.906936
11.933809 -1.5949588 1.906936
11.933333 -1.6712792 1.9085004
11.922597 -1.7462251 1.9085004
11.91139 -1.8211021 1.9085004
11.91922 -1.8990154 1.9116291
11.916894 -1.974898 1.9131935
11.738955 -2.0202191 1.8865997
11.152444 -1.9910709 1.7943033
10.556992 -1.953287 1.7004426
10.049782 -1.9248247 1.620661
9.6014977 -1.9015827 1.5502656
9.192626 -1.8807056 1.4861274
8.794075 -1.8568091 1.4235536
8.4251547 -1.8342853 1.3656728
7.8255811 -1.7553204 1.2702478
7.5931401 -1.7529706 1.234268
7.495645 -1.7794515 1.2201889
7.2445021 -1.7676936 1.1810802
7.0033212 -1.7555397 1.143536
6.7626734 -1.7400948 1.1059916
6.5512147 -1.7290329 1.0731404
6.3305426 -1.7131501 1.0387248
6.1388202 -1.702734 1.0090023
5.890481 -1.6737804 0.96989369
5.8608809 -1.7052388 0.96676499
5.8689833 -1.7476676 0.96989369
4.9116168 -1.6314676 0.81971657
4.8171492 -1.6335608 0.80563748
4.6565452 -1.6446257 0.78217232
4.6647043 -1.6805464 0.78530103
4.672595 -1.7166343 0.78842968
2.9644632 -1.5565429 0.53031284
2.9111226 -1.5517632 0.5224911
2.8493302 -1.541571 0.51310503
2.8136752 -1.5450727 0.508412
2.769402 -1.5434874 0.50215465
2.7252612 -1.5414076 0.49589723
2.6812572 -1.5388348 0.48963988
2.6459298 -1.5407407 0.48494685
2.6021814 -1.5372405 0.47868946
2.5585828 -1.5332521 0.47243208
2.5235786 -1.5339071 0.46773905
2.4887433 -1.5340617 0.46304601
2.445688 -1.5285138 0.45678863
2.4110665 -1.5278966 0.4520956
2.3764908 -1.5269978 0.44740257
2.3502982 -1.5311171 0.44427386
1.8068063 -1.2596252 0.34884885
1.8251899 -1.266415 -0.19435731
1.7683713 -1.2433798 -0.18912795
1.7444066 -1.242752 -0.18738484
1.7366048 -1.2536309 -0.18738484
1.8010577 -1.3174509 -0.19522886
1.7927444 -1.3287412 -0.19522886
1.7923262 -1.3459611 -0.19610041
1.7918364 -1.3631303 -0.19697197
1.6886648 -1.3012394 -0.18651329
1.6726458 -1.305639 -0.18564174
1.6409667 -1.297586 -0.18302706
1.617231 -1.2954149 -0.18128394
1.6090598 -1.3055507 -0.18128394
1.6162176 -1.3282852 -0.18302706
1.6231527 -1.3511608 -0.18477017
1.6146311 -1.3613325 -0.18477017
1.6060457 -1.3714507 -0.18477017
1.604932 -1.3880312 -0.18564174
1.6186604 -1.4177792 -0.1882564
1.6917788 -1.5005474 -0.19784354
1.6750375 -1.5043441 -0.19697197
1.6508622 -1.5013793 -0.19522886
1.6340686 -1.5049735 -0.19435731
1.6100101 -1.5016215 -0.19261418
1.5860589 -1.4980272 -0.19087107
1.569416 -1.5010774 -0.18999952
1.545642 -1.4970472 -0.1882564
1.2066741 -1.2444034 -0.151651
1.1851599 -1.2374666 -0.14990787
1.1774021 -1.2448502 -0.14990787
1.1627575 -1.244943 -0.14903632
1.1481586 -1.2449013 -0.14816476
1.1470217 -1.259456 -0.14903632
1.1458166 -1.2739828 -0.14990787
1.1511326 -1.2959535 -0.151651
1.1561476 -1.318102 -0.1533941
1.1543648 -1.3328706 -0.15426566
1.1524417 -1.3476685 -0.15513723
1.1503781 -1.3624946 -0.15600878
1.1545525 -1.3849993 -0.15775189
1.1458275 -1.3922261 -0.15775189
1.1496215 -1.4148611 -0.15949501
1.1196828 -1.4888409 -0.16298124
1.1043687 -1.4878476 -0.16210967
1.0891113 -1.4867208 -0.16123812
1.0739121 -1.4854614 -0.16036656
1.0645576 -1.4921795 -0.16036656
1.0494263 -1.490693 -0.15949501
1.0343561 -1.4890755 -0.15862344
1.0193478 -1.4873279 -0.15775189
1.0099829 -1.493703 -0.15775189
-1.0013515 -3.8980656 -0.35210919
-1.0259088 -3.8916745 -0.35210919
-1.0506799 -3.8850598 -0.35210919
-1.0776458 -3.8880053 -0.35298076
-1.1017145 -3.8812537 -0.35298076
-1.1287324 -3.8838577 -0.3538523
-1.1559532 -3.8862376 -0.35472387
-1.1803483 -3.8788979 -0.35472387
-1.2076566 -3.8809171 -0.35559541
-1.2348248 -3.8828132 -0.35646698
-1.2588583 -3.875088 -0.35646698
-1.2861927 -3.8765988 -0.35733855
-1.3105245 -3.8684409 -0.35733855
-1.3413159 -3.8789601 -0.35908166
-1.3656615 -3.870456 -0.35908166
-1.3933259 -3.8711724 -0.35995322
-1.421054 -3.8716936 -0.36082476
-1.4488436 -3.8720186 -0.36169633
-1.4731435 -3.8628387 -0.36169633
-1.5009934 -3.8627923 -0.36256787
-1.0050068 -1.5209939 -0.15949501
-1.0145437 -1.5146493 -0.15949501
-1.0296363 -1.5164866 -0.16036656
-1.0447917 -1.5181938 -0.16123812
-1.0543102 -1.5115993 -0.16123812
-1.0695372 -1.5130799 -0.16210967
-1.079023 -1.5063299 -0.16210967
-1.0943182 -1.5075824 -0.16298124
-1.1095891 -1.5087625 -0.1638528
-1.1248674 -1.5098474 -0.16472435
-1.1402841 -1.5107383 -0.1655959
-1.1558051 -1.5114572 -0.16646747
-1.165279 -1.5041653 -0.16646747
-1.1808573 -1.5046507 -0.16733903
-1.1964873 -1.5049994 -0.16821058
-1.2121681 -1.5052109 -0.16908213
-1.2216017 -1.4975649 -0.16908213
-1.2436776 -1.5052192 -0.17082526
-1.2531105 -1.4973752 -0.17082526
-1.2753767 -1.5046709 -0.17256837
-1.2847239 -1.496698 -0.17256837
-1.4074792 -1.4101837 -0.17431149
-1.4163117 -1.4013125 -0.17431149
-1.4108375 -1.3784621 -0.17256837
-1.4123018 -1.3626533 -0.17169681
-1.4064109 -1.340009 -0.16995369
-1.4148027 -1.3311459 -0.16995369
-1.4304366 -1.3290108 -0.17082526
