# .PCD v0.7 - Point Cloud Data file format
VERSION 0.7
FIELDS x y z
SIZE 4 4 4
TYPE F F F
COUNT 1 1 1
WIDTH 1471
HEIGHT 1
VIEWPOINT 0 0 0 1 0 0 0
POINTS 1471
DATA ascii
6.2579794 -1.7534413 1.0293387
6.0665445 -1.7406628 0.99961621
5.9040151 -1.7336924 0.97458673
5.7322669 -1.7222158 0.94799286
5.5702744 -1.7117774 0.92296332
5.4180679 -1.7023338 0.89949816
5.27561 -1.6940666 0.87759733
5.1428595 -1.6871568 0.85726088
5.0010438 -1.6755097 0.83536005
4.8315468 -1.6525595 0.80876619
4.7744427 -1.6666087 0.80094445
4.7917905 -1.7065153 0.80563748
4.8181071 -1.7500772 0.81189483
7.9453874 -4.3270202 1.4329396
7.8318143 -4.3286896 1.4172962
7.7186975 -4.3288193 1.4016528
7.5882902 -4.3186908 1.3828807
7.4579916 -4.3076634 1.3641086
7.3453994 -4.3047819 1.3484651
7.2078395 -4.285233 1.3281286
2.124126 -1.5292926 0.41455132
2.1144753 -1.5426086 0.41455132
2.0888565 -1.5441211 0.41142264
2.0554729 -1.5393513 0.40672961
2.022289 -1.5341491 0.40203658
1.9891748 -1.5286927 0.39734355
1.9639437 -1.5290258 0.39421484
1.9310324 -1.5229862 0.38952181
1.9137086 -1.528924 0.38795745
1.8810313 -1.5222778 0.38326442
1.863791 -1.5278051 0.3817001
1.8389567 -1.5268667 0.37857139
1.8066493 -1.51932 0.37387836
1.789623 -1.5241494 0.37231401
1.7651862 -1.5223074 0.36918533
1.7407669 -1.5203069 0.36605665
1.7163838 -1.5181271 0.36292794
1.6920974 -1.5157014 0.35979927
1.6752253 -1.5196671 0.35823491
1.6511711 -1.516718 0.35510623
1.6272774 -1.5134662 0.35197753
1.6106038 -1.5168276 0.3504132
1.5867465 -1.5132842 0.3472845
1.5701025 -1.5163627 0.34572017
1.5464213 -1.5123862 0.34259146
1.5298705 -1.5151227 0.34102714
1.5063727 -1.510717 0.33789843
1.4829911 -1.5060766 0.33476976
1.4734989 -1.5153646 0.33476976
1.4503409 -1.5102733 0.33164105
1.4273617 -1.5048981 0.32851237
1.411184 -1.5065738 0.32694802
1.3949834 -1.50816 0.32538369
1.3721581 -1.5023096 0.32225499
1.3494617 -1.4962325 0.31912631
1.3334652 -1.4973059 0.31756195
1.3175087 -1.4982377 0.3159976
1.2951909 -1.4915071 0.31286892
1.285925 -1.4995033 0.31286892
1.2701532 -1.4999669 0.31130457
1.2543684 -1.5003403 0.30974025
1.2323419 -1.4929578 0.30661154
1.222937 -1.5006713 0.30661154
1.2073662 -1.5005709 0.30504721
1.1857581 -1.4925559 0.30191851
1.1764139 -1.4999318 0.30191851
1.1548735 -1.4916742 0.29878983
1.1454782 -1.498901 0.29878983
1.13009 -1.4981835 0.29722548
1.1147561 -1.497332 0.29566112
1.0994779 -1.4963473 0.2940968
1.0900544 -1.503226 0.2940968
1.0690923 -1.493981 0.29096809
1.0596843 -1.5006688 0.29096809
1.038942 -1.4910896 0.28783941
1.0295527 -1.4975879 0.28783941
1.0145787 -1.4958532 0.28627506
1.00516 -1.5021983 0.28627506
-2.914325 -3.7768652 0.75557846
-2.9682667 -3.7975008 0.7634002
-3.0043309 -3.7942626 0.76652884
-3.0404711 -3.7907205 0.76965755
-3.076685 -3.7868733 0.77278626
-3.1317985 -3.8055997 0.78060794
-3.1682959 -3.8010206 0.78373665
-3.1921158 -3.7810388 0.78373665
-3.228647 -3.7759211 0.78686535
-3.2650549 -3.7706532 0.78999406
-3.3013778 -3.7652042 0.79312271
-3.3444998 -3.7666712 0.79781574
-3.3879128 -3.7676156 0.80250877
-3.4248185 -3.7608597 0.80563748
-3.4684687 -3.761049 0.81033051
-3.5120714 -3.7610095 0.81502354
-3.5488777 -3.753531 0.81815225
-3.5927403 -3.7526979 0.82284528
-3.6368732 -3.7513242 0.82753831
-3.6742105 -3.7424951 0.83066702
-3.7255068 -3.7473533 0.83692437
-3.7629933 -3.7377923 0.84005308
-3.8146083 -3.7417405 0.84631044
-3.8096657 -3.6902113 0.84005308
-3.8113635 -3.6457212 0.83536005
-3.7982941 -3.5877907 0.82753831
-3.7918713 -3.5369067 0.82128096
-3.8212843 -3.5197034 0.82284528
-3.8652437 -3.5155613 0.82753831
-3.8652112 -3.4714072 0.82284528
-3.8647776 -3.4273927 0.81815225
-3.8637784 -3.3837111 0.81345922
-3.8771985 -3.353246 0.81189483
-1.7725301 -1.5137501 0.36918533
-1.7669045 -1.4898493 0.36605665
-1.7686398 -1.4723989 0.3644923
-1.7931168 -1.4738002 0.36762097
-1.810011 -1.4687281 0.36918533
-1.8346206 -1.4696767 0.37231401
-1.8515657 -1.4642471 0.37387836
-1.8685143 -1.4586627 0.37544271
-1.9011129 -1.46498 0.38013574
-1.9260026 -1.464965 0.38326442
-1.9509665 -1.4646945 0.38639313
-1.9680667 -1.4582876 0.38795745
-1.993064 -1.4576513 0.39108616
-2.0100653 -1.4510558 0.39265051
-2.0432208 -1.4556674 0.39734355
-2.0684867 -1.4541614 0.40047222
-2.0938137 -1.452395 0.4036009
-2.1191995 -1.4503672 0.40672961
-2.136456 -1.4425503 0.40829393
-2.1701384 -1.4455246 0.41298699
-2.2039413 -1.4481318 0.41768003
-2.2212851 -1.4396273 0.41924435
-2.2552526 -1.4416009 0.42393738
-2.2893312 -1.4432044 0.42863044
-2.3234475 -1.4445493 0.43332347
-2.3491931 -1.4404517 0.43645215
-2.3750472 -1.4359733 0.43958083
-2.400991 -1.4311361 0.44270954
-2.4525139 -1.4410402 0.45053124
-2.4529729 -1.4206522 0.44896692
-2.4532728 -1.4003155 0.44740257
-2.4448059 -1.3751892 0.44427386
-2.4965918 -1.383741 0.4520956
-2.5139053 -1.372761 0.45365995
-2.5050845 -1.3475804 0.45053124
-2.4960473 -1.3225653 0.44740257
-2.4867952 -1.2977172 0.44427386
-2.4949 -1.2820667 0.44427386
-2.5116568 -1.2709477 0.44583821
-2.5548444 -1.2729807 0.4520956
-2.5893469 -1.2700498 0.45678863
-2.62396 -1.2666365 0.46148166
-2.6675532 -1.2670755 0.46773905
-2.7112539 -1.2670162 0.47399643
-2.7460835 -1.2623318 0.47868946
-2.7899601 -1.261328 0.48494685
-2.833993 -1.2596831 0.4912042
-2.869113 -1.2534661 0.49589723
-2.9132202 -1.2510349 0.50215465
-2.9664125 -1.2521662 0.50997633
-3.0106676 -1.2487527 0.51623374
-5.7629113 -1.5033087 0.94329983
-5.8774109 -1.4943457 0.96050757
-6.0113368 -1.4881785 0.98084408
-6.1455259 -1.4799155 1.0011805
-6.2893209 -1.4728695 1.0230814
-6.4331532 -1.4645667 1.0449822
-6.5868335 -1.4563468 1.0684474
-6.7407112 -1.4460084 1.0919125
-6.9237242 -1.4398217 1.1200707
-7.1166 -1.4333448 1.1497933
-7.3193564 -1.4263849 1.1810802
-7.5125914 -1.4151078 1.2108028
-7.7059669 -1.4014535 1.2405252
-7.8508177 -1.3768969 1.2624261
-7.868988 -1.3295703 1.2639904
-7.8673263 -1.2792028 1.2624261
-7.8654027 -1.2285216 1.2608618
-7.8631983 -1.1776171 1.2592974
-7.8704977 -1.1278003 1.2592974
-7.8677368 -1.0763018 1.2577331
-7.8547444 -1.024382 1.2546043
-7.9197507 -0.98299325 1.2639904
-8.2200079 -0.96817482 1.3109208
-8.3535385 -0.93072826 1.3312572
-8.3493986 -0.8771891 1.329693
-8.3645744 -0.82568371 1.3312572
-8.3499269 -0.77129233 1.3281286
-8.3447676 -0.71796882 1.3265642
-8.3392687 -0.66473609 1.3249999
-8.3432808 -0.61232829 1.3249999
-8.3469629 -0.55989188 1.3249999
-8.3404579 -0.50683868 1.3234355
-8.3336153 -0.45388493 1.3218712
-8.3363028 -0.4015168 1.3218712
-8.338644 -0.34954143 1.3218712
-8.3406496 -0.29786789 1.3218712
-8.3324747 -0.24548328 1.3203069
-8.3239775 -0.1928976 1.3187425
-8.3250256 -0.14059074 1.3187425
-8.3257446 -0.088282757 1.3187425
-8.3162584 -0.035924193 1.3171781
-8.3064432 0.016307246 1.3156139
-8.3160534 0.068581253 1.3171781
-8.305582 0.12068523 1.3156139
-8.3046598 0.17287031 1.3156139
-8.3034096 0.22504415 1.3156139
-8.3018322 0.27721351 1.3156139
-8.2999268 0.32936755 1.3156139
-8.3174257 0.38242024 1.3187425
-8.3148594 0.43467015 1.3187425
-8.302104 0.48632973 1.3171781
-8.2988844 0.53848135 1.3171781
-8.2953367 0.59061611 1.3171781
-8.2914619 0.64272308 1.3171781
-8.2971373 0.69522333 1.3187425
-8.2926702 0.74661964 1.3187425
-8.2878456 0.79839343 1.3187425
-8.292491 0.85145813 1.3203069
-8.2673397 0.90140539 1.3171781
-8.4381256 0.97371036 1.3453363
-8.1965332 0.99805903 1.3077921
-8.1901007 1.0495372 1.3077921
-8.1931334 1.1022953 1.3093565
-8.1860456 1.1537501 1.3093565
-8.1786938 1.2047629 1.3093565
-8.1905966 1.2584153 1.3124851
-8.1923313 1.3110982 1.3140495
-8.1741896 1.3609217 1.3124851
-8.1654768 1.4122567 1.3124851
-8.1661644 1.465276 1.3140495
-7.8945417 1.4681989 1.2718122
-7.5261774 1.4493535 1.2139314
-7.2165775 1.4371042 1.1654367
-6.9171748 1.4227222 1.1185064
-6.6472335 1.4107922 1.0762691
-6.28124 1.3744125 1.0183884
-6.3014555 1.4200565 1.0230814
-6.3214006 1.4657664 1.0277745
-6.1391888 1.4639767 0.99961621
-5.9284186 1.4531411 0.96676499
-5.0216618 1.3317044 0.82284528
-4.8607035 1.3217616 0.79781574
-2.8612859 1.2217698 0.49276856
-2.8082583 1.2200462 0.48494685
-2.7553673 1.2177037 0.47712511
-2.7026181 1.214747 0.4693034
-2.6590002 1.2152805 0.46304601
-2.6065259 1.211154 0.45522428
-2.5542109 1.2064154 0.44740257
-2.5110233 1.2052193 0.44114518
-2.4679966 1.203439 0.4348878
-2.4249721 1.2014101 0.42863044
-2.3819811 1.1990694 0.42237306
-2.3479714 1.2006136 0.41768003
-2.30532 1.1971346 0.41142264
-2.2628055 1.193169 0.40516526
-2.2291415 1.1933775 0.40047222
-2.1955647 1.1932118 0.39577919
-2.1620796 1.1926707 0.39108616
-2.1286883 1.1917577 0.38639313
-2.086808 1.1855925 0.38013574
-2.0537052 1.1837811 0.37544271
-2.0292783 1.1865126 0.37231401
-1.9962856 1.1841447 0.36762097
-1.9548515 1.1764659 0.36136362
-1.9305731 1.1784122 0.35823491
-1.9064376 1.1799555 0.35510623
-1.8739343 1.1760871 0.3504132
-1.8498428 1.1772319 0.3472845
-1.8258109 1.1781218 0.34415582
-1.793577 1.1733485 0.33946279
-1.7697065 1.1736772 0.33633408
-1.7377073 1.1682413 0.33164105
-1.7221705 1.1735749 0.33007672
-1.6985093 1.1731458 0.32694802
-1.6587389 1.1611387 0.32069066
-1.6433551 1.1658226 0.31912631
-1.6119386 1.1588295 0.31443328
-1.5966427 1.1631187 0.31286892
-1.5733535 1.161473 0.30974025
-1.558014 1.1655556 0.30817589
-1.5349293 1.1633737 0.30504721
-1.4963542 1.1488032 0.29878983
-1.4891506 1.1581256 0.29878983
-1.4663281 1.1552342 0.29566112
-1.4436015 1.1521022 0.29253244
-1.4286535 1.1549401 0.29096809
-1.4060848 1.1513792 0.28783941
-1.3912207 1.1538854 0.28627506
-1.3763804 1.1562512 0.28471074
-1.3615662 1.1584756 0.28314638
-1.3392959 1.1541129 0.28001767
-1.3245769 1.1560103 0.27845335
-1.3024861 1.1512282 0.27532464
-1.287868 1.1528014 0.27376032
-1.2732813 1.1542374 0.27219597
-1.2587284 1.1555351 0.27063161
-1.2442091 1.1566964 0.26906729
-1.2297257 1.1577204 0.26750293
-1.2081296 1.1517938 0.26437426
-1.1937635 1.1525015 0.2628099
-1.1794357 1.1530751 0.26124555
-1.1581299 1.1465648 0.25811687
-1.1439276 1.1468264 0.25655252
-1.1297685 1.1469543 0.25498816
-1.1156526 1.1469506 0.25342384
-1.1015823 1.1468143 0.25185949
-1.0875574 1.1465476 0.25029513
-1.0735803 1.1461494 0.24873079
-1.0596507 1.1456218 0.24716645
-1.045771 1.1449641 0.2456021
-1.0386131 1.151461 0.2456021
-1.0117491 1.1357492 0.24090907
-1.0046366 1.1420455 0.24090907
1.199024 5.3973012 -0.48371437
1.2329123 5.3896613 -0.48371437
1.2758816 5.4205961 -0.48720059
1.3122581 5.4221549 -0.48807216
1.3511087 5.4331379 -0.48981526
1.387684 5.4341936 -0.49068683
1.4218005 5.4253674 -0.49068683
1.4532748 5.4067063 -0.48981526
1.4925098 5.4166765 -0.49155837
1.5319272 5.4263663 -0.49330148
1.5659918 5.4166341 -0.49330148
1.6028212 5.4162402 -0.49417305
1.6397074 5.415597 -0.49504462
1.6795952 5.4242201 -0.49678773
1.7136433 5.4135599 -0.49678773
1.7506895 5.4121642 -0.4976593
1.7909114 5.4199753 -0.4994024
1.8281155 5.4180551 -0.50027394
1.8491454 5.3687859 -0.49678773
1.8324083 5.1106906 -0.4749988
1.8747464 5.1271443 -0.47761345
1.0439365 2.8003271 -0.26146722
1.0685875 2.8123372 -0.26321033
1.0862368 2.8055677 -0.26321033
1.1038431 2.7986872 -0.26321033
1.1214058 2.7916965 -0.26321033
1.1389244 2.7845955 -0.26321033
1.1563979 2.7773845 -0.26321033
1.1738257 2.7700639 -0.26321033
2.5294132 5.3935914 -0.52119136
2.5761111 5.4045701 -0.52380598
2.6143606 5.397243 -0.52467757
2.6350236 5.3538957 -0.5220629
2.6819763 5.3639646 -0.52467757
2.724648 5.3647718 -0.52642065
2.7628684 5.3564 -0.52729225
4.9809227 0.89486384 -0.44275117
4.9962626 0.86525017 -0.44362271
4.9917741 0.83220261 -0.44275117
4.9969044 0.80082214 -0.44275117
5.0116839 0.77092457 -0.44362271
5.5289125 0.81496012 -0.4889437
5.4056869 0.76212543 -0.47761345
5.627532 0.75768423 -0.49678773
5.8198557 0.74689603 -0.51334733
6.0024061 0.73221827 -0.52903533
6.2344966 0.72080487 -0.54908115
6.456769 0.70542085 -0.56825542
6.7385435 0.69338936 -0.59265906
7.0204105 0.67784375 -0.61706263
7.3321018 0.66146767 -0.64408094
7.6637073 0.6428659 -0.67284232
8.0648794 0.62551558 -0.7077046
8.476058 0.60385501 -0.74343848
11.302933 0.73390049 -0.99096078
11.187983 0.65587193 -0.98050207
11.201831 0.58608365 -0.98137367
11.185361 0.51538247 -0.97963053
11.178386 0.44567341 -0.97875899
11.180973 0.37518492 -0.97875899
10.872229 -1.0018876 -0.9552269
11.202795 -1.1033787 -0.98485988
10.868689 -1.1394682 -0.9560985
10.891017 -1.2110382 -0.95871317
10.883263 -1.2788515 -0.95871317
10.894903 -1.3487053 -0.96045625
10.886261 -1.4167764 -0.96045625
10.867273 -1.4838009 -0.95958471
10.857821 -1.551461 -0.95958471
10.857852 -1.6201743 -0.96045625
10.857357 -1.6895404 -0.96132785
10.856361 -1.7593176 -0.96219939
10.845093 -1.8274951 -0.96219939
10.853022 -1.8990345 -0.96394253
10.615433 -1.9262792 -0.94389665
10.593329 -1.9910994 -0.94302511
10.541495 -2.0500128 -0.9395389
10.811638 -2.1731358 -0.96481407
10.836786 -2.2491217 -0.96830028
7.8587828 -1.7861927 -0.70508993
7.6146016 -1.7810818 -0.68417257
7.3611183 -1.7706455 -0.66238362
7.1178432 -1.7590994 -0.64146626
6.8943758 -1.7492673 -0.62229198
6.6712165 -1.7371 -0.6031177
6.458056 -1.7249948 -0.58481503
6.2645345 -1.7155448 -0.56825542
6.071394 -1.7037331 -0.55169582
5.8978977 -1.6947463 -0.53687936
5.7343674 -1.6862882 -0.52293444
5.5806227 -1.679045 -0.50986111
5.4366646 -1.6730552 -0.4976593
5.3025098 -1.668314 -0.48632905
5.1686344 -1.6619546 -0.4749988
5.0539818 -1.6601983 -0.46541166
4.788445 -1.6063739 -0.4418796
4.7782574 -1.6364287 -0.4418796
4.8054976 -1.6795663 -0.44536585
4.8417659 -1.726456 -0.44972363
4.7465644 -1.7262009 -0.4418796
7.3566284 -4.2530241 -0.74343848
7.2351003 -4.2439585 -0.73385131
7.122683 -4.2383919 -0.72513574
7.0193839 -4.2363477 -0.71729177
6.9165292 -4.2329555 -0.70944774
6.8137574 -4.2288251 -0.70160371
2.135231 -1.5182711 -0.2292196
2.1337316 -1.5374808 -0.23009115
2.0998926 -1.5332338 -0.22747648
2.0661924 -1.5286225 -0.22486182
2.0327165 -1.5235385 -0.22224714
2.0073695 -1.5240557 -0.22050403
1.9741149 -1.5183525 -0.21788935
1.9488196 -1.5184804 -0.21614625
1.923601 -1.5183512 -0.21440312
1.8984619 -1.5179651 -0.21266001
1.8734041 -1.5173236 -0.21091689
1.84843 -1.5164276 -0.20917378
1.8235416 -1.5152782 -0.20743066
1.7987413 -1.5138764 -0.20568755
1.7816956 -1.5185887 -0.204816
1.7571695 -1.5165807 -0.20307288
1.7251539 -1.5078663 -0.2004582
1.700727 -1.5054699 -0.19871509
1.6838167 -1.5094765 -0.19784354
1.6669234 -1.5133302 -0.19697197
1.6427974 -1.5101995 -0.19522886
1.618825 -1.5067744 -0.19348575
1.6021255 -1.510031 -0.19261418
1.5781934 -1.5063113 -0.19087107
1.5615349 -1.5092744 -0.18999952
1.5449017 -1.5120878 -0.18912795
1.5212196 -1.5077393 -0.18738484
1.4976537 -1.5031534 -0.18564174
1.4811928 -1.5054327 -0.18477017
1.4717048 -1.5147096 -0.18477017
1.448447 -1.5094708 -0.18302706
1.4322141 -1.5111856 -0.1821555
1.4091259 -1.5055615 -0.18041238
1.3928769 -1.5070697 -0.17954083
1.3766648 -1.5084333 -0.17866927
1.3538218 -1.5022529 -0.17692615
1.3311113 -1.4958454 -0.17518304
1.3216864 -1.5041795 -0.17518304
1.305763 -1.5048583 -0.17431149
1.2899321 -1.505355 -0.17343992
1.2740631 -1.5057832 -0.17256837
1.2581902 -1.5061134 -0.17169681
1.2360251 -1.4986186 -0.16995369
1.2265846 -1.5063552 -0.16995369
1.2109364 -1.5062019 -0.16908213
1.1891936 -1.4980708 -0.16733903
1.1736616 -1.4976338 -0.16646747
1.1642286 -1.5049785 -0.16646747
1.1487038 -1.5043463 -0.1655959
1.1332332 -1.5035785 -0.16472435
1.1178178 -1.5026762 -0.1638528
1.1024586 -1.5016398 -0.16298124
1.0871569 -1.50047 -0.16210967
1.0777078 -1.5072712 -0.16210967
1.0624733 -1.5058727 -0.16123812
1.0472989 -1.5043429 -0.16036656
1.0321858 -1.5026822 -0.15949501
1.0171353 -1.5008912 -0.15862344
1.0076848 -1.5072525 -0.15862344
-2.9112077 -3.8184805 -0.42009068
-2.9408994 -3.8082545 -0.42096224
-2.970783 -3.7976446 -0.42183378
-3.0069597 -3.7945192 -0.42357689
-3.0494502 -3.798857 -0.42619157
-3.0795436 -3.7873511 -0.42706314
-3.1096125 -3.7756166 -0.42793468
-3.1524181 -3.7789531 -0.43054935
-3.1889584 -3.7742903 -0.43229249
-3.225564 -3.7693169 -0.4340356
-3.262027 -3.76421 -0.43577871
-3.3049984 -3.7663903 -0.43839338
-3.3417099 -3.7605526 -0.44013649
-3.3785996 -3.7542918 -0.4418796
-3.4155424 -3.7477152 -0.44362271
-3.4660482 -3.7554631 -0.44710895
-3.5029759 -3.7483585 -0.44885206
-3.5398264 -3.741055 -0.45059517
-3.5838172 -3.7404351 -0.45320985
-3.6280594 -3.7392926 -0.45582452
-3.6724277 -3.737741 -0.4584392
-3.7098925 -3.7287169 -0.46018231
-3.7544591 -3.7263863 -0.46279699
-3.770684 -3.69575 -0.46192542
-3.7723551 -3.6512012 -0.45931077
-3.773617 -3.6067774 -0.45669609
-3.7599812 -3.5488071 -0.45233831
-3.7749171 -3.5183206 -0.45146674
-3.8189387 -3.5147712 -0.45408142
-3.8556917 -3.504107 -0.45582452
-3.8702183 -3.4731584 -0.45495296
-3.9068761 -3.4619863 -0.45669609
-3.9058728 -3.4179039 -0.45408142
-3.9043624 -3.3740973 -0.45146674
-1.7429278 -1.4872859 -0.2004582
-1.7446197 -1.4698868 -0.19958664
-1.7691381 -1.4716375 -0.20132977
-1.7937466 -1.4731376 -0.20307288
-1.8184433 -1.4743861 -0.204816
-1.8354485 -1.4691566 -0.20568755
-1.8524591 -1.4637721 -0.20655911
-1.8773296 -1.4643579 -0.20830221
-1.9022799 -1.4646885 -0.21004534
-1.9273077 -1.4647629 -0.21178845
-1.944442 -1.4586023 -0.21266001
-1.9695811 -1.4582117 -0.21440312
-1.9947119 -1.4576712 -0.21614625
-2.0198641 -1.4569398 -0.21788935
-2.0451629 -1.4558402 -0.21963246
-2.0705733 -1.4544134 -0.22137558
-2.0960462 -1.4527245 -0.22311869
-2.1215789 -1.4507723 -0.22486182
-2.1471691 -1.4485562 -0.22660492
-2.1728146 -1.4460753 -0.22834805
-2.2068408 -1.4487962 -0.23096271
-2.224262 -1.4403163 -0.23183428
-2.2584548 -1.4423994 -0.23444894
-2.2927608 -1.4441082 -0.23706362
-2.3186355 -1.4403129 -0.23880672
-2.3529985 -1.4415318 -0.2414214
-2.3790169 -1.4370975 -0.24316452
-2.4051178 -1.4323158 -0.24490763
-2.4398427 -1.4323058 -0.24752231
-2.4487939 -1.4169476 -0.24752231
-2.4403412 -1.3916636 -0.24577919
-2.4490371 -1.3763031 -0.24577919
-2.5012114 -1.3850174 -0.25013697
-2.5011191 -1.3645036 -0.24926542
-2.5008681 -1.3440459 -0.24839386
-2.4828503 -1.3143238 -0.24577919
-2.4822259 -1.2940924 -0.24490763
-2.4814456 -1.2739209 -0.24403608
-2.4982226 -1.2629348 -0.24490763
-2.541672 -1.2651891 -0.24839386
-2.5763676 -1.2624283 -0.25100854
-2.620141 -1.2635242 -0.25449476
-2.6640286 -1.2641191 -0.257981
-2.6989989 -1.2599978 -0.26059568
-2.7430747 -1.2596437 -0.2640819
-2.787251 -1.2587848 -0.26756811
-2.8224869 -1.2532233 -0.27018279
-2.8669348 -1.2511555 -0.27366903
-2.9113331 -1.2488894 -0.27715525
-2.9557321 -1.2463095 -0.2806415
-3.0989158 -1.2385365 -0.29197174
-3.1530044 -1.2372357 -0.29632953
-5.7360077 -1.4939185 -0.51857668
-5.8610225 -1.4877628 -0.52903533
-5.9960093 -1.4818491 -0.54036558
-6.1215596 -1.4715641 -0.55082428
-6.2664585 -1.464956 -0.56302607
-6.401701 -1.4547992 -0.57435632
-6.5565872 -1.44696 -0.5874297
-6.7116661 -1.4370221 -0.60050309
-6.8863826 -1.4292365 -0.61531955
-7.0710254 -1.4212775 -0.63100755
-7.2656126 -1.4129512 -0.64756715
-7.4505758 -1.400398 -0.66325521
-7.6552653 -1.3891284 -0.68068635
-7.820848 -1.3684764 -0.69463128
-7.8292203 -1.319733 -0.69463128
-7.827414 -1.2696023 -0.69375968
-7.8351965 -1.2206531 -0.69375968
-7.8328586 -1.1699296 -0.69288814
-7.840116 -1.1202635 -0.69288814
-7.8372226 -1.068951 -0.6920166
-7.8240042 -1.0172919 -0.69027346
-7.8697033 -0.97368723 -0.69375968
-8.1724558 -0.95932162 -0.71990645
-8.2476301 -0.91565061 -0.72600734
-8.2631283 -0.86484617 -0.72687888
-8.2485704 -0.81096339 -0.72513574
-8.2535038 -0.75911814 -0.72513574
-8.25811 -0.70724732 -0.72513574
-8.2723217 -0.65613186 -0.72600734
-8.266345 -0.60341954 -0.72513574
-8.2500935 -0.5501411 -0.72339267
-8.2434435 -0.49769545 -0.72252107
-8.2364607 -0.44535074 -0.72164953
-8.229146 -0.39311782 -0.72077799
-8.2314348 -0.34185445 -0.72077799
-8.24335 -0.29119703 -0.72164953
-8.2250938 -0.23908822 -0.71990645
-8.2264338 -0.18740615 -0.71990645
-8.2174883 -0.13554801 -0.71903485
-8.2281389 -0.084017485 -0.71990645
-8.2185431 -0.032275844 -0.71903485
-8.2185831 0.01936098 -0.71903485
-8.2083378 0.070915356 -0.71816331
-8.2176914 0.12263467 -0.71903485
-8.2167587 0.17426746 -0.71903485
-8.2055435 0.22561519 -0.71816331
-8.2139196 0.27750599 -0.71903485
-8.2020607 0.32870874 -0.71816331
-8.2097845 0.38070071 -0.71903485
-8.1972818 0.43175036 -0.71816331
-8.1944075 0.48324883 -0.71816331
-8.1912098 0.53472382 -0.71816331
-8.1976242 0.5868935 -0.71903485
-8.1838436 0.63761282 -0.71816331
-8.18964 0.68940967 -0.71903485
-8.1852112 0.74014002 -0.71903485
-8.1804247 0.79128641 -0.71903485
-8.175292 0.84266752 -0.71903485
-8.179739 0.89510334 -0.71990645
-8.1640577 0.94533217 -0.71903485
-8.1777334 0.99902773 -0.72077799
-8.1614141 1.0491177 -0.71990645
-8.1645336 1.1017108 -0.72077799
-8.1574507 1.1529859 -0.72077799
-8.1501102 1.2037771 -0.72077799
-8.1523409 1.2557693 -0.72164953
-8.15417 1.3082739 -0.72252107
-8.1457891 1.3594798 -0.72252107
-8.1469011 1.412338 -0.72339267
-8.1476717 1.4652594 -0.7242642
-7.8933897 1.4712341 -0.70247525
-7.4828167 1.4440953 -0.66674143
-7.1804662 1.4328438 -0.64059472
-6.8883719 1.4196167 -0.61531955
-6.5967379 1.4027816 -0.59004438
-6.2666759 1.3738037 -0.56128299
-6.2871494 1.4193909 -0.56389767
-6.2879376 1.4605732 -0.56476921
-6.2205496 1.4859593 -0.55953985
-6.2014165 1.5226376 -0.55866832
-5.2644167 1.327703 -0.4749988
-5.4970703 1.4231725 -0.49678773
-5.0066142 1.3298177 -0.45320985
-4.9020419 1.3350695 -0.44449428
-2.8671243 1.2255936 -0.27279747
-2.8136899 1.2237192 -0.26843968
-2.7603948 1.221221 -0.2640819
-2.7163281 1.2221912 -0.26059568
-2.6633015 1.2185105 -0.25623786
-2.6104293 1.214214 -0.25188008
-2.5667248 1.2135586 -0.24839386
-2.5231988 1.2122656 -0.24490763
-2.4708769 1.206028 -0.24054985
-2.43645 1.208304 -0.23793517
-2.3931172 1.2058705 -0.23444894
-2.3499818 1.2028056 -0.23096271
-2.3070219 1.1991684 -0.22747648
-2.273011 1.1996909 -0.22486182
-2.2390864 1.1998326 -0.22224714
-2.1964991 1.1948369 -0.21876091
-2.162786 1.194168 -0.21614625
-2.1291685 1.1931244 -0.21353157
-2.0956509 1.191705 -0.21091689
-2.0623012 1.1898 -0.20830221
-2.0376937 1.1924921 -0.20655911
-1.9958711 1.1849726 -0.20307288
-1.9712145 1.1873835 -0.20132977
-1.9382385 1.1841215 -0.19871509
-1.913927 1.1856161 -0.19697197
-1.8811718 1.181659 -0.19435731
-1.8569058 1.1827512 -0.19261418
-1.8327005 1.1835866 -0.19087107
-1.8085592 1.1841639 -0.18912795
-1.7761831 1.1789768 -0.18651329
-1.7522104 1.1789905 -0.18477017
-1.7283076 1.1787509 -0.18302706
-1.7044784 1.178257 -0.18128394
-1.6807235 1.1775116 -0.17954083
-1.6570467 1.1765137 -0.1777977
-1.6334486 1.175266 -0.1760546
-1.609933 1.1737679 -0.17431149
-1.5944493 1.178028 -0.17343992
-1.5629894 1.1702491 -0.17082526
-1.5476942 1.1739925 -0.16995369
-1.5245914 1.1714206 -0.16821058
-1.5093784 1.1748081 -0.16733903
-1.486322 1.1719321 -0.1655959
-1.4633619 1.1688132 -0.1638528
-1.4482448 1.1717184 -0.16298124
-1.4254436 1.1681664 -0.16123812
-1.4104108 1.1707366 -0.16036656
-1.3877764 1.1667541 -0.15862344
-1.3728337 1.1689918 -0.15775189
-1.3503734 1.1645827 -0.15600878
-1.3355268 1.1664907 -0.15513723
-1.3132477 1.1616586 -0.1533941
-1.2985032 1.1632396 -0.15252255
-1.2837902 1.1646821 -0.151651
-1.2691115 1.1659852 -0.15077943
-1.2544667 1.1671509 -0.14990787
-1.2398582 1.1681781 -0.14903632
-1.225286 1.1690687 -0.14816476
-1.2107525 1.1698219 -0.14729321
-1.1962575 1.1704396 -0.14642164
-1.1747267 1.1639094 -0.14467853
-1.1603578 1.1642119 -0.14380698
-1.1460322 1.1643795 -0.14293541
-1.1386933 1.1715574 -0.14293541
-1.1244119 1.1715015 -0.14206386
-1.1033227 1.1640829 -0.14032075
-1.0891799 1.1637187 -0.13944918
-1.0750847 1.1632236 -0.13857763
-1.0610396 1.1625971 -0.13770607
-1.0471082 1.1617835 -0.13683452
-1.0398896 1.168249 -0.13683452
-1.0259905 1.1672436 -0.13596296
-1.0055771 1.1586198 -0.13421984
8.5482426 3.3952799 1.7878803
8.4688053 3.3022761 1.7668912
8.4802189 3.2454915 1.7649832
8.5188236 3.1990469 1.7687993
8.547966 3.1488519 1.7707075
8.549118 3.0884111 1.7668912
8.5776072 3.0379117 1.7687993
8.5687046 2.9743006 1.7630751
8.5500498 2.9077609 1.7554427
8.540041 2.8451874 1.7497184
8.5201769 2.7800407 1.7420861
8.5282145 2.7231865 1.740178
8.5243511 2.6038685 1.7325456
8.512104 2.5425737 1.7268214
4.9675169 0.82615381 0.97885013
4.9823027 0.79647535 0.98075819
4.9775062 0.76366645 0.97885013
4.9822059 0.73237693 0.97885013
5.550509 0.78032047 1.0895194
5.3606772 0.71964192 1.0513575
5.5695081 0.71257544 1.0914274
5.7687473 0.7014159 1.1295892
6.0070825 0.69212192 1.1753834
6.2260022 0.67773497 1.2173613
6.4547353 0.66162443 1.2612474
6.7225876 0.64642364 1.3127658
7.0002699 0.62876022 1.3661923
7.2975492 0.60926527 1.4234351
7.6437845 0.58983469 1.4902183
8.009634 0.56746471 1.5608176
8.3950806 0.54178298 1.635233
9.7673769 -1.9672303 1.9367113
9.3223438 -1.9386252 1.8508472
8.9260626 -1.9148036 1.7745236
8.5688028 -1.8945587 1.7058324
8.2313061 -1.8742616 1.6409574
7.9326453 -1.8587592 1.5837146
7.6154294 -1.8349813 1.5226557
7.3561172 -1.821009 1.4730455
6.8880286 -1.7504961 1.3814571
6.8104534 -1.7762115 1.3681005
6.6000199 -1.7656924 1.3280306
6.4467959 -1.7681788 1.2994093
6.2465558 -1.7555327 1.2612474
6.0657077 -1.7455091 1.2269018
5.8852801 -1.733143 1.1925561
5.7145414 -1.7217846 1.1601187
5.5722771 -1.7171836 1.1334054
5.4115763 -1.7049649 1.1028759
5.2699428 -1.6968136 1.0761627
5.1286306 -1.6869514 1.0494494
4.9876552 -1.675382 1.0227362
4.8191767 -1.6525571 0.99029869
4.7623715 -1.6665922 0.98075819
4.7610512 -1.6997826 0.98266631
4.8056202 -1.7498149 0.99411488
3.6883667 -1.6105689 0.78231686
3.5526211 -1.5778294 0.75560361
3.5784216 -1.6162827 0.76323599
3.577116 -1.6428314 0.76514405
8.0412035 -4.3220506 1.7745236
7.9363346 -4.3301749 1.7573508
7.8147688 -4.3271742 1.7363619
7.7022281 -4.3274274 1.717281
7.572413 -4.3176413 1.6943839
7.4597907 -4.3166285 1.675303
2.1258202 -1.5330489 0.50946003
2.1082203 -1.5405837 0.50755191
2.0827208 -1.5421169 0.50373572
2.049526 -1.537377 0.49801147
2.0165133 -1.5322294 0.49228719
1.9913313 -1.5328391 0.48847103
1.9584383 -1.5272114 0.48274675
1.9333984 -1.5273167 0.47893056
1.9160994 -1.5333011 0.47702247
1.8835505 -1.5267663 0.47129822
1.858747 -1.5261127 0.46748203
1.8340267 -1.5252082 0.46366584
1.8093916 -1.5240538 0.45984969
1.7849354 -1.5225437 0.4560335
1.7606102 -1.5207403 0.45221731
1.7362856 -1.5187985 0.44840112
1.7193607 -1.5231686 0.44649303
1.6951432 -1.5208309 0.44267687
1.6710235 -1.5182496 0.43886068
1.6470945 -1.515327 0.4350445
1.630491 -1.5188127 0.4331364
1.6066763 -1.5155116 0.42932025
1.5900241 -1.5187963 0.42741215
1.5663387 -1.5151072 0.42359596
1.5497756 -1.5180497 0.42168787
1.5262682 -1.5139314 0.41787168
1.5098002 -1.5165347 0.41596359
1.4864781 -1.5119911 0.41214743
1.470111 -1.514258 0.41023934
1.4538652 -1.5162921 0.40833125
1.4309431 -1.511016 0.40451506
1.4147576 -1.5127685 0.40260696
1.3919051 -1.5072048 0.39879081
1.3757932 -1.5086673 0.39688271
1.3597182 -1.5099872 0.39497462
1.3371584 -1.5038292 0.39115843
1.3276832 -1.5122012 0.39115843
1.2989553 -1.4981841 0.38543415
1.2896479 -1.5062034 0.38543415
1.2738627 -1.5067453 0.38352609
1.25808 -1.5071836 0.38161799
1.2423424 -1.5074832 0.3797099
1.226651 -1.507645 0.37780181
1.2049493 -1.499944 0.37398562
1.1895323 -1.4996904 0.37207752
1.1740754 -1.4993737 0.37016943
1.1646315 -1.506721 0.37016943
1.1432328 -1.4984004 0.36635327
1.1337955 -1.5055541 0.36635327
1.112602 -1.4968914 0.36253709
1.0973686 -1.4959375 0.36062899
1.0821913 -1.4948515 0.3587209
1.0670714 -1.4936342 0.3568128
1.0633216 -1.5083324 0.3587209
1.042613 -1.4988664 0.35490471
1.0276201 -1.4972943 0.35299665
1.0181921 -1.5037215 0.35299665
1.0032713 -1.5019265 0.35108855
-2.9293609 -3.7902782 0.93114787
-2.9772196 -3.8027959 0.93878025
-3.0193534 -3.8070877 0.9445045
-3.0493622 -3.7956941 0.94641262
-3.0855427 -3.7916873 0.95022881
-3.1217928 -3.787375 0.95404494
-3.1581099 -3.7827561 0.95786113
-3.1944916 -3.7778299 0.96167731
-3.2373211 -3.780051 0.96740156
-3.2736456 -3.774663 0.97121775
-3.3099246 -3.7690594 0.97503394
-3.353008 -3.7702851 0.98075819
-3.3897698 -3.7637315 0.98457438
-3.4331961 -3.7641165 0.99029869
-3.4767601 -3.7641037 0.99602294
-3.5135281 -3.7567329 0.99983913
-3.5569861 -3.7562735 1.0055634
-3.6007967 -3.7552044 1.0112877
-3.6448352 -3.7536333 1.0170119
-3.6821127 -3.744657 1.0208281
-3.7263472 -3.7423158 1.0265523
-3.7706969 -3.7395656 1.0322766
-3.8221712 -3.7432735 1.039909
-3.8173907 -3.6918874 1.0322766
-3.8050165 -3.6339316 1.0227362
-3.8063498 -3.5897474 1.0170119
-3.8072791 -3.5456908 1.0112877
-3.8005803 -3.4951203 1.0036553
-3.8006644 -3.4513741 0.997931
-3.7930415 -3.4012122 0.99029869
-3.7922888 -3.3577907 0.98457438
-3.7909424 -3.3147409 0.97885013
-3.789119 -3.2719417 0.97312587
-1.7703032 -1.5094455 0.45221731
-1.7722429 -1.4919708 0.45030922
-1.766484 -1.4682568 0.44649303
-1.7984395 -1.4758099 0.45221731
-1.815304 -1.4706601 0.4541254
-1.8321747 -1.4653565 0.4560335
-1.8567543 -1.4659815 0.45984969
-1.8736707 -1.4603212 0.46175775
-1.8983696 -1.4604911 0.46557394
-1.9231439 -1.4604077 0.46939012
-1.9479915 -1.4600703 0.47320631
-1.9729102 -1.4594777 0.47702247
-1.9978102 -1.4587489 0.48083866
-2.0227375 -1.4578212 0.48465484
-2.0398169 -1.4508286 0.48656294
-2.0649621 -1.4492618 0.4903791
-2.0901675 -1.4474357 0.49419528
-2.1154311 -1.4453498 0.49801147
-2.1244707 -1.4320297 0.49801147
-2.1497746 -1.4295239 0.50182766
-2.191546 -1.4375243 0.50946003
-2.22526 -1.4397231 0.51518428
-2.2425373 -1.4309934 0.51709235
-2.301332 -1.4482455 0.52854091
-2.4475262 -1.4149319 0.54952991
-2.4563682 -1.3995258 0.54952991
-2.4565537 -1.3792586 0.54762179
-2.4995291 -1.3828042 0.55525416
-2.4995489 -1.3623741 0.5533461
-2.5080597 -1.3466421 0.5533461
-2.5077939 -1.3262678 0.55143797
-2.4986651 -1.3014157 0.54762179
-2.4893239 -1.276731 0.5438056
-2.5147455 -1.2700653 0.54762179
-2.557724 -1.2719438 0.55525416
-2.5920806 -1.2688661 0.56097841
-2.6353762 -1.2695962 0.56861079
-2.6787817 -1.2698317 0.57624316
-2.7222929 -1.2695711 0.58387554
-2.756983 -1.2647202 0.58959979
-2.7917185 -1.2594831 0.59532404
-2.8445175 -1.2616495 0.60486448
-2.8794923 -1.2552711 0.61058879
-2.9323957 -1.2565806 0.62012923
-2.9763114 -1.2536288 0.6277616
-5.7762032 -1.5019991 1.1601187
-5.890069 -1.4927069 1.1811076
-6.0232754 -1.4860449 1.2059128
-6.1471629 -1.475132 1.22881
-6.2900949 -1.4679132 1.2555232
-6.4522381 -1.4636567 1.2860526
-6.6050649 -1.4549396 1.3146739
-6.7676692 -1.4462308 1.3452034
-6.9496422 -1.4395204 1.379549
-7.1414165 -1.4325058 1.4158027
-7.3333693 -1.4231406 1.4520564
-7.5351276 -1.413224 1.4902183
-7.7370424 -1.4008307 1.52838
-7.8520622 -1.3707573 1.549369
-7.870121 -1.3234935 1.5512772
-7.8781705 -1.2747043 1.5512772
-7.8762903 -1.2238884 1.549369
-7.8644071 -1.1714817 1.5455528
-7.8619609 -1.1201931 1.5436448
-7.8494835 -1.0674424 1.5398285
-7.8462677 -1.0170972 1.5379205
-7.9790707 -0.98408198 1.5627257
-8.2580643 -0.96608454 1.6161522
-8.3517828 -0.92389041 1.633325
-8.2954998 0.38793895 1.6142441
-8.302701 0.44057554 1.6161522
-8.2997694 0.49273181 1.6161522
-8.2965088 0.544873 1.6161522
-8.292922 0.59698832 1.6161522
-8.2792206 0.64831811 1.6142441
-8.2848082 0.70065188 1.6161522
-8.2803078 0.75197172 1.6161522
-8.2559004 0.80185843 1.612336
-8.2799921 0.85674882 1.6180602
-8.2354155 0.90446758 1.6104279
-8.7951088 1.0219065 1.7210971
-8.4572401 1.0365431 1.6562221
-8.1682253 1.0532572 1.6008874
-8.19063 1.1085061 1.6066117
-8.193222 1.161327 1.6085198
-8.1858358 1.2122928 1.6085198
-8.1878691 1.2644877 1.6104279
-8.1797981 1.3156841 1.6104279
-8.1713705 1.3670509 1.6104279
-8.1626205 1.4183637 1.6104279
-8.1535463 1.4696249 1.6104279
-7.8063331 1.4582262 1.5436448
-7.4692044 1.444551 1.4787697
-7.1519165 1.4300662 1.4177108
-6.8639994 1.4174068 1.3623762
-6.5957375 1.4052753 1.3108578
-6.3374963 1.3919404 1.2612474
-6.1276484 1.3858757 1.2211776
-5.253541 1.3271539 1.0532657
-5.4161344 1.4044902 1.0876112
-4.9423733 1.3148317 0.99411488
-4.8203707 1.314862 0.97121775
-2.7375069 1.2123821 0.58196741
-2.6940343 1.2134322 0.57433504
-2.6417329 1.2098985 0.5647946
-2.5895846 1.2057549 0.55525416
-2.5464664 1.2052053 0.54762179
-2.4946854 1.1997555 0.53808135
-2.4607441 1.2022623 0.5323571
-2.4179318 1.2003208 0.52472472
-2.3751783 1.1980164 0.51709235
-2.3326252 1.1950775 0.50946003
-2.2902374 1.1915878 0.50182766
-2.2566671 1.1921974 0.49610338
-2.2231801 1.1924341 0.4903791
-2.1897807 1.1922963 0.48465484
-2.1478796 1.1870395 0.47702247
-2.1232562 1.1909068 0.47320631
-2.0901377 1.1896573 0.46748203
-2.0486913 1.1830057 0.45984969
-2.0243814 1.1857542 0.4560335
-1.9915359 1.1834723 0.45030922
-1.9587367 1.1809297 0.44458497
-1.9261929 1.1777871 0.43886068
-1.9021726 1.1793541 0.4350445
-1.8698266 1.1755563 0.42932025
-1.8458484 1.1767285 0.42550406
-1.8136866 1.1723163 0.41977978
-1.7816535 1.1675482 0.41405553
-1.7661064 1.1732872 0.41214743
-1.7342728 1.1679116 0.40642315
-1.7187933 1.1732507 0.40451506
-1.6871696 1.1672723 0.39879081
-1.6637278 1.1665783 0.39497462
-1.6403613 1.1656371 0.39115843
-1.6170737 1.1644479 0.38734224
-1.5938656 1.1630135 0.38352609
-1.5706708 1.1614274 0.3797099
-1.5553849 1.1655229 0.37780181
-1.524614 1.1574155 0.37207752
-1.5096316 1.1608561 0.37016943
-1.486852 1.1582125 0.36635327
-1.4718392 1.1614512 0.36444518
-1.4491776 1.1584173 0.36062899
-1.4342419 1.1613222 0.3587209
-1.4117372 1.1578604 0.35490471
-1.404434 1.1667081 0.35490471
-1.3820536 1.1628691 0.35108855
-1.359777 1.1587962 0.34727237
-1.3376073 1.1544889 0.34345618
-1.3229359 1.1564105 0.34154809
-1.3009443 1.1516862 0.33773193
-1.2863733 1.153285 0.33582383
-1.2718343 1.1547458 0.33391574
-1.2573273 1.1560705 0.33200765
-1.2356708 1.1505686 0.32819146
-1.221275 1.1515757 0.32628337
-1.2069161 1.152447 0.32437527
-1.1925942 1.1531843 0.32246721
-1.1783116 1.1537867 0.32055911
-1.1640681 1.154256 0.31865102
-1.1498662 1.1545916 0.31674293
-1.1357056 1.1547952 0.31483483
-1.1215888 1.154866 0.31292674
-1.100721 1.1477212 0.30911058
-1.0867383 1.147487 0.30720249
-1.0728017 1.1471232 0.30529439
-1.0655733 1.1538409 0.30529439
-1.0450734 1.1460072 0.30147821
-1.0379219 1.1524881 0.30147821
-1.0242373 1.1515622 0.29957011
-1.0105356 1.1505716 0.29766202
4.0389628 4.8236985 -0.32971653
4.0627322 4.7906094 -0.32919315
4.1057658 4.780139 -0.33023989
4.1488276 4.7693167 -0.33128661
4.211719 4.7806206 -0.3339034
5.3025022 5.8683949 -0.41450077
5.5752215 6.0928211 -0.43281835
5.4301271 5.8598995 -0.41868764
5.4736719 5.8329477 -0.419211
5.5239716 5.8129187 -0.42025772
5.5465369 5.7637043 -0.419211
5.5687027 5.714437 -0.41816428
4.6241541 4.5695968 -0.34070706
4.7096505 4.5965571 -0.34489393
4.766799 4.5950112 -0.3469874
2.8145313 2.5154872 -0.19782992
2.8526886 2.5176392 -0.19939999
2.8910372 2.5193481 -0.20097007
2.8009899 2.4097631 -0.19364303
2.8086727 2.3854063 -0.19311967
2.8542655 2.3933158 -0.19521311
2.9077084 2.4071758 -0.19782992
2.9459724 2.4078178 -0.19939999
2.9688144 2.3955314 -0.19992335
3.0148942 2.4019163 -0.20201679
3.0532656 2.4017124 -0.20358686
3.0840187 2.3947973 -0.20463358
3.1307077 2.3996735 -0.20672703
3.1536875 2.3859806 -0.20725039
3.1926212 2.3840435 -0.20882046
4.9937997 0.89312869 -0.26586667
5.0189953 0.86512691 -0.26691338
5.0144801 0.83194023 -0.26639003
5.0196085 0.80041707 -0.26639003
5.014667 0.76735175 -0.26586667
5.2664065 0.77204072 -0.27895063
5.4194975 0.75973141 -0.28680104
5.6418729 0.75516701 -0.29831496
5.8445644 0.74546665 -0.30878213
6.0374789 0.73168498 -0.31872597
6.2503004 0.71765804 -0.32971653
6.4830317 0.70313823 -0.34175378
6.7555571 0.68977875 -0.35588449
7.0381007 0.6739732 -0.37053856
7.3505411 0.65731174 -0.38676271
7.692894 0.63923037 -0.40455693
8.0850811 0.6206938 -0.42496794
8.5072088 0.59935838 -0.44694906
11.081987 0.71081334 -0.58197582
11.086235 0.64116949 -0.58197582
11.090045 0.5715003 -0.58197582
11.083407 0.50208336 -0.58145249
11.086306 0.43340313 -0.58145249
11.078845 0.36292633 -0.5809291
11.080933 0.29234111 -0.5809291
11.072571 0.2222697 -0.58040577
11.063764 0.15255696 -0.57988238
11.064498 0.083763488 -0.57988238
11.054818 0.015194683 -0.57935905
11.054697 -0.054023337 -0.57935905
11.064125 -0.12359218 -0.57988238
11.06313 -0.19310735 -0.57988238
11.051715 -0.26237789 -0.57935905
11.049849 -0.33181232 -0.57935905
11.037565 -0.40087125 -0.57883567
11.03486 -0.46949112 -0.57883567
11.031739 -0.53785193 -0.57883567
11.028155 -0.60691464 -0.57883567
11.014156 -0.67558283 -0.57831228
11.009694 -0.74477315 -0.57831228
11.004797 -0.81393409 -0.57831228
10.999466 -0.88306284 -0.57831228
11.00365 -0.95301843 -0.57883567
10.878123 -1.0110471 -0.57255536
10.861618 -1.0783895 -0.57203197
10.904284 -1.1518587 -0.5746488
10.906755 -1.2214607 -0.57517213
10.908867 -1.2904259 -0.57569551
10.900662 -1.3579904 -0.57569551
10.891946 -1.4262177 -0.57569551
10.88277 -1.4946253 -0.57569551
10.883151 -1.5636818 -0.57621884
10.873254 -1.6310817 -0.57621884
10.872694 -1.7006739 -0.57674223
10.871651 -1.7705604 -0.57726556
10.870157 -1.8405008 -0.57778895
10.858378 -1.9087633 -0.57778895
10.620209 -1.9357641 -0.56575167
10.598023 -2.0006018 -0.56522834
10.487233 -2.0480111 -0.5599947
7.8668456 -1.794525 -0.42287451
7.6123638 -1.7868662 -0.40979052
7.3777132 -1.7807689 -0.39775327
7.1435652 -1.7713276 -0.38571599
6.9195442 -1.7613581 -0.37420207
6.6958146 -1.7491214 -0.36268818
6.4724798 -1.7342955 -0.35117427
6.2784929 -1.7246701 -0.34123042
6.0945029 -1.7153831 -0.33180997
5.9205914 -1.7062321 -0.32291284
5.7470722 -1.6948611 -0.31401575
5.6024995 -1.6904265 -0.3066887
5.4581761 -1.6843687 -0.29936168
5.3236785 -1.6795702 -0.29255798
5.1894617 -1.6731497 -0.28575432
5.0650258 -1.6682345 -0.27947399
4.7894173 -1.6108859 -0.26481992
4.7886462 -1.6441897 -0.26534331
4.79707 -1.6808497 -0.26639003
4.8240285 -1.7244028 -0.26848346
4.7380404 -1.7273154 -0.26429656
2.1555216 -1.5352496 -0.13869028
2.145833 -1.5487628 -0.13869028
2.1038172 -1.5386339 -0.13659684
2.0700381 -1.5339851 -0.13502677
2.0444877 -1.5348353 -0.13398005
2.0110919 -1.5293386 -0.13240996
1.9856547 -1.5297121 -0.13136324
1.9602591 -1.5298699 -0.13031653
1.9349405 -1.5297695 -0.12926981
1.909701 -1.5294119 -0.12822309
1.8845432 -1.528798 -0.12717637
1.8671846 -1.5342687 -0.12665302
1.8421564 -1.5331936 -0.1256063
1.8095807 -1.5254287 -0.12403622
1.7924659 -1.5301667 -0.12351286
1.7753961 -1.5347124 -0.1229895
1.7507243 -1.532643 -0.12194277
1.7261152 -1.5303628 -0.12089606
1.7016044 -1.5278345 -0.11984934
1.6771941 -1.5250592 -0.11880262
1.6603329 -1.5286938 -0.11827926
1.6435245 -1.5321425 -0.1177559
1.6193756 -1.5286928 -0.11670918
1.5953015 -1.5250362 -0.11566246
1.5713378 -1.521138 -0.11461575
1.554618 -1.5239902 -0.11409238
1.5237502 -1.5126216 -0.1125223
1.5071732 -1.5150858 -0.11199895
1.4836274 -1.5102779 -0.11095223
1.4741088 -1.5195699 -0.11095223
1.450815 -1.5142843 -0.1099055
1.4345411 -1.5159906 -0.10938215
1.4182025 -1.5176467 -0.10885879
1.3950944 -1.5118493 -0.10781207
1.3788415 -1.5132036 -0.10728871
1.3626271 -1.5144136 -0.10676535
1.3464521 -1.5154799 -0.10624199
1.3303179 -1.516403 -0.10571863
1.3077859 -1.5095496 -0.10467191
1.2984079 -1.5176234 -0.10467191
1.2824357 -1.5180948 -0.10414855
1.2664756 -1.5184536 -0.10362519
1.2505618 -1.5186721 -0.10310183
1.2346957 -1.5187509 -0.10257848
1.2189776 -1.5186107 -0.10205511
1.203342 -1.518308 -0.10153175
1.1876581 -1.5179478 -0.10100839
1.1658889 -1.509573 -0.099961676
1.156381 -1.5168687 -0.099961676
1.1408231 -1.5161248 -0.099438317
1.1253206 -1.5152457 -0.098914959
1.1157777 -1.5222864 -0.098914959
1.0944853 -1.5130842 -0.097868234
1.0791548 -1.5118032 -0.097344875
1.069635 -1.5185536 -0.097344875
1.0543733 -1.5170441 -0.096821517
1.039173 -1.515403 -0.096298158
1.0240351 -1.5136311 -0.0957748
1.0089608 -1.5117292 -0.095251441
-2.8970437 -3.7938049 -0.25016588
-2.9571526 -3.8231773 -0.25330603
-2.9871919 -3.8124473 -0.25382939
-3.0297124 -3.8170686 -0.25539947
-3.0598934 -3.8057399 -0.25592282
-3.0900512 -3.7941823 -0.25644618
-3.1265392 -3.7900989 -0.2574929
-3.1630974 -3.7857063 -0.25853962
-3.1997232 -3.7810035 -0.25958633
-3.2364142 -3.7759891 -0.26063305
-3.2794671 -3.7784183 -0.26220313
-3.3225918 -3.7805302 -0.2637732
-3.3594763 -3.7745714 -0.26481992
-3.3964982 -3.7682245 -0.26586667
-3.440305 -3.7689362 -0.26743674
-3.4842539 -3.7692451 -0.26900682
-3.5212708 -3.7620902 -0.27005354
-3.5651209 -3.7619452 -0.27162361
-3.6024349 -3.7539599 -0.27267033
-3.6468291 -3.7527363 -0.2742404
-3.6913495 -3.751102 -0.27581048
-3.7359927 -3.7490559 -0.27738056
-3.7736614 -3.7395666 -0.27842727
-3.7899458 -3.7087977 -0.27790391
-3.7844486 -3.6571543 -0.27581048
-3.7856786 -3.6126208 -0.2742404
-3.7719638 -3.5545197 -0.27162361
-3.7942228 -3.5307498 -0.27162361
-3.8457451 -3.5338681 -0.27371705
-3.8678732 -3.5096347 -0.27371705
-3.8824108 -3.4785991 -0.27319369
-3.9266286 -3.4739881 -0.27476376
-3.9180715 -3.4232244 -0.27267033
-3.9089634 -3.372787 -0.27057689
-1.7483581 -1.4895484 -0.1203727
-1.7500405 -1.4721054 -0.11984934
-1.7823025 -1.4802214 -0.12141941
-1.8224568 -1.4943211 -0.12351286
-1.8395718 -1.4891241 -0.12403622
-1.8644944 -1.490005 -0.12508294
-1.8738191 -1.4782612 -0.12508294
-1.9067072 -1.4848659 -0.12665302
-1.9239165 -1.4789426 -0.12717637
-1.9490818 -1.4788978 -0.12822309
-1.9743218 -1.4785947 -0.12926981
-1.9996345 -1.4780324 -0.13031653
-2.0249205 -1.4773424 -0.13136324
-2.0421391 -1.4706032 -0.1318866
-2.0675871 -1.4693576 -0.13293333
-2.084955 -1.4620713 -0.13345669
-2.1187367 -1.4659888 -0.13502677
-2.1526489 -1.4695387 -0.13659684
-2.1784055 -1.4671412 -0.13764356
-2.1875808 -1.4534249 -0.13764356
-2.2217269 -1.4560733 -0.13921364
-2.2559915 -1.4583492 -0.14078373
-2.2903709 -1.4602519 -0.1423538
-2.324863 -1.4617791 -0.14392388
-2.3508806 -1.4578215 -0.1449706
-2.3683877 -1.4484375 -0.14549395
-2.4030659 -1.4490501 -0.14706403
-2.4378753 -1.4492315 -0.14863411
-2.446933 -1.4338853 -0.14863411
-2.455894 -1.4184825 -0.14863411
-2.4560792 -1.3980836 -0.14811075
-2.4648151 -1.382624 -0.14811075
-2.4821939 -1.3719407 -0.14863411
-2.4995353 -1.3610934 -0.14915748
-2.4992378 -1.340641 -0.14863411
-2.4987824 -1.3202462 -0.14811075
-2.5070283 -1.3045199 -0.14811075
-2.5062878 -1.2841883 -0.14758739
-2.5231397 -1.2730788 -0.14811075
-2.5578091 -1.270751 -0.14968084
-2.6015997 -1.2722592 -0.15177427
-2.6455359 -1.2732105 -0.15386771
-2.6895852 -1.2736591 -0.15596114
-2.7156389 -1.2651694 -0.15700787
-2.7689269 -1.268883 -0.15962467
-2.804158 -1.2637697 -0.16119474
-2.8577757 -1.2661687 -0.16381153
-2.8932514 -1.2598987 -0.16538163
-2.9377785 -1.2575409 -0.16747506
-2.9823329 -1.2548056 -0.16956849
-3.0270464 -1.2513683 -0.17166193
-3.0718596 -1.2473525 -0.17375538
-5.7705173 -1.4981353 -0.31244564
-5.9055448 -1.4941955 -0.31924933
-6.0215421 -1.4830724 -0.32500628
-6.1571174 -1.4749266 -0.33180997
-6.302362 -1.4682028 -0.33913699
-6.4476943 -1.4600009 -0.34646404
-6.6030087 -1.4517691 -0.35431442
-6.7682667 -1.4435804 -0.36268818
-6.9336753 -1.4333746 -0.37106192
-7.1188011 -1.4250627 -0.38048241
-7.3040886 -1.4144833 -0.38990286
-7.50915 -1.4053006 -0.40037006
-7.714376 -1.3935995 -0.41083726
-7.821362 -1.3622344 -0.41607085
-7.8592272 -1.3185323 -0.41764092
-7.8672457 -1.2698108 -0.41764092
-7.8553052 -1.2174697 -0.41659421
-7.8627996 -1.1680875 -0.41659421
-7.8502827 -1.1153383 -0.41554749
-7.847333 -1.0639658 -0.41502413
-7.8340106 -1.012424 -0.41397741
-7.9095149 -0.97239429 -0.41764092
-8.2626171 -0.96332937 -0.4359585
-8.268507 -0.91139287 -0.4359585
-8.2740698 -0.85942477 -0.4359585
-8.2693672 -0.80644906 -0.43543515
-8.2842159 -0.75538445 -0.4359585
-8.2887993 -0.70331633 -0.4359585
-8.2731428 -0.6496613 -0.43491179
-8.2671013 -0.59694558 -0.43438843
-8.2607241 -0.5443359 -0.43386507
-8.2639809 -0.49241957 -0.43386507
-8.2569399 -0.43995684 -0.43334171
-8.2595415 -0.38806632 -0.43334171
-8.2518158 -0.33629951 -0.43281835
-8.2537413 -0.28516421 -0.43281835
-8.2553654 -0.23348153 -0.43281835
-8.246685 -0.1813854 -0.43229499
-8.2476625 -0.12956882 -0.43229499
-8.238328 -0.077648595 -0.43177164
-8.2486391 -0.025917951 -0.43229499
-8.2386532 0.02588086 -0.43177164
-8.2483139 0.077736996 -0.43229499
-8.2276926 0.12924938 -0.43124828
-8.236702 0.18116009 -0.43177164
-8.2254181 0.23262885 -0.43124828
-8.2337751 0.28464869 -0.43177164
-8.2218456 0.33597159 -0.43124828
-8.219573 0.38762191 -0.43124828
-8.2269468 0.43979436 -0.43177164
-8.2140532 0.49087894 -0.43124828
-8.2108059 0.5424816 -0.43124828
-8.2171965 0.59477943 -0.43177164
-8.2033415 0.64561629 -0.43124828
-8.1991682 0.69660705 -0.43124828
-8.1946945 0.74739629 -0.43124828
-8.1997938 0.79965836 -0.43177164
-8.1946077 0.85116529 -0.43177164
-8.1890984 0.90263432 -0.43177164
-8.1832647 0.95407206 -0.43177164
-8.1870203 1.0066864 -0.43229499
-8.1805334 1.0581092 -0.43229499
-8.1836195 1.1108288 -0.43281835
-8.1764784 1.162228 -0.43281835
-8.1690931 1.2130461 -0.43281835
-8.1811581 1.266695 -0.43386507
-8.1730671 1.3178929 -0.43386507
-8.1646252 1.3692174 -0.43386507
-8.1755381 1.4239148 -0.43491179
-8.1664295 1.475257 -0.43491179
-7.8624263 1.4719421 -0.419211
-7.4607353 1.4459969 -0.39827663
-7.1675115 1.4361109 -0.3830992
-6.8649716 1.4204174 -0.36739841
-6.6019888 1.4093168 -0.35379106
-6.2809086 1.3820964 -0.33704355
-6.311152 1.4299473 -0.33913699
-6.2243662 1.4508882 -0.33495012
-6.2054486 1.4875028 -0.33442676
-6.2444615 1.5384091 -0.33704355
-5.295599 1.3399904 -0.28627768
-5.1614223 1.3406019 -0.27947399
-5.0081534 1.3344367 -0.27162361
-4.8648038 1.3290341 -0.26429656
-2.8287578 1.2329142 -0.1617181
-2.7753084 1.2304269 -0.15910131
-2.7220044 1.2273159 -0.1564845
-2.6688504 1.2235858 -0.15386771
-2.6249044 1.2234546 -0.15177427
-2.5810664 1.2228214 -0.14968084
-2.528424 1.217187 -0.14706403
-2.4849498 1.2152808 -0.1449706
-2.4503827 1.2176458 -0.14340052
-2.3980031 1.2107277 -0.14078373
-2.3636642 1.2121515 -0.13921364
-2.3205724 1.2085286 -0.1371202
-2.2776217 1.2044116 -0.13502677
-2.2436135 1.2045282 -0.13345669
-2.2096953 1.2042643 -0.1318866
-2.1758695 1.2036235 -0.13031653
-2.1421406 1.2026045 -0.12874645
-2.117188 1.2061542 -0.12769973
-2.0750635 1.1993059 -0.1256063
-2.0503628 1.202039 -0.12455957
-2.0169685 1.1996716 -0.1229895
-1.9921843 1.2021779 -0.12194277
-1.9676093 1.2041585 -0.12089606
-1.9346545 1.2005304 -0.11932598
-1.9017434 1.1966643 -0.1177559
-1.8773495 1.1978471 -0.11670918
-1.8446325 1.1933458 -0.1151391
-1.8203969 1.193959 -0.11409238
-1.779596 1.1832559 -0.11199895
-1.763845 1.1888331 -0.11147559
-1.7398493 1.1886251 -0.11042886
-1.7077159 1.1824789 -0.10885879
-1.6920785 1.1874484 -0.10833543
-1.6764457 1.1922693 -0.10781207
-1.6446171 1.1852626 -0.10624199
-1.6129429 1.1779044 -0.10467191
-1.5974056 1.1821797 -0.10414855
-1.573864 1.1803483 -0.10310183
-1.5585167 1.1841044 -0.10257848
-1.535322 1.1815574 -0.10153175
-1.5121425 1.1788671 -0.10048503
-1.4890313 1.1759666 -0.099438317
-1.4738156 1.1790605 -0.098914959
-1.45862 1.1820097 -0.098391593
-1.4357268 1.178479 -0.097344875
-1.4206146 1.1810926 -0.096821517
-1.3978884 1.1771301 -0.0957748
-1.3828663 1.1794101 -0.095251441
-1.3678715 1.1815473 -0.094728082
-1.3529042 1.1835437 -0.094204716
-1.3304921 1.1787758 -0.093157999
-1.3156261 1.1804434 -0.092634641
-1.3007927 1.1819702 -0.092111282
-1.2786433 1.1765963 -0.091064565
-1.2639196 1.1777985 -0.090541206
-1.2492311 1.1788632 -0.09001784
-1.23458 1.1797893 -0.089494482
-1.2271426 1.1875235 -0.089494482
-1.2125248 1.1882205 -0.088971123
-1.1979463 1.1887816 -0.088447765
-1.1834096 1.1892061 -0.087924406
-1.1689144 1.1894957 -0.087401047
-1.1475087 1.1824833 -0.086354323
-1.1331465 1.1824601 -0.085830964
-1.1188309 1.1823028 -0.085307606
-1.1045617 1.1820132 -0.084784247
-1.0903411 1.1815906 -0.084260888
-1.0828952 1.1884184 -0.084260888
-1.0621253 1.1802819 -0.083214171
-1.0481579 1.1793758 -0.082690813
-1.0407532 1.1859152 -0.082690813
-1.0267413 1.1848843 -0.082167447
-1.0062921 1.1761359 -0.081120729
4.9794993 0.82412761 1.1652465
4.9845791 0.79282439 1.1652465
4.9701982 0.75854975 1.1607474
4.9748659 0.72730625 1.1607474
5.5486803 0.77561933 1.2934686
