# .PCD v0.7 - Point Cloud Data file format
VERSION 0.7
FIELDS x y z
SIZE 4 4 4
TYPE F F F
COUNT 1 1 1
WIDTH 1477
HEIGHT 1
VIEWPOINT 0 0 0 1 0 0 0
POINTS 1477
DATA ascii
1.2780864 -1.5191205 -0.31443328
1.2559434 -1.5118848 -0.31130457
1.2402879 -1.512001 -0.30974025
1.2246298 -1.5120217 -0.30817589
1.2089373 -1.5119722 -0.30661154
1.193294 -1.5117855 -0.30504721
1.1777011 -1.5114623 -0.30348286
1.162209 -1.5109651 -0.30191851
1.1468519 -1.5102708 -0.30035415
1.1314987 -1.5094818 -0.29878983
1.1161178 -1.5086212 -0.29722548
1.1007925 -1.5076274 -0.29566112
1.0855241 -1.5065007 -0.2940968
1.0703136 -1.5052421 -0.29253244
1.0608348 -1.5119374 -0.29253244
1.0456921 -1.5104522 -0.29096809
1.0306101 -1.5088367 -0.28940377
1.0155901 -1.5070916 -0.28783941
1.0006328 -1.5052178 -0.28627506
-1.0856405 -1.3812149 0.21570873
-1.1190274 -1.4054254 0.22058351
-1.1340669 -1.4060924 0.2218022
-1.1491588 -1.4066256 0.2230209
-1.1643019 -1.4070244 0.22423959
-1.1794951 -1.4072882 0.22545828
-1.1818907 -1.3922826 0.22423959
-1.1906153 -1.3848292 0.22423959
-1.2058108 -1.3848064 0.22545828
-1.221 -1.3846936 0.22667697
-1.2361664 -1.3845057 0.22789566
-1.2514302 -1.3841349 0.22911437
-1.2668045 -1.3835654 0.23033306
-1.2822211 -1.3828567 0.23155175
-1.2976787 -1.3820087 0.23277044
-1.3131759 -1.3810207 0.23398913
-1.3287116 -1.3798922 0.23520783
-1.3442323 -1.378674 0.23642652
-1.3597214 -1.3773825 0.23764521
-1.3682818 -1.368879 0.23764521
-1.3909773 -1.3742062 0.24008261
-1.3995842 -1.3654393 0.24008261
-1.4152837 -1.363505 0.2413013
-1.4382049 -1.3682683 0.24373868
-1.4540074 -1.3660008 0.24495737
-1.4698379 -1.3635886 0.24617606
-1.4856952 -1.3610311 0.24739476
-1.5015782 -1.3583277 0.24861346
-1.5174851 -1.3554788 0.24983215
-1.5482512 -1.3656727 0.25348824
-1.5641669 -1.3625734 0.25470692
-1.5876801 -1.365741 0.2571443
-1.5962299 -1.3557384 0.2571443
-1.6199273 -1.3584377 0.25958169
-1.6360759 -1.3545623 0.26080039
-1.6522393 -1.3505374 0.2620191
-1.6761407 -1.3525958 0.26445648
-1.7001325 -1.3544066 0.26689386
-1.7164108 -1.3498333 0.26811254
-1.7405386 -1.3511951 0.27054992
-1.7568723 -1.3462695 0.27176863
-1.781077 -1.3472474 0.27420601
-1.7893902 -1.3361863 0.27420601
-1.8216546 -1.3426718 0.2778621
-4.7798862 -3.2964997 0.71293563
-4.7922983 -3.2608182 0.71171695
-4.7879691 -3.2140474 0.70806086
-4.7915182 -3.1729403 0.70562351
-4.7864304 -3.126488 0.70196742
-4.7726049 -3.0748498 0.69709265
-4.7666988 -3.0288329 0.69343656
-4.7686992 -2.9884655 0.69099915
-4.7702379 -2.9484253 0.6885618
-4.7715759 -2.9082983 0.68612438
-4.7472172 -2.8526983 0.68003094
-4.7479682 -2.8126969 0.67759353
-4.7655473 -2.7828093 0.67759353
-4.782938 -2.7528117 0.67759353
-4.808773 -2.7276022 0.67881221
-2.6604247 -1.465152 0.37292019
-2.6695781 -1.4484072 0.37292019
-2.6611185 -1.4222484 0.3704828
-2.6963511 -1.4193701 0.37413889
-2.7228394 -1.4115367 0.37657627
-2.7669616 -1.4125574 0.38145104
-2.8022642 -1.408761 0.38510713
-2.8465743 -1.4088749 0.3899819
-2.8821394 -1.4040018 0.39363798
-2.9267049 -1.4030277 0.39851275
-2.9623933 -1.3973138 0.40216884
-3.0161314 -1.3995621 0.40826228
-3.0609832 -1.3970681 0.41313708
-3.1240318 -1.402194 0.42044923
-3.1691024 -1.398567 0.42532399
-3.2142494 -1.3944283 0.43019879
-3.2503378 -1.3858839 0.43385485
-3.332217 -1.396118 0.44360441
-3.3501015 -1.3789316 0.44482309
-3.3586993 -1.3578552 0.44482309
-3.3487146 -1.3294007 0.4423857
-3.3939424 -1.322881 0.44726047
-3.4020734 -1.3018273 0.44726047
-3.3915877 -1.2734852 0.44482309
-4.8277755 -1.1494697 0.60934669
-4.9316001 -1.141497 0.62153363
-5.2679205 -1.1845196 0.66296923
-5.3916245 -1.1767969 0.67759353
-6.9713893 -1.4300702 0.8738032
-7.1554179 -1.4213169 0.89573967
-7.3492813 -1.4125489 0.91889483
-7.5433574 -1.4011424 0.94204998
-7.7474065 -1.3887458 0.96642387
-7.9809327 -1.3789043 0.99445385
-8.2244225 -1.3678142 1.0237025
-8.4778795 -1.3552796 1.0541698
-8.7118731 -1.3366066 1.0821997
-8.7397394 -1.2847269 1.0846372
-8.7279806 -1.2270272 1.0821997
-8.7453556 -1.1734813 1.0834185
-8.7328653 -1.1159958 1.080981
-8.710146 -1.0575126 1.077325
-8.7067575 -1.0016325 1.0761063
-8.7029753 -0.94616592 1.0748876
-8.985137 -0.92054802 1.1090111
-9.2179384 -0.88636827 1.137041
-9.1751328 0.32962057 1.1272914
-9.1232977 0.38517195 1.1211979
-9.2495766 0.4487375 1.137041
-9.2465744 0.50684762 1.137041
-9.2432079 0.56493282 1.137041
-9.249402 0.62331367 1.1382596
-9.2453632 0.68061167 1.1382596
-9.2409401 0.73823297 1.1382596
-9.2361193 0.79627818 1.1382596
-9.2408171 0.85521156 1.1394783
-9.2056293 0.9103235 1.1358223
-9.0911474 0.95672172 1.1224166
-9.3414268 1.0424418 1.1541027
-9.0192652 1.0639096 1.1151044
-9.0518007 1.1254543 1.1199793
-9.0642338 1.1848813 1.1224166
-9.0566101 1.2418076 1.1224166
-9.0486784 1.2983425 1.1224166
-9.0404606 1.3543838 1.1224166
-9.0416479 1.4122465 1.1236353
-9.0228004 1.467433 1.1224166
-9.0036154 1.5224432 1.1211979
-8.5735064 1.5051817 1.0687941
-8.1634588 1.4864511 1.0188277
-7.7831955 1.4684958 0.97251737
-7.4620113 1.4568906 0.93351912
-7.1510997 1.4428883 0.89573967
-7.1711006 1.493587 0.89939576
-7.0549622 1.515067 0.88599008
-6.3483524 1.4466791 0.79946285
-5.8366446 1.3687044 0.73609084
-5.6446009 1.3611405 0.71293563
-5.4528894 1.3512219 0.68978047
-5.2807708 1.3438425 0.66906267
-5.0993629 1.3318498 0.6471262
-4.9374967 1.3227667 0.62762713
-4.785522 1.3143349 0.60934669
-2.8268166 1.2150632 0.37779495
-2.773551 1.2131582 0.37170148
-2.7204726 1.2105204 0.36560804
-2.6675997 1.2071291 0.35951456
-2.6239412 1.2071714 0.35463977
-2.5714557 1.2023857 0.34854633
-2.5280507 1.2013534 0.34367153
-2.4757638 1.1956314 0.33757809
-2.4414709 1.1980467 0.333922
-2.3894813 1.1912209 0.32782853
-2.3553848 1.1927593 0.32417244
-2.3125384 1.189376 0.31929767
-2.278626 1.1900983 0.31564158
-2.2447975 1.1904407 0.31198552
-2.2110553 1.1904067 0.30832943
-2.1774035 1.1899951 0.30467334
-2.1351657 1.1843935 0.29979858
-2.1017349 1.1831779 0.29614249
-2.068404 1.1815908 0.29248643
-2.0351775 1.179631 0.28883034
-2.0106137 1.1823332 0.28639296
-1.9690495 1.1746029 0.28151819
-1.9361544 1.171537 0.2778621
-1.9118365 1.1732955 0.27542472
-1.8875731 1.1747959 0.27298734
-1.8549742 1.1707398 0.26933125
-1.8225009 1.1663219 0.26567516
-1.7984846 1.1669444 0.26323777
-1.774577 1.1672446 0.26080039
-1.7507937 1.1672062 0.25836301
-1.7269907 1.1670498 0.25592563
-1.7031449 1.1668081 0.25348824
-1.671309 1.1605215 0.24983215
-1.6478512 1.1594318 0.24739476
-1.6325097 1.1639198 0.24617606
-1.6010286 1.1567158 0.24251999
-1.5856757 1.1609507 0.2413013
-1.562306 1.1591996 0.23886392
-1.5390675 1.1571403 0.23642652
-1.5238713 1.1607729 0.23520783
-1.4929743 1.1521335 0.23155175
-1.4778866 1.1553779 0.23033306
-1.45508 1.1522611 0.22789566
-1.4401697 1.1550449 0.22667697
-1.4175333 1.1514843 0.22423959
-1.4026061 1.1540613 0.2230209
-1.3800776 1.1501429 0.22058351
-1.3652395 1.1523889 0.21936481
-1.342839 1.1480967 0.21692742
-1.3279953 1.1501297 0.21570873
-1.3132241 1.1519707 0.21449004
-1.2985401 1.1536069 0.21327135
-1.2765086 1.1484662 0.21083397
-1.2692677 1.1564637 0.21083397
-1.2474309 1.150907 0.20839657
-1.2330228 1.1518385 0.20717788
-1.2186078 1.1526821 0.20595919
-1.1970061 1.1465842 0.2035218
-1.189778 1.1540828 0.2035218
-1.1683419 1.1476247 0.20108442
-1.1540707 1.1479436 0.19986571
-1.1398426 1.148128 0.19864702
-1.1256574 1.14818 0.19742833
-1.1115175 1.1480987 0.19620964
-1.1042817 1.1550602 0.19620964
-1.090189 1.1547582 0.19499095
-1.0761435 1.1543256 0.19377226
-1.0621473 1.1537617 0.19255356
-1.0482004 1.1530685 0.19133486
-1.0343049 1.1522453 0.19011617
-1.0204608 1.1512939 0.18889748
-1.0066704 1.1502136 0.18767878
3.0912807 1.0827024 0.40216884
3.1355741 1.076146 0.40704361
3.1516819 1.0595864 0.40826228
3.1677048 1.0428668 0.40948099
3.1930888 1.029032 0.41191837
5.0255899 0.75399423 0.62397105
5.177598 0.74356699 0.64225143
5.3493342 0.73395681 0.66296923
5.5211477 0.72221696 0.68368703
5.7028408 0.70978963 0.70562351
5.9042668 0.69773835 0.72999734
6.1353984 0.68606049 0.75802732
6.366673 0.67088479 0.78605723
6.6177239 0.65499586 0.81652457
6.90832 0.63995302 0.85186672
7.2187304 0.62326598 0.88964617
7.5390544 0.60388732 0.92864436
10.096491 0.74542588 1.2430673
10.120781 0.68331188 1.2455046
10.124874 0.619708 1.2455046
10.108747 0.55499136 1.2430673
10.092189 0.49088761 1.2406299
10.095037 0.42834762 1.2406299
10.077686 0.36430362 1.2381926
10.089724 0.30039302 1.2394112
10.071578 0.23603085 1.2369738
10.072863 0.17274491 1.2369738
10.06382 0.10972892 1.2357551
10.064306 0.04737201 1.2357551
10.064406 -0.01537 1.2357551
10.054186 -0.078528397 1.2345364
10.04357 -0.14155897 1.2333177
10.052405 -0.20486371 1.2345364
10.041008 -0.26737216 1.2333177
10.049079 -0.32990617 1.2345364
10.036909 -0.39215842 1.2333177
10.044162 -0.45566392 1.2345364
10.041101 -0.51876396 1.2345364
10.027735 -0.58126777 1.2333177
10.033813 -0.64451528 1.2345364
10.029628 -0.70667183 1.2345364
10.025027 -0.76918429 1.2345364
10.019997 -0.8321566 1.2345364
10.01457 -0.89509737 1.2345364
10.018629 -0.95894849 1.2357551
10.02228 -1.0228859 1.2369738
10.015656 -1.0858372 1.2369738
10.008636 -1.1487458 1.2369738
10.00122 -1.2116089 1.2369738
10.003304 -1.2752974 1.2381926
9.9952106 -1.3372529 1.2381926
9.9965096 -1.4009147 1.2394112
9.9973307 -1.4651359 1.2406299
9.9879274 -1.5279217 1.2406299
9.9879313 -1.5922098 1.2418486
9.9875221 -1.6565582 1.2430673
9.9769163 -1.7192786 1.2430673
9.9757557 -1.7832969 1.2442859
9.9742746 -1.846879 1.2455046
9.9723158 -1.9108908 1.2467234
9.9016953 -1.9619359 1.2394112
9.5293894 -1.9504708 1.1943195
9.9248161 -2.0964615 1.2455046
9.9609041 -2.301029 1.2552543
9.9076233 -2.3543904 1.2503794
9.9120111 -2.420927 1.2528168
7.4033613 -1.8568916 0.93717521
6.9687128 -1.7941235 0.88355273
6.7461843 -1.7821037 0.85674149
6.5433183 -1.772301 0.8323676
6.3409314 -1.7597252 0.80799371
6.1484404 -1.7476591 0.78483856
5.9848576 -1.7418772 0.76533943
5.8120837 -1.7312769 0.74462169
5.6491804 -1.7214693 0.72512257
5.4961119 -1.7126377 0.70684218
5.3622975 -1.7079768 0.69099915
5.2287636 -1.7017035 0.67515618
5.1049442 -1.6969515 0.66053182
4.9813948 -1.6907128 0.64590752
4.8487511 -1.6797411 0.63006449
4.7352271 -1.6736058 0.61665887
2.6425178 -1.6523509 0.38266972
2.6153822 -1.6581916 0.38023233
2.5716598 -1.6528983 0.37535757
1.9592944 -1.6178476 0.31198552
1.918636 -1.6046554 0.30711073
1.564265 -1.5799217 0.27298734
1.5405672 -1.5753906 0.27054992
1.5376111 -1.5921036 0.27176863
1.5207272 -1.5945506 0.27054992
1.5107394 -1.6040165 0.27054992
1.4872518 -1.5988114 0.26811254
1.2898972 -1.4958106 0.24251999
1.2804732 -1.5038857 0.24251999
1.264612 -1.5043039 0.2413013
1.2551928 -1.5121722 0.2413013
1.2332157 -1.5045674 0.23886392
1.2175682 -1.5045108 0.23764521
1.2018957 -1.5043766 0.23642652
1.1862732 -1.5041054 0.23520783
1.1707019 -1.5036975 0.23398913
1.149192 -1.4952396 0.23155175
1.1399057 -1.5023311 0.23155175
1.1186177 -1.4935198 0.22911437
1.1092116 -1.5005187 0.22911437
1.0939119 -1.4994401 0.22789566
1.0786698 -1.4982287 0.22667697
1.0634863 -1.4968853 0.22545828
1.0540601 -1.5035378 0.22545828
1.0389459 -1.501968 0.22423959
1.0238932 -1.5002681 0.2230209
1.0144466 -1.5066718 0.2230209
-1.0739098 -1.3651861 -0.21327135
-1.1133934 -1.3972237 -0.21936481
-1.1408533 -1.4133703 -0.2230209
-1.162276 -1.4215425 -0.22545828
-1.1711853 -1.4142114 -0.22545828
-1.1800474 -1.4068251 -0.22545828
-1.1952901 -1.4069468 -0.22667697
-1.2041062 -1.3994091 -0.22667697
-1.2193964 -1.3992984 -0.22789566
-1.2281035 -1.3916628 -0.22789566
-1.2433158 -1.3914282 -0.22911437
-1.2586328 -1.3910033 -0.23033306
-1.2673478 -1.3830676 -0.23033306
-1.2895153 -1.3896289 -0.23277044
-1.3050184 -1.3887318 -0.23398913
-1.3205602 -1.3876953 -0.23520783
-1.3361409 -1.3865172 -0.23642652
-1.3516978 -1.3852572 -0.23764521
-1.3672303 -1.3839166 -0.23886392
-1.3828586 -1.3823757 -0.24008261
-1.3915166 -1.3736601 -0.24008261
-1.4143348 -1.3787462 -0.24251999
-1.43012 -1.3767165 -0.24373868
-1.445936 -1.3745418 -0.24495737
-1.4545436 -1.36543 -0.24495737
-1.4703735 -1.3630111 -0.24617606
-1.4935508 -1.3671494 -0.24861346
-1.5094746 -1.3643938 -0.24983215
-1.5254225 -1.3614918 -0.25105083
-1.5487798 -1.3650731 -0.25348824
-1.5646944 -1.3619676 -0.25470692
-1.5806894 -1.3586475 -0.25592563
-1.5967621 -1.3551117 -0.2571443
-1.6204609 -1.3578012 -0.25958169
-1.6366074 -1.35392 -0.26080039
-1.660457 -1.3561668 -0.26323777
-1.6766715 -1.3519377 -0.26445648
-1.6928988 -1.3475572 -0.26567516
-1.7169404 -1.3491595 -0.26811254
-1.7332265 -1.3444279 -0.26933125
-1.7574006 -1.3455797 -0.27176863
-1.7736807 -1.3405725 -0.27298734
-1.7899075 -1.3354933 -0.27420601
-1.8141898 -1.3360703 -0.2766434
-4.7525382 -3.2310336 -0.70562351
-4.7809873 -3.2066388 -0.70684218
-4.767931 -3.1546276 -0.70196742
-4.7627215 -3.1083348 -0.69831133
-4.7571211 -3.0622303 -0.69465524
-4.7511287 -3.0163221 -0.69099915
-4.7446198 -2.9708152 -0.68734306
-4.7544894 -2.9361477 -0.68612438
-4.7557631 -2.8960989 -0.68368703
-4.7483363 -2.8508346 -0.68003094
-4.7490726 -2.8108318 -0.67759353
-4.7409201 -2.7659333 -0.67393744
-4.7409973 -2.7261941 -0.67150009
-4.7839379 -2.7110338 -0.67515618
-2.6436076 -1.4545382 -0.3704828
-2.6526949 -1.4378985 -0.3704828
-2.6529212 -1.4165286 -0.3692641
-2.705693 -1.4229307 -0.37535757
-2.7322068 -1.4150323 -0.37779495
-2.7675087 -1.4114851 -0.38145104
-2.8028095 -1.4076759 -0.38510713
-2.8471277 -1.4077566 -0.3899819
-2.8826904 -1.4028703 -0.39363798
-3.0076759 -1.3942029 -0.40704361
-3.0795934 -1.4041017 -0.41557446
-3.1336391 -1.4050275 -0.42166793
-3.1787333 -1.4013265 -0.4265427
-3.2147968 -1.3931656 -0.43019879
-3.2508817 -1.3846079 -0.43385485
-3.3236091 -1.3909771 -0.4423857
-3.3414626 -1.3738421 -0.44360441
-3.3316224 -1.3453861 -0.44116703
-3.3307831 -1.3207687 -0.43994832
-3.3759563 -1.3143637 -0.44482309
-3.393306 -1.2969663 -0.44604179
-3.3735082 -1.2651632 -0.4423857
-5.2780695 -1.1846251 -0.66418791
-5.4017849 -1.1767902 -0.67881221
-6.8171782 -1.4403329 -0.85552275
-6.9816737 -1.429324 -0.87502187
-7.1559682 -1.4185461 -0.89573967
-7.3400807 -1.4078294 -0.91767615
-7.5439067 -1.3981811 -0.94204998
-7.7577224 -1.3874477 -0.96764255
-7.9716921 -1.3740853 -0.99323511
-8.0066395 1.4611881 -0.99932861
-7.6168146 1.4402468 -0.95179957
-7.2471414 1.4178927 -0.90670788
-7.1505327 1.4456953 -0.89573967
-7.1608057 1.4943361 -0.89817703
-7.0252643 1.5115392 -0.88233405
-6.1241994 1.3577018 -0.77021426
-6.0187821 1.3740648 -0.75802732
-5.778132 1.3573763 -0.72877866
-5.5958257 1.3517065 -0.70684218
-5.413826 1.3437979 -0.68490571
-5.2417707 1.3361119 -0.66418791
-5.0700331 1.3263156 -0.64347011
-4.908217 1.3169906 -0.62397105
-2.8172157 1.2122647 -0.37657627
-2.7639761 1.2102804 -0.3704828
-2.7109306 1.2075496 -0.36438933
-2.6580839 1.204082 -0.35829586
-2.6144583 1.2040356 -0.35342109
-2.5619998 1.1991751 -0.34732762
-2.5186157 1.1980821 -0.34245285
-2.4752936 1.1966045 -0.33757809
-2.4320917 1.1946291 -0.33270329
-2.3890131 1.1921601 -0.32782853
-2.3460634 1.1891963 -0.32295376
-2.3120706 1.190285 -0.31929767
-2.2781587 1.1909926 -0.31564158
-2.2355626 1.1866693 -0.31076682
-2.2018502 1.1865659 -0.30711073
-2.1595206 1.1813228 -0.30223596
-2.1260231 1.1804135 -0.29857987
-2.0926225 1.1791316 -0.29492381
-2.06794 1.1824027 -0.29248643
-2.0347137 1.1804309 -0.28883034
-2.0015955 1.1780878 -0.28517425
-1.9685875 1.1753768 -0.28151819
-1.9441842 1.1774387 -0.27908078
-1.9113752 1.1740469 -0.27542472
-1.8871119 1.1755368 -0.27298734
-1.8545138 1.1714689 -0.26933125
-1.8304011 1.1723906 -0.26689386
-1.7980257 1.1676513 -0.26323777
-1.7741249 1.1679316 -0.26080039
-1.7503409 1.1678849 -0.25836301
-1.7265255 1.1677377 -0.25592563
-1.7108659 1.1730995 -0.25470692
-1.67901 1.1668328 -0.25105083
-1.6636328 1.1714991 -0.24983215
-1.6401322 1.1703258 -0.24739476
-1.61666 1.1689767 -0.24495737
-1.5932198 1.167448 -0.24251999
-1.5698127 1.1657394 -0.24008261
-1.5465442 1.1637121 -0.23764521
-1.5313082 1.1673893 -0.23642652
-1.516088 1.1709204 -0.23520783
-1.4930665 1.1681911 -0.23277044
-1.47797 1.171319 -0.23155175
-1.4552032 1.1680284 -0.22911437
-1.4324843 1.1645627 -0.22667697
-1.4174765 1.1672313 -0.22545828
-1.3948705 1.1633993 -0.2230209
-1.3799506 1.1657358 -0.2218022
-1.357465 1.1615368 -0.21936481
-1.3425374 1.1636605 -0.21814612
-1.3276895 1.1655827 -0.21692742
-1.3129219 1.1673071 -0.21570873
-1.2908098 1.1622502 -0.21327135
-1.2761472 1.1636503 -0.21205266
-1.2542775 1.1581233 -0.20961526
-1.2398272 1.1590942 -0.20839657
-1.2253631 1.1599838 -0.20717788
-1.2037203 1.1539232 -0.20474049
-1.1964465 1.1614633 -0.20474049
-1.1820469 1.1620001 -0.2035218
-1.1676886 1.1624013 -0.20230311
-1.1603616 1.1697155 -0.20230311
-1.1390982 1.1628023 -0.19986571
-1.1248683 1.1628031 -0.19864702
-1.1106842 1.1626705 -0.19742833
-1.0965458 1.1624066 -0.19620964
-1.0824556 1.1620104 -0.19499095
-1.0684133 1.1614841 -0.19377226
-1.0544212 1.1608269 -0.19255356
-1.0404791 1.1600406 -0.19133486
-1.0265895 1.1591246 -0.19011617
-1.0127521 1.1580807 -0.18889748
3.0661533 1.0942206 -0.39973143
3.0542302 1.0683795 -0.39729404
3.070272 1.0523865 -0.39851275
3.0862329 1.036234 -0.39973143
3.1398275 1.0323226 -0.4058249
5.001482 0.78030497 -0.62153363
5.1338634 0.76817745 -0.63737667
5.3056173 0.75982583 -0.65809447
5.4774623 0.74934536 -0.67881221
5.6395364 0.73545098 -0.69831133
5.8508644 0.72591245 -0.72390389
6.0721111 0.7151894 -0.75071514
6.3033667 0.70230174 -0.77874511
6.554493 0.68803775 -0.80921245
6.8254099 0.67284542 -0.84211713
7.1358914 0.65820807 -0.87989664
7.4859743 0.64341962 -0.92255092
6.9790835 -1.7533482 -0.88355273
6.7950087 -1.7522482 -0.86161625
6.6015544 -1.7466712 -0.83846104
6.3893633 -1.7332572 -0.81286854
6.196805 -1.7223121 -0.78971332
6.0141068 -1.7120283 -0.76777685
5.841239 -1.7025657 -0.74705905
5.6877565 -1.6966748 -0.72877866
5.5345845 -1.6889241 -0.71049827
5.3912153 -1.6822737 -0.69343656
5.2576089 -1.6769061 -0.67759353
5.1242881 -1.6699275 -0.6617505
5.0006847 -1.6644753 -0.6471262
4.8867545 -1.6607317 -0.63372058
4.7730722 -1.6556234 -0.62031496
3.8929596 -1.5722649 -0.51550734
3.9014335 -1.6040729 -0.51794469
3.9187458 -1.6400503 -0.52160078
3.0595629 -1.5597663 -0.42166793
3.0145137 -1.5605736 -0.41679314
2.969507 -1.56101 -0.41191837
2.7151201 -1.6288297 -0.38876319
2.6709158 -1.6252193 -0.38388842
1.6226553 -1.6198263 -0.28151819
1.5985562 -1.6158071 -0.27908078
1.5815771 -1.6185817 -0.2778621
1.5507706 -1.6069914 -0.27420601
1.526948 -1.6023332 -0.27176863
1.5101182 -1.6046014 -0.27054992
1.4866326 -1.5993872 -0.26811254
1.2640209 -1.5048006 -0.2413013
1.2482708 -1.5050185 -0.24008261
1.232633 -1.5050448 -0.23886392
1.216977 -1.5049889 -0.23764521
1.201305 -1.5048484 -0.23642652
1.1856823 -1.5045713 -0.23520783
1.1701115 -1.5041569 -0.23398913
1.1546578 -1.5035568 -0.23277044
1.1453203 -1.5106817 -0.23277044
1.1239779 -1.5019057 -0.23033306
1.1086224 -1.500954 -0.22911437
1.0933228 -1.4998696 -0.22789566
1.0780815 -1.498652 -0.22667697
1.0628982 -1.4973029 -0.22545828
1.0477754 -1.495822 -0.22423959
1.0383558 -1.5023761 -0.22423959
1.0288961 -1.5088702 -0.22423959
1.0138547 -1.5070701 -0.2230209
-1.030329 -1.3257824 0.26593858
-1.0936254 -1.3891269 0.28001767
-1.1146486 -1.3976719 0.28314638
-1.1296149 -1.3983239 0.28471074
-1.1446334 -1.3988427 0.28627506
-1.1597027 -1.3992277 0.28783941
-1.1748217 -1.3994782 0.28940377
-1.1835917 -1.392069 0.28940377
-1.192315 -1.3846048 0.28940377
-1.2074829 -1.3845297 0.29096809
-1.222629 -1.3843783 0.29253244
-1.2377667 -1.3841389 0.2940968
-1.2530164 -1.3837032 0.29566112
-1.2683609 -1.3830827 0.29722548
-1.2770259 -1.3750861 0.29722548
-1.2991736 -1.381425 0.30035415
-1.3078277 -1.3732349 0.30035415
-1.330143 -1.3792092 0.30348286
-1.3387153 -1.37089 0.30348286
-1.3541276 -1.3695929 0.30504721
-1.3766303 -1.3750696 0.30817589
-1.3852429 -1.3663929 0.30817589
-1.400876 -1.3645539 0.30974025
-1.4165404 -1.3625722 0.31130457
-1.4322348 -1.3604472 0.31286892
-1.4551619 -1.3649355 0.3159976
-1.4709555 -1.3624773 0.31756195
-1.4867752 -1.3598742 0.31912631
-1.50262 -1.3571259 0.32069066
-1.5184883 -1.3542323 0.32225499
-1.5417255 -1.3577951 0.32538369
-1.557561 -1.3546987 0.32694802
-1.5809765 -1.3578155 0.33007672
-1.5970097 -1.3542432 0.33164105
-1.6206331 -1.356863 0.33476976
-1.6367393 -1.3529464 0.33633408
-1.660512 -1.3551254 0.33946279
-1.6766849 -1.350862 0.34102714
-1.6928694 -1.3464487 0.34259146
-1.716833 -1.3479844 0.34572017
-1.7330753 -1.3432213 0.3472845
-1.7571698 -1.3443084 0.3504132
-1.7812798 -1.3452325 0.35354188
-1.7974989 -1.3400736 0.35510623
-1.8217428 -1.3405302 0.35823491
-4.7223692 -3.2078135 0.9041912
-4.7424312 -3.1780787 0.9041912
-4.7375879 -3.1318784 0.89949816
-4.7488995 -3.0966547 0.89793384
-4.735034 -3.0453844 0.89167643
-4.729054 -2.9997017 0.88698339
-4.714169 -2.9492085 0.88072604
-4.7155404 -2.9095709 0.87759733
-4.7083044 -2.864665 0.8729043
-4.709271 -2.8248641 0.86977559
-4.7184253 -2.7901919 0.86821127
-4.7358632 -2.7604902 0.86821127
-4.7445502 -2.7257595 0.86664695
-4.7873678 -2.7104936 0.87133998
-2.6745143 -1.470175 0.48338249
-2.6663287 -1.4439349 0.48025379
-2.649205 -1.4132073 0.47556075
-2.7017498 -1.4195033 0.48338249
-2.736932 -1.4161164 0.48807552
-2.7633078 -1.4079944 0.4912042
-2.8072903 -1.4085643 0.49746159
-2.842598 -1.4041286 0.50215465
-2.8780127 -1.3991959 0.50684768
-2.9223859 -1.3981357 0.51310503
-2.984731 -1.4049855 0.5224911
-3.0203874 -1.3986552 0.52718413
-3.0650697 -1.3960258 0.53344154
-3.316509 -1.3620596 0.56785709
-3.3524809 -1.3522788 0.57255012
-3.3425457 -1.3239138 0.56942147
-3.3875554 -1.3173693 0.57567883
-3.3864253 -1.2928327 0.5741145
-3.3944955 -1.2714927 0.5741145
-4.8338742 -1.1469097 0.78686535
-4.9372272 -1.1387135 0.80250877
-5.2816138 -1.1832403 0.85726088
-5.3951087 -1.1731178 0.87446862
-6.8326969 -1.44081 1.1059916
-6.9964461 -1.429487 1.1310211
-7.179626 -1.4203427 1.1591793
-7.3823047 -1.4129643 1.1904663
-7.5658045 -1.3991636 1.2186245
-7.7980814 -1.391507 1.2546043
-8.0305529 -1.380981 1.2905843
-8.2729349 -1.369204 1.3281286
-8.5252314 -1.3559813 1.3672372
-8.7190952 -1.3307043 1.3969598
-8.7468309 -1.2787498 1.4000884
-8.7449112 -1.222402 1.398524
-8.7426291 -1.166124 1.3969598
-8.7301865 -1.1086833 1.393831
-8.7271748 -1.0526234 1.3922668
-8.7139902 -0.99552852 1.389138
-8.710207 -0.94012725 1.3875737
-9.0401297 -0.91910815 1.4391971
-9.212842 -0.87857395 1.4657909
-9.1828279 0.22161752 1.4548405
-9.1812544 0.2793127 1.4548405
-9.1694479 0.33662963 1.4532762
-9.1671515 0.3942385 1.4532762
-9.1644936 0.4518269 1.4532762
-9.1614733 0.50940233 1.4532762
-9.1679506 0.56756306 1.4548405
-9.1642342 0.624704 1.4548405
-9.1601877 0.68147427 1.4548405
-9.1557531 0.73866701 1.4548405
-9.1509314 0.79617703 1.4548405
-9.1359138 0.85274255 1.4532762
-9.150032 0.912085 1.4564048
-9.0950117 0.96435338 1.4485831
-9.451931 1.0622922 1.5064639
-9.0331354 1.072742 1.4407614
-9.0654192 1.1343803 1.4470187
-9.0581121 1.1913198 1.4470187
-9.0602322 1.2495568 1.4485831
-9.042491 1.3046026 1.4470187
-9.0440006 1.3620764 1.4485831
-9.0353184 1.4185303 1.4485831
-9.026228 1.4752702 1.4485831
-8.9680929 1.5236847 1.4407614
-8.5303659 1.5045171 1.3719302
-8.112608 1.483867 1.3062278
-7.7536402 1.4693143 1.2499113
-7.327426 1.436587 1.1826445
-7.1633716 1.4512182 1.1576151
-7.1541848 1.4958496 1.1576151
-7.0965037 1.5297422 1.1497933
-6.1322618 1.3620183 0.99492317
-5.9984155 1.3718928 0.97458673
-5.8166208 1.3688307 0.94642848
-5.6255088 1.3612139 0.91670597
-5.4443135 1.3536376 0.88854772
-5.2538733 1.3413935 0.85882521
-5.0733624 1.3293176 0.83066702
-4.9122953 1.3201523 0.80563748
-4.7610712 1.311643 0.78217232
-2.7590148 1.2094165 0.47712511
-2.7062106 1.2067221 0.4693034
-2.6625946 1.2073852 0.46304601
-2.6101673 1.2032864 0.45522428
-2.5668859 1.202674 0.44896692
-2.5147376 1.1974497 0.44114518
-2.471602 1.1960169 0.4348878
-2.4285843 1.1940914 0.42863044
-2.3856905 1.191672 0.42237306
-2.3429236 1.1887627 0.41611567
-2.3090694 1.1898867 0.41142264
-2.2665427 1.1860546 0.40516526
-2.2241573 1.1817346 0.39890787
-2.1906099 1.1816186 0.39421484
-2.1571531 1.1811281 0.38952181
-2.1324224 1.1850635 0.38639313
-2.0905228 1.1790299 0.38013574
-2.0573561 1.1774244 0.37544271
-2.0242939 1.1754483 0.37074968
-1.9913381 1.1731048 0.36605665
-1.9669718 1.1754596 0.36292794
-1.934208 1.1724364 0.35823491
-1.9099756 1.1742201 0.35510623
-1.8774158 1.1705215 0.3504132
-1.8449795 1.1664597 0.34572017
-1.8209838 1.1673685 0.34259146
-1.7970507 1.1680213 0.33946279
-1.7732385 1.168334 0.33633408
-1.7413241 1.1628433 0.33164105
-1.7176124 1.162707 0.32851237
-1.6938834 1.1624476 0.32538369
-1.6622342 1.1561292 0.32069066
-1.6469655 1.1607165 0.31912631
-1.6155716 1.1537591 0.31443328
-1.6002893 1.1580963 0.31286892
-1.5769944 1.1565247 0.30974025
-1.5537406 1.1547638 0.30661154
-1.5306298 1.1526798 0.30348286
-1.5155051 1.1562827 0.30191851
-1.4925805 1.1537018 0.29878983
-1.4697497 1.1508782 0.29566112
-1.44707 1.1477427 0.29253244
-1.4322305 1.1505014 0.29096809
-1.4096949 1.1469563 0.28783941
-1.3948388 1.1495092 0.28627506
-1.380006 1.1519216 0.28471074
-1.3576562 1.1478158 0.28158203
-1.3428586 1.1499656 0.28001767
-1.3280448 1.1520246 0.27845335
-1.3058957 1.147359 0.27532464
-1.2912824 1.1489756 0.27376032
-1.2840375 1.1570666 0.27376032
-1.2621511 1.1517956 0.27063161
-1.2404383 1.1462351 0.26750293
-1.2188877 1.140403 0.26437426
-1.204572 1.1411999 0.2628099
-1.1973782 1.1487457 0.2628099
-1.1759682 1.1424818 0.2596812
-1.1617261 1.142921 0.25811687
-1.1475246 1.1432271 0.25655252
-1.133366 1.1433996 0.25498816
-1.1192502 1.1434401 0.25342384
-1.1051795 1.1433481 0.25185949
-1.0911539 1.1431253 0.25029513
-1.0771755 1.1427711 0.24873079
-1.0632443 1.1422873 0.24716645
-1.0493627 1.1416732 0.2456021
-1.0288923 1.1336169 0.24247342
-1.0217496 1.1400589 0.24247342
-1.0080204 1.13906 0.24090907
4.8797092 0.75937122 0.78217232
5.0211182 0.74929166 0.80407315
5.1821699 0.74007016 0.82910264
5.3530841 0.73018843 0.8556965
5.5240722 0.71818727 0.88229036
5.7146835 0.70676976 0.91201293
5.9151435 0.69437921 0.94329983
6.1353617 0.6811102 0.97771537
6.3655124 0.66563785 1.0136954
6.6251631 0.65047842 1.0543683
6.9143486 0.63503504 1.0997343
7.2134008 0.61717814 1.1466646
7.5223112 0.5966835 1.1951593
10.136311 0.74036217 1.6097106
10.140762 0.6766609 1.6097106
10.134954 0.61233586 1.6081463
10.138602 0.5486443 1.6081463
10.13196 0.48495719 1.6065819
10.115033 0.42134875 1.6034533
10.107615 0.35732669 1.6018889
10.08994 0.29235804 1.5987602
10.091587 0.22856995 1.5987602
10.092824 0.16515845 1.5987602
10.093657 0.10223638 1.5987602
10.08422 0.039655898 1.5971959
10.084271 -0.023320211 1.5971959
10.083925 -0.086680785 1.5971959
10.073306 -0.14989099 1.5956315
10.072165 -0.21318015 1.5956315
10.060767 -0.27569553 1.5940672
10.068737 -0.33835787 1.5956315
10.056559 -0.40083656 1.5940672
10.063708 -0.46447092 1.5956315
10.050728 -0.52717626 1.5940672
10.047217 -0.59031475 1.5940672
10.043342 -0.6529392 1.5940672
10.039104 -0.71515459 1.5940672
10.04429 -0.77859753 1.5956315
10.039199 -0.84169066 1.5956315
10.033712 -0.9047519 1.5956315
10.037661 -0.96872622 1.5971959
10.021551 -1.0307647 1.5956315
10.024695 -1.0947835 1.5971959
10.017618 -1.1577487 1.5971959
10.010146 -1.2206681 1.5971959
10.012139 -1.2843045 1.5987602
10.003989 -1.3463144 1.5987602
10.005167 -1.4101409 1.6003245
10.00588 -1.474417 1.6018889
9.996419 -1.5372564 1.6018889
9.996315 -1.6015975 1.6034533
9.9860554 -1.6643744 1.6034533
9.9948645 -1.7304553 1.6065819
9.9838829 -1.7927299 1.6065819
9.9822941 -1.8563608 1.6081463
9.9802055 -1.9205298 1.6097106
9.9001322 -1.969708 1.5987602
9.5102472 -1.9543359 1.5377507
9.0823126 -1.9259485 1.4704839
8.6937227 -1.9007037 1.4094745
8.3443651 -1.8793354 1.3547225
8.024498 -1.860347 1.3046634
7.7244253 -1.8419982 1.2577331
7.4441876 -1.8242917 1.2139314
7.1262369 -1.7932513 1.1638724
6.9618907 -1.7981985 1.1388429
6.730866 -1.7837135 1.102863
6.5194569 -1.7712585 1.0700117
6.3275695 -1.7612958 1.0402892
6.1454754 -1.7520339 1.012131
5.9826465 -1.7463313 0.98710144
5.8106737 -1.7358264 0.96050757
5.6579676 -1.7290043 0.93704242
5.5055819 -1.7203333 0.91357726
5.3723512 -1.7158275 0.89324081
5.23001 -1.7066528 0.87133998
5.0973716 -1.6988811 0.85100347
4.9743924 -1.6926941 0.83223134
4.8423662 -1.6817898 0.81189483
4.7293801 -1.6756605 0.79468709
2.7265978 -1.6371717 0.50371897
2.7331285 -1.664546 0.50684768
2.6721971 -1.6505436 0.49746159
2.6366627 -1.6515715 0.49276856
2.6013031 -1.6520909 0.48807552
2.5661032 -1.6521366 0.48338249
1.569278 -1.5874428 0.35354188
1.5732125 -1.6112692 0.35667059
1.5699756 -1.6281722 0.35823491
1.5392816 -1.6165458 0.35354188
1.5088751 -1.604525 0.34884885
1.4921833 -1.6066059 0.3472845
1.292222 -1.5201013 0.3159976
1.2635963 -1.5054946 0.31130457
1.2541863 -1.5133427 0.31130457
1.2322754 -1.5057971 0.30817589
1.2104328 -1.4980984 0.30504721
1.1948372 -1.4979527 0.30348286
1.1792914 -1.4976705 0.30191851
1.1637965 -1.4972525 0.30035415
1.1484271 -1.4966428 0.29878983
1.1331682 -1.4958565 0.29722548
1.11789 -1.4949938 0.29566112
1.1026098 -1.4940411 0.2940968
1.0932007 -1.5009395 0.2940968
1.0722193 -1.4917384 0.29096809
1.0628252 -1.4984459 0.29096809
1.0477259 -1.4970024 0.28940377
1.0382993 -1.5035558 0.28940377
1.0232705 -1.5018874 0.28783941
1.0083039 -1.50009 0.28627506
-1.0789331 -1.3693576 -0.15252255
-1.124802 -1.4092674 -0.15775189
-1.1398976 -1.4099191 -0.15862344
-1.1613573 -1.4181437 -0.16036656
-1.1766049 -1.4184862 -0.16123812
-1.1854942 -1.4110655 -0.16123812
-1.1943367 -1.403589 -0.16123812
-1.2096355 -1.4036033 -0.16210967
-1.2184306 -1.3959754 -0.16210967
-1.2336993 -1.3958235 -0.16298124
-1.2489673 -1.3955762 -0.1638528
-1.2643555 -1.395124 -0.16472435
-1.2798324 -1.3944918 -0.1655959
-1.2953508 -1.3937198 -0.16646747
-1.3109099 -1.3928076 -0.16733903
-1.3196352 -1.3845434 -0.16733903
-1.342145 -1.3905604 -0.16908213
-1.3577429 -1.3892983 -0.16995369
-1.3733314 -1.3879406 -0.17082526
-1.3819802 -1.3793293 -0.17082526
-1.4048095 -1.3846048 -0.17256837
-1.4206202 -1.3826991 -0.17343992
-1.4364622 -1.3806491 -0.17431149
-1.4523342 -1.3784543 -0.17518304
-1.4682351 -1.3761142 -0.1760546
-1.4841636 -1.3736286 -0.17692615
-1.5001185 -1.3709968 -0.1777977
-1.5160984 -1.3682189 -0.17866927
-1.5395399 -1.3719213 -0.18041238
-1.5555336 -1.3688868 -0.18128394
-1.5715044 -1.3657575 -0.1821555
-1.5951302 -1.368883 -0.18389861
-1.6036997 -1.3588336 -0.18389861
-1.6274873 -1.3615146 -0.18564174
-1.6436906 -1.3576059 -0.18651329
-1.6599088 -1.3535471 -0.18738484
-1.6839004 -1.3555849 -0.18912795
-1.7001835 -1.3511759 -0.18999952
-1.7243152 -1.3527646 -0.19174263
-1.740657 -1.3480033 -0.19261418
-1.7649213 -1.3491398 -0.19435731
-1.7812421 -1.3441212 -0.19522886
-1.8055139 -1.3449615 -0.19697197
-1.8219112 -1.3395512 -0.19784354
-4.7725534 -3.2391636 -0.50463176
-4.8010893 -3.2146554 -0.5055033
-4.7879429 -3.1624644 -0.50201708
-4.7826786 -3.1160045 -0.4994024
-4.7686396 -3.0643506 -0.49591616
-4.7709703 -3.0236626 -0.49417305
-4.7643685 -2.9780469 -0.49155837
-4.7657685 -2.9380152 -0.48981526
-4.7585015 -2.8926458 -0.48720059
-4.7594929 -2.852448 -0.48545748
-4.7515907 -2.8072853 -0.4828428
-4.7519183 -2.7673483 -0.48109969
-4.7605724 -2.7324774 -0.48022813
-4.7949886 -2.7123215 -0.48197126
-2.6457396 -1.4530046 -0.2640819
-2.6548169 -1.4363524 -0.2640819
-2.6901634 -1.4336993 -0.26669657
-2.7167599 -1.4260281 -0.26843968
-2.7433653 -1.418079 -0.27018279
-2.7699003 -1.4100028 -0.27192593
-2.8142061 -1.4106706 -0.27541214
-2.8497689 -1.4062783 -0.27802682
-2.8943923 -1.4057537 -0.28151304
-2.9391203 -1.4047232 -0.28499928
-2.9839482 -1.4031855 -0.2884855
-3.01983 -1.3969567 -0.29110017
-3.0920203 -1.4068344 -0.29720107
-3.1371715 -1.4036531 -0.30068731
-3.1824036 -1.3999596 -0.30417353
-3.2277114 -1.3957522 -0.30765978
-3.2639225 -1.3871338 -0.31027445
-3.3277292 -1.3896313 -0.31550378
-3.3456113 -1.3724761 -0.31637534
-3.3356886 -1.3439821 -0.31463224
-3.3625939 -1.3303266 -0.31637534
-3.3986726 -1.3201778 -0.31899002
-3.3881707 -1.2919961 -0.31724688
-3.3775887 -1.2636267 -0.31550378
-5.2984037 -1.1848176 -0.4749988
-5.4225669 -1.1768591 -0.48545748
-6.8433709 -1.4402552 -0.61183327
-7.0182233 -1.4310666 -0.6266498
-7.2029209 -1.422053 -0.6423378
-7.3779397 -1.4091676 -0.65715426
-7.5825348 -1.3991795 -0.67458546
-7.7971382 -1.3881806 -0.69288814
-8.0217133 -1.376219 -0.71206242
-8.2759237 -1.3663613 -0.73385131
-8.5106401 -1.3502353 -0.75389719
-8.7060776 -1.3252206 -0.77045673
-8.7240906 -1.2719277 -0.77132833
-8.722043 -1.2157148 -0.77045673
-8.7295094 -1.1608865 -0.77045673
-8.7069817 -1.1022637 -0.76784205
-8.703845 -1.0463432 -0.76697052
-8.6904516 -0.98938358 -0.76522744
-8.6964455 -0.93523538 -0.76522744
-9.0886116 -0.92048174 -0.79921812
-9.143774 -0.86836547 -0.80357593
-9.1391268 -0.81001949 -0.80270439
-9.1341076 -0.75176138 -0.8018328
-9.1386499 -0.69435799 -0.8018328
-9.152771 -0.63761461 -0.80270439
-9.1367121 -0.57883644 -0.80096126
-9.1302233 -0.52084786 -0.80008972
-9.1233664 -0.46296853 -0.79921812
-9.1161203 -0.40569121 -0.79834658
-9.1184597 -0.3491993 -0.79834658
-9.1204643 -0.29219848 -0.79834658
-9.1121607 -0.23463343 -0.79747504
-9.1134653 -0.17687812 -0.79747504
-9.1144075 -0.11881474 -0.79747504
-9.0950489 -0.061611686 -0.7957319
-9.1052179 -0.005262692 -0.7966035
-9.0951109 0.051592141 -0.7957319
-9.1045685 0.10885379 -0.7966035
-9.0937452 0.16587779 -0.7957319
-9.0925236 0.2230095 -0.7957319
-9.0909424 0.28013724 -0.7957319
-9.0890026 0.3372491 -0.7957319
-9.0867043 0.39435247 -0.7957319
-9.0840473 0.45143542 -0.7957319
-9.071085 0.50794846 -0.79486036
-9.0776577 0.56555051 -0.7957319
-9.0739584 0.62208027 -0.7957319
-9.0699301 0.6782912 -0.7957319
-9.0655136 0.7349686 -0.7957319
-9.0607166 0.79191172 -0.7957319
-9.055562 0.84882838 -0.7957319
-9.0500498 0.9057067 -0.7957319
-9.0540867 0.96360838 -0.7966035
-9.0478535 1.0204751 -0.7966035
-9.0412626 1.0773065 -0.7966035
-9.0441999 1.1353313 -0.79747504
-9.0368881 1.1921374 -0.79747504
-9.0292196 1.2488916 -0.79747504
-9.0311251 1.3065327 -0.79834658
-9.0228558 1.3624651 -0.79834658
-9.0240049 1.4203839 -0.79921812
-9.0247335 1.4786634 -0.80008972
-8.907238 1.5169432 -0.79050255
-8.3677998 1.4792322 -0.74343848
-7.9957061 1.4657727 -0.71119082
-7.6045122 1.4441934 -0.67720014
-7.1553612 1.4057696 -0.63798004
-7.1561503 1.45268 -0.63885158
-7.1664634 1.5013134 -0.64059472
-7.059649 1.5246587 -0.63187915
-6.1261907 1.3631936 -0.54908115
-5.9621396 1.3660593 -0.53513622
-5.7789078 1.3623501 -0.51944822
-5.5862837 1.3540442 -0.50288862
-5.4133325 1.3481913 -0.48807216
-5.2213793 1.3352807 -0.47151256
-5.0490799 1.3250735 -0.45669609
-4.8963614 1.3179313 -0.44362271
-2.764046 1.212935 -0.2640819
-2.7108459 1.2100651 -0.25972411
-2.6669054 1.2106024 -0.25623786
-2.6140862 1.2063206 -0.25188008
-2.5614655 1.2013441 -0.24752231
-2.517936 1.2001854 -0.24403608
-2.4744835 1.1986104 -0.24054985
-2.4311512 1.1965388 -0.23706362
-2.3879445 1.1939694 -0.23357739
-2.3448668 1.1909063 -0.23009115
-2.3107774 1.1919152 -0.22747648
-2.2679439 1.1879221 -0.22399026
-2.2340491 1.1881151 -0.22137558
-2.2002425 1.1879295 -0.21876091
-2.1665275 1.1873666 -0.21614625
-2.1329067 1.1864287 -0.21353157
-2.0907099 1.1802175 -0.21004534
-2.0573201 1.1784762 -0.20743066
-2.0326495 1.1813673 -0.20568755
-1.9994425 1.1789365 -0.20307288
-1.9663478 1.1761346 -0.2004582
-1.9418848 1.1781323 -0.19871509
-1.9089912 1.1746477 -0.19610041
-1.8762184 1.1707979 -0.19348575
-1.8519892 1.1719092 -0.19174263
-1.8278199 1.1727636 -0.18999952
-1.8037145 1.17336 -0.1882564
-1.7797375 1.1736045 -0.18651329
-1.7475843 1.1680026 -0.18389861
-1.7236911 1.1678221 -0.1821555
-1.7080052 1.1731386 -0.18128394
-1.6760983 1.1667354 -0.17866927
-1.6525557 1.1656144 -0.17692615
-1.6290287 1.1643353 -0.17518304
-1.613613 1.1687038 -0.17431149
-1.5820811 1.1612234 -0.17169681
-1.5666579 1.1653333 -0.17082526
-1.5513111 1.169209 -0.16995369
-1.5280992 1.166841 -0.16821058
-1.5049784 1.1642288 -0.16646747
-1.481952 1.1613718 -0.16472435
-1.4668869 1.1643862 -0.1638528
-1.444116 1.1609691 -0.16210967
-1.4291064 1.1636826 -0.16123812
-1.4140817 1.1662999 -0.16036656
-1.3914349 1.1623887 -0.15862344
-1.3688943 1.1582386 -0.15688033
-1.3539622 1.1604084 -0.15600878
-1.3390194 1.1624799 -0.15513723
-1.3166882 1.1577575 -0.1533941
-1.3093882 1.1660073 -0.1533941
-1.2946379 1.16754 -0.15252255
-1.2725651 1.162215 -0.15077943
-1.2579876 1.163355 -0.14990787
-1.2434834 1.1643183 -0.14903632
-1.2289525 1.1652137 -0.14816476
-1.2072355 1.159113 -0.14642164
-1.1999284 1.1666758 -0.14642164
-1.1854761 1.1672026 -0.14555009
-1.1640093 1.160561 -0.14380698
-1.1496844 1.1607735 -0.14293541
-1.1354024 1.1608528 -0.14206386
-1.1211658 1.160798 -0.1411923
-1.1069742 1.160611 -0.14032075
-1.0928302 1.1602913 -0.13944918
-1.0787336 1.1598406 -0.13857763
-1.0646867 1.1592581 -0.13770607
-1.0573815 1.1659251 -0.13770607
-1.0367436 1.1577032 -0.13596296
-1.0228498 1.1567318 -0.13509139
-1.00901 1.1556314 -0.13421984
-3.3701115 6.6905293 -0.65541118
-3.3058777 6.6669483 -0.65105337
-3.2595553 6.6786346 -0.65018183
-3.2132134 6.6900043 -0.64931029
-3.1668608 6.7010536 -0.64843869
-3.1078935 6.6846867 -0.64495248
-3.0575469 6.6859622 -0.6432094
-2.9909596 6.6505294 -0.63798004
-2.9370296 6.6418571 -0.63536537
-2.887295 6.6419086 -0.63362223
-2.8337655 6.6324358 -0.63100755
-2.7843225 6.6317401 -0.62926447
-2.7388024 6.6398935 -0.62839288
-2.6858051 6.6292725 -0.6257782
-2.6367359 6.6275034 -0.62403512
-2.6059134 6.6717782 -0.6266498
-2.6031699 6.7903395 -0.63623691
-2.5920191 6.8904786 -0.64408094
-2.5693688 6.9627037 -0.64931029
-2.5628588 7.0817518 -0.6588974
-2.5549564 7.2009878 -0.66848451
-2.5456517 7.3204012 -0.67807168
-2.644187 7.7605844 -0.71729177
-2.0842786 6.9671359 -0.63623691
-2.0684114 7.0757127 -0.64495248
-2.0594699 7.2130976 -0.65628272
-2.2719412 8.353488 -0.75738341
-2.2194078 8.3675985 -0.75738341
-2.1568177 8.3427982 -0.75389719
-2.1092238 8.3755045 -0.75564027
-2.0565598 8.3885918 -0.75564027
-1.9945654 8.3625879 -0.75215405
-1.9397345 8.3652496 -0.75128251
-1.8805661 8.3481178 -0.74866784
-1.8259505 8.3500366 -0.74779624
-1.7713808 8.3515997 -0.7469247
-1.7168679 8.3528061 -0.74605316
-1.6604612 8.3438883 -0.74431002
-1.6061218 8.3443737 -0.74343848
-1.550016 8.334713 -0.74169534
-1.4958595 8.3344812 -0.74082381
-1.4417628 8.3339005 -0.73995227
-1.3877369 8.3329678 -0.73908067
-1.3337753 8.331686 -0.73820913
-1.279889 8.3300552 -0.73733759
-1.2260715 8.3280773 -0.73646599
-1.1709449 8.3158865 -0.73472291
-1.0881484 8.0959969 -0.7146771
-1.0372607 8.1026745 -0.7146771
1.0129287 2.6202991 -0.24577919
1.0293723 2.6138833 -0.24577919
1.0457755 2.6073639 -0.24577919
1.0659038 2.6099641 -0.24665074
1.0861058 2.6124139 -0.24752231
1.1024985 2.6055384 -0.24752231
1.1227874 2.6077096 -0.24839386
1.1391499 2.6006033 -0.24839386
1.1595216 2.6024942 -0.24926542
1.1799619 2.6042314 -0.25013697
1.1921331 2.5877182 -0.24926542
1.237944 2.643328 -0.25536633
1.2630913 2.6534874 -0.25710943
1.292753 2.6724021 -0.25972411
1.3183073 2.6821074 -0.26146722
1.3306828 2.6648591 -0.26059568
1.3474002 2.6564455 -0.26059568
1.3640645 2.647927 -0.26059568
1.3852924 2.6481314 -0.26146722
1.4112498 2.656971 -0.26321033
1.4324993 2.656898 -0.2640819
1.4537156 2.6567106 -0.26495346
1.470437 2.6474922 -0.26495346
3.0757115 5.1483116 -0.52467757
3.0770218 5.0777664 -0.51944822
3.0723517 4.9989228 -0.51334733
3.077353 4.9372492 -0.50898951
3.0763788 4.867291 -0.50376016
1.677081 2.6168408 -0.27192593
1.6772063 2.5811918 -0.26931125
1.7151701 2.6039724 -0.27279747
1.7478647 2.6181514 -0.27541214
1.7586123 2.5989249 -0.27454057
1.7805415 2.5960393 -0.27541214
1.7968178 2.5848005 -0.27541214
1.8244978 2.5897477 -0.27715525
1.8407335 2.578233 -0.27715525
1.8685752 2.5827587 -0.27889836
1.8907968 2.5788982 -0.27976993
1.9190698 2.5827935 -0.28151304
3.0782859 1.0958258 -0.28587082
3.0851104 1.0764627 -0.28587082
3.0918131 1.0570573 -0.28587082
3.1078401 1.0407735 -0.28674239
3.1427159 1.0305381 -0.28935707
4.0999885 0.92909592 -0.36779723
4.1056662 0.90367532 -0.36779723
5.0106277 0.77775747 -0.44362271
5.1533394 0.76695418 -0.45582452
5.3158555 0.75703204 -0.46976945
5.4883151 0.74643952 -0.48458591
5.6608453 0.73370886 -0.4994024
5.8729343 0.72403204 -0.51770508
6.0850911 0.71194077 -0.53600782
6.3072934 0.69765496 -0.5551821
6.5692263 0.68429613 -0.57784259
6.851028 0.66993845 -0.60224617
7.1725597 0.65590972 -0.63013601
7.5139904 0.63996476 -0.65976894
10.268714 0.81053209 -0.90119034
10.213965 0.74200195 -0.89596105
10.182707 0.6112079 -0.89247477
10.166451 0.54614753 -0.89073169
10.169655 0.48281321 -0.89073169
10.172452 0.41979474 -0.89073169
10.174896 0.35564917 -0.89073169
10.166997 0.29053953 -0.88986009
10.15867 0.22609822 -0.88898855
10.169851 0.16242434 -0.88986009
10.160704 0.098979264 -0.88898855
10.290627 0.036482759 -0.9003188
10.27073 -0.027784571 -0.89857566
10.360006 -0.093122475 -0.90641969
10.40902 -0.1589748 -0.91077751
10.367978 -0.2235143 -0.90729129
10.33651 -0.28725868 -0.90467662
10.304664 -0.35028088 -0.90206194
10.272411 -0.41348031 -0.89944726
10.117183 -0.5346458 -0.88637388
10.113625 -0.59820169 -0.88637388
10.119643 -0.6618349 -0.88724542
10.115348 -0.72452289 -0.88724542
10.110621 -0.78773367 -0.88724542
10.105473 -0.85124338 -0.88724542
10.090003 -0.91382229 -0.88637388
10.236272 -1.0569121 -0.9003188
10.011571 -1.0973288 -0.88114452
10.004478 -1.1602113 -0.88114452
10.016768 -1.2254676 -0.88288766
10.008941 -1.2878352 -0.88288766
10.00077 -1.349824 -0.88288766
9.992137 -1.4123063 -0.88288766
9.9830656 -1.4750606 -0.88288766
9.9834461 -1.5392747 -0.8837592
9.9834137 -1.6035516 -0.8846308
9.9731417 -1.6662474 -0.8846308
9.97229 -1.7305806 -0.88550234
9.9711218 -1.7944257 -0.88637388
9.9793997 -1.8598207 -0.88811702
9.9480162 -1.9183869 -0.88637388
9.7208338 -1.9380037 -0.8671996
9.7182226 -2.0010521 -0.8680712
9.5008249 -2.018595 -0.84976846
7.0226927 -1.7700872 -0.63362223
6.7703815 -1.7515695 -0.61183327
6.5763001 -1.7455167 -0.59527373
6.3922763 -1.739364 -0.57958567
6.2086477 -1.7307843 -0.56389767
6.0348625 -1.7230617 -0.54908115
5.8518052 -1.7106329 -0.53339314
5.6882372 -1.7016841 -0.51944822
5.5345449 -1.6936644 -0.50637484
5.3906903 -1.686757 -0.49417305
5.2661238 -1.6841795 -0.48371437
5.1323376 -1.6770107 -0.47238412
5.0083041 -1.6713816 -0.46192542
4.8939776 -1.6674751 -0.45233831
4.779902 -1.6621993 -0.44275117
3.8968127 -1.5773323 -0.36779723
3.9237199 -1.6168396 -0.37128347
3.9134836 -1.6414611 -0.37128347
3.0163665 -1.540689 -0.29632953
3.024364 -1.5686859 -0.29807264
2.9791913 -1.5690885 -0.29458642
2.7238159 -1.6369569 -0.27802682
2.6879582 -1.6384835 -0.27541214
5.8676372 -4.2111831 -0.63187915
5.8009167 -4.2184811 -0.62752134
1.6062084 -1.6059287 -0.19871509
1.5821731 -1.6017272 -0.19697197
1.5722188 -1.6114993 -0.19697197
1.5482916 -1.6069471 -0.19522886
1.5244306 -1.6022092 -0.19348575
1.5007782 -1.5971535 -0.19174263
1.4840771 -1.5991195 -0.19087107
1.2798754 -1.4877295 -0.17169681
1.2705024 -1.4957418 -0.17169681
1.2674809 -1.5113281 -0.17256837
1.2516891 -1.5115206 -0.17169681
1.2359939 -1.5115349 -0.17082526
1.2202638 -1.51148 -0.16995369
1.2045341 -1.5113269 -0.16908213
1.1888545 -1.5110362 -0.16821058
1.1732264 -1.5106083 -0.16733903
1.1577333 -1.5099809 -0.16646747
1.1423432 -1.509182 -0.1655959
1.1269253 -1.5083121 -0.16472435
1.1115137 -1.5073451 -0.1638528
1.0961591 -1.5062444 -0.16298124
1.0808624 -1.5050106 -0.16210967
1.0713849 -1.511772 -0.16210967
1.0561562 -1.5103101 -0.16123812
1.0409882 -1.5087167 -0.16036656
1.0258822 -1.5069927 -0.15949501
1.0163933 -1.5134087 -0.15949501
-1.0491593 -1.3478264 0.33200765
-1.0940764 -1.3874562 0.34345618
-1.1088989 -1.3882244 0.34536427
-1.1299486 -1.3964918 0.34918046
-1.1449231 -1.3969567 0.35108855
-1.1662177 -1.4048412 0.35490471
-1.1813389 -1.4049994 0.3568128
-1.1901433 -1.397549 0.3568128
-1.2053121 -1.397477 0.3587209
-1.2140689 -1.3898762 0.3587209
-1.2357023 -1.3969991 0.36253709
-1.2443345 -1.3893158 0.36253709
-1.2595961 -1.3887755 0.36444518
-1.274937 -1.3880637 0.36635327
-1.2903188 -1.3872133 0.36826137
-1.2990094 -1.3790786 0.36826137
-1.3144242 -1.3779926 0.37016943
-1.3298763 -1.376767 0.37207752
-1.3452821 -1.375482 0.37398562
-1.3606859 -1.3740952 0.37589371
-1.3762058 -1.372488 0.37780181
-1.3917961 -1.370702 0.3797099
-1.4074181 -1.3687739 0.38161799
-1.4230704 -1.3667034 0.38352609
-1.4458747 -1.3712449 0.38734224
-1.4616266 -1.3688432 0.38925034
-1.4774053 -1.3662974 0.39115843
-1.4932095 -1.363607 0.39306653
-1.5163277 -1.3673457 0.39688271
-1.5322199 -1.3643196 0.39879081
-1.5480524 -1.3612399 0.40069887
-1.5638688 -1.3580582 0.40260696
-1.5797856 -1.3546383 0.40451506
-1.6032494 -1.3573712 0.40833125
-1.619278 -1.3535666 0.41023934
-1.6428925 -1.3558621 0.41405553
-1.6665993 -1.357914 0.41787168
-1.6750983 -1.3474156 0.41787168
-1.6989059 -1.3490729 0.42168787
-1.7228 -1.3504838 0.42550406
-1.7390147 -1.3456398 0.42741215
-1.7552364 -1.3406452 0.42932025
-1.7792214 -1.3415155 0.4331364
-1.7953736 -1.3363271 0.4350445
-1.81952 -1.336693 0.43886068
-4.6633945 -3.1624033 1.0952436
-4.6586957 -3.1166654 1.0895194
-4.6126423 -3.0440774 1.0742546
-4.5823169 -2.9829035 1.0628061
-4.6009688 -2.9540532 1.0628061
-4.5945582 -2.9093318 1.0570818
-4.5959229 -2.8702829 1.0532657
-4.6052604 -2.8366044 1.0513575
-4.6229153 -2.8077395 1.0513575
-4.6320438 -2.7735946 1.0494494
-4.6155653 -2.7244766 1.0418171
-4.6325927 -2.6954224 1.0418171
-4.6068597 -2.6418457 1.0322766
-4.5891838 -2.5935292 1.0246443
-4.613965 -2.5694194 1.0265523
-2.6592484 -1.459065 0.58959979
-2.6510923 -1.4329922 0.5857836
-2.6600437 -1.4163067 0.5857836
-2.6862772 -1.4086829 0.58959979
-2.7474065 -1.4188017 0.60104835
-2.7649326 -1.4061263 0.60295641
-2.8262548 -1.415341 0.61440498
-2.8350534 -1.3976331 0.61440498
-2.8879371 -1.4012178 0.62394542
-2.9144008 -1.3915037 0.6277616
-2.9675102 -1.3940334 0.63730204
-3.0118539 -1.391832 0.64493442
-3.3063018 -1.3548341 0.69454473
-3.3238556 -1.3376982 0.6964528
-3.3687122 -1.331218 0.70408517
-3.3769314 -1.310228 0.70408517
-3.3666379 -1.2822921 0.70026898
-3.3654742 -1.2575672 0.69836092
-4.8528681 -1.1473925 0.96930969
-4.9556508 -1.138863 0.98839056
-5.2788653 -1.1782728 1.0513575
-5.4012899 -1.1700184 1.0742546
-6.8399229 -1.4367219 1.35856
-7.0123396 -1.4269961 1.3909975
-7.1848135 -1.4155878 1.4234351
-7.3766575 -1.4059623 1.4596888
-7.5880427 -1.3971159 1.4997587
-7.8093009 -1.3871793 1.5417366
-8.0404005 -1.376176 1.5856227
-8.2910337 -1.3655082 1.633325
-8.5418396 -1.3517479 1.6810272
-8.7054453 -1.3216233 1.7115567
-8.7330055 -1.2697266 1.7153728
-8.7408113 -1.2148285 1.7153728
-8.7482719 -1.159887 1.7153728
-8.7359095 -1.1024369 1.7115567
-8.7231703 -1.0451928 1.7077404
-8.7100582 -0.98814774 1.7039243
-8.7355585 -0.93602014 1.7077404
-9.0732584 -0.9153775 1.7726156
-9.2058516 -0.87061465 1.7974207
-9.194891 -0.23314698 1.7878803
-9.2059994 -0.17500497 1.7897884
-9.2069273 -0.11635701 1.7897884
-9.1878433 -0.058682386 1.7859721
-9.1880302 -0.0017527336 1.7859721
-9.1780453 0.055665553 1.7840641
-9.1775141 0.11333397 1.7840641
-9.1864357 0.17117591 1.7859721
-9.1851788 0.22889477 1.7859721
-9.173748 0.28629351 1.7840641
-9.1913872 0.34466606 1.7878803
-9.1596193 0.40111932 1.782156
-9.1569176 0.45866513 1.782156
-9.1538553 0.51618797 1.782156
-9.1602287 0.57430953 1.7840641
-9.156477 0.63129979 1.7840641
-9.162179 0.68875772 1.7859721
-9.1479063 0.74526322 1.7840641
-9.1332645 0.80187017 1.782156
-9.1182737 0.85831761 1.7802479
-9.1420012 0.91853869 1.7859721
-9.0384426 0.96553183 1.7668912
-9.3345709 1.0565292 1.8260421
-9.0255957 1.0790333 1.7668912
-9.0186377 1.1357235 1.7668912
-9.0502501 1.1975148 1.7745236
-9.0522699 1.2557064 1.7764317
-9.0539951 1.313421 1.7783399
-9.0359783 1.3680255 1.7764317
-9.0272427 1.4245254 1.7764317
-9.0278006 1.4828103 1.7783399
-8.9118671 1.5213315 1.7573508
-8.4671745 1.5002317 1.6714867
