# .PCD v0.7 - Point Cloud Data file format
VERSION 0.7
FIELDS x y z
SIZE 4 4 4
TYPE F F F
COUNT 1 1 1
WIDTH 1475
HEIGHT 1
VIEWPOINT 0 0 0 1 0 0 0
POINTS 1475
DATA ascii
2.1548676 1.2346665 -0.48274675
2.1710236 1.2261186 -0.48465484
2.1614509 1.2030481 -0.48083866
2.143146 1.1752837 -0.47511441
2.115967 1.1430852 -0.46748203
2.0972075 1.1157509 -0.46175775
2.1042488 1.102414 -0.46175775
2.1111338 1.0891709 -0.46175775
2.1179357 1.0758849 -0.46175775
2.1597722 1.0801193 -0.46939012
2.18413 1.0751988 -0.47320631
2.1908424 1.0614543 -0.47320631
2.1974683 1.0476682 -0.47320631
4.8486266 0.76198381 -0.95404494
4.9988523 0.75388592 -0.98266631
2.1103964 -1.5542129 -0.50946003
2.0612524 -1.5380894 -0.49991956
2.0359204 -1.5391263 -0.49610338
2.0029643 -1.5338064 -0.4903791
1.9778762 -1.5341977 -0.48656294
1.9527609 -1.5344642 -0.48274675
1.9277208 -1.5344765 -0.47893056
1.7839144 -1.6129507 -0.46748203
1.7521652 -1.6040876 -0.46175775
1.7349586 -1.6082776 -0.45984969
1.7176625 -1.6124283 -0.45794159
1.7003475 -1.6164627 -0.4560335
1.6758729 -1.6136447 -0.45221731
1.6586026 -1.6173617 -0.45030922
1.6275938 -1.6069171 -0.44458497
1.6106287 -1.6100659 -0.44267687
-1.0005482 -1.4204719 -0.33773193
-1.0094532 -1.4141575 -0.33773193
-1.0240718 -1.4157406 -0.33963999
-1.0387501 -1.4171956 -0.34154809
-1.0534867 -1.4185216 -0.34345618
-1.0682808 -1.4197181 -0.34536427
-1.0831313 -1.4207845 -0.34727237
-1.0920368 -1.4139509 -0.34727237
-1.1069483 -1.4147928 -0.34918046
-1.1219132 -1.4155027 -0.35108855
-1.1369305 -1.41608 -0.35299665
-1.151999 -1.4165243 -0.35490471
-1.1671177 -1.4168348 -0.3568128
-1.1009233 -1.2540927 -0.32437527
-1.1021507 -1.2399108 -0.32246721
-1.1098387 -1.233034 -0.32246721
-1.1175641 -1.2260364 -0.32246721
-1.1252455 -1.2189904 -0.32246721
-1.1529927 -1.2334092 -0.32819146
-1.2079582 -1.2760415 -0.34154809
-1.1819868 -1.2329956 -0.33200765
-1.2854344 -1.3241516 -0.3587209
-1.2662027 -1.2880479 -0.35108855
-1.26042 -1.266153 -0.34727237
-1.2335057 -1.2236425 -0.33773193
-1.2271452 -1.2021294 -0.33391574
-1.2276188 -1.1875701 -0.33200765
-1.2208602 -1.166272 -0.32819146
-1.2353045 -1.1653141 -0.33009955
-1.5737692 -1.3765793 -0.40642315
-1.6045837 -1.3860178 -0.41214743
-1.6356671 -1.3950185 -0.41787168
-1.6443999 -1.3847138 -0.41787168
-1.6681643 -1.3869056 -0.42168787
-1.6844331 -1.382625 -0.42359596
-1.70834 -1.3843746 -0.42741215
-1.7246698 -1.3797457 -0.42932025
-1.7410085 -1.374966 -0.43122831
-1.7573549 -1.3700353 -0.4331364
-1.7814872 -1.3709397 -0.43695259
-1.7978828 -1.365657 -0.43886068
-1.8221359 -1.3661104 -0.44267687
-1.8464652 -1.3663126 -0.44649303
-1.8629409 -1.3604733 -0.44840112
-1.8794159 -1.3544806 -0.45030922
-1.9038882 -1.3540236 -0.4541254
-1.9203933 -1.3476732 -0.4560335
-1.9530342 -1.3523451 -0.46175775
-1.9695979 -1.3455845 -0.46366584
-1.9942936 -1.3441554 -0.46748203
-2.019048 -1.3424691 -0.47129822
-2.0520678 -1.3459076 -0.47702247
-2.0769677 -1.3436514 -0.48083866
-2.1019197 -1.341135 -0.48465484
-2.1269214 -1.3383578 -0.48847103
-2.1519704 -1.3353189 -0.49228719
-2.1770647 -1.3320178 -0.49610338
-2.2022016 -1.3284534 -0.49991956
-2.2273791 -1.3246255 -0.50373572
-2.2610631 -1.3254976 -0.50946003
-2.2863457 -1.321087 -0.51327616
-2.3116615 -1.3164108 -0.51709235
-2.3455684 -1.3162719 -0.52281666
-2.3795638 -1.3157585 -0.52854091
-2.4136446 -1.3148693 -0.53426516
-2.4391572 -1.3089614 -0.53808135
-2.4733691 -1.3073717 -0.5438056
-2.5076561 -1.3054034 -0.54952991
-2.5419865 -1.3031107 -0.55525416
-2.5763004 -1.3006076 -0.56097841
-2.6106796 -1.2977287 -0.56670272
-2.6451213 -1.2944732 -0.57242697
-2.6405523 -1.3124516 0.257981
-2.6754775 -1.3092018 0.26059568
-2.7195094 -1.3097439 0.2640819
-10.29116 -4.562027 0.98485988
-10.283091 -4.4813566 0.98137367
-10.283573 -4.4048905 0.97875899
-10.27432 -4.3247309 0.97527272
-10.273672 -4.2486691 0.9726581
-10.272476 -4.1727867 0.97004342
-4.1187773 -1.3787228 0.37999904
-4.1557579 -1.362125 0.38261372
-4.2306342 -1.3572896 0.38871461
-4.2675929 -1.3396318 0.39132929
-4.2759256 -1.3127915 0.39132929
-4.3222551 -1.2973561 0.3948155
-4.3207622 -1.2673692 0.39394394
-4.8827596 -1.1693182 0.43926492
-4.996737 -1.1634655 0.44885206
-5.1205449 -1.1584264 0.45931077
-5.2444825 -1.1518764 0.46976945
-5.368567 -1.1436652 0.48022813
-5.5025759 -1.1356186 0.49155837
-5.6464028 -1.128168 0.50376016
-5.7999959 -1.1215301 0.51683354
-6.1691794 -1.1531408 0.54908115
-6.3527694 -1.1461931 0.56476921
-8.0577669 -1.4016001 0.71554863
-8.3022175 -1.3904337 0.73646599
-8.5370007 -1.3746699 0.75651181
-8.811285 -1.3620923 0.7800439
-9.0955915 -1.3475852 0.80444747
-9.4096432 -1.333747 0.83146578
-9.6547642 -1.3066664 0.85238314
-9.6726637 -1.2472496 0.85325474
-9.660533 -1.1840289 0.8515116
-9.6578865 -1.1221546 0.85064006
-9.6548443 -1.0603654 0.84976846
-9.6514072 -0.99865377 0.84889692
-9.6475763 -0.93703234 0.84802538
-9.8913813 -0.89801115 0.86894274
-10.154943 -0.85736316 0.89160323
-10.125051 0.35578758 0.88637388
-10.092744 0.41843748 0.8837592
-10.229181 0.48938698 0.89596105
-10.252019 0.62030363 0.89857566
-10.237979 0.68403953 0.89770412
-10.243414 0.74908215 0.89857566
-10.208735 0.81078136 0.89596105
-10.233293 0.87657046 0.89857566
-10.18796 0.93658984 0.89508945
-10.043075 0.98694128 0.88288766
-10.403267 1.0883735 0.91513526
-9.9902754 1.1086701 0.87940145
-10.002869 1.174015 0.88114452
-10.005073 1.2389361 0.88201612
-9.9970131 1.3023741 0.88201612
-9.9886322 1.3651638 0.88201612
-9.9699965 1.4264834 0.88114452
-9.9706888 1.4905738 0.88201612
-9.8922682 1.542177 0.87591523
-9.3613548 1.5188811 0.82972264
-8.8703423 1.4961758 0.78701633
-8.4190712 1.4752769 0.74779624
-8.1057024 1.4734191 0.72077799
-8.1158648 1.5280079 0.72252107
-7.0696177 1.3770741 0.63013601
-6.9338675 1.3959094 0.61880577
-6.6713314 1.3869193 0.59614527
-6.3896332 1.3708761 0.57174164
-6.1474023 1.3595723 0.55082428
-5.8960257 1.3423498 0.52903533
-5.6741333 1.3291924 0.50986111
-5.462172 1.3162999 0.49155837
-5.269989 1.3054079 0.4749988
-5.0879025 1.2942884 0.45931077
-4.9350877 1.2884811 0.44623739
-2.78949 1.179044 0.26495346
-2.7454216 1.1808028 0.26146722
-2.6923153 1.1780629 0.25710943
-2.6393545 1.1747017 0.25275165
-2.595619 1.1748315 0.24926542
-2.5429385 1.1702926 0.24490763
-2.4994416 1.1693617 0.2414214
-2.4560592 1.1679299 0.23793517
-2.4038246 1.1616664 0.23357739
-2.3696523 1.1635739 0.23096271
-2.326637 1.1606526 0.22747648
-2.292608 1.1618026 0.22486182
-2.2497318 1.1581451 0.22137558
-2.2158566 1.1585436 0.21876091
-2.1821363 1.1584306 0.21614625
-2.1485069 1.1579391 0.21353157
-2.1062305 1.1522909 0.21004534
-2.0815303 1.1558292 0.20830221
-2.0481904 1.1542133 0.20568755
-2.0149546 1.1522236 0.20307288
-1.981825 1.1498635 0.2004582
-1.9488063 1.147132 0.19784354
-1.9244537 1.14914 0.19610041
-1.8916332 1.1457256 0.19348575
-1.8674202 1.1471602 0.19174263
-1.8432652 1.1483352 0.18999952
-1.810747 1.1439327 0.18738484
-1.7867472 1.14454 0.18564174
2.1852999 1.2151986 0.21876091
2.1928921 1.201444 0.21876091
2.1828966 1.1781193 0.2170178
2.181561 1.1595141 0.21614625
2.1888719 1.1456528 0.21614625
2.196027 1.1318772 0.21614625
2.2119789 1.1225652 0.2170178
2.2279 1.1130972 0.21788935
2.2259104 1.0946807 0.2170178
2.2237778 1.0763333 0.21614625
2.2394905 1.0666233 0.2170178
2.2641895 1.0609852 0.21876091
5.0286818 0.72441977 0.44449428
5.1910362 0.71454471 0.4584392
5.3732138 0.70525068 0.47412723
5.5653572 0.69492835 0.49068683
5.7674685 0.68339056 0.50811797
5.9795465 0.6704495 0.52642065
6.211513 0.65679634 0.54646647
6.4733138 0.64280665 0.56912696
6.7351441 0.6258747 0.59178746
9.2399254 0.80092472 0.81141996
9.2645903 0.745004 0.81316304
9.2492189 0.68530625 0.81141996
9.2434034 0.62650478 0.81054837
9.2372141 0.56780344 0.80967683
9.2405996 0.50975466 0.80967683
9.2336693 0.45119828 0.80880529
9.2363224 0.3931728 0.80880529
9.2386103 0.33513179 0.80880529
9.2305765 0.27677897 0.80793375
9.2420921 0.21901238 0.80880529
9.233325 0.16076514 0.80793375
9.2241917 0.10263672 0.80706215
9.2246552 0.044677671 0.80706215
9.2247534 -0.013283141 0.80706215
9.2145262 -0.071166493 0.80619061
9.2238579 -0.12920091 0.80706215
9.2029448 -0.18674783 0.80531907
9.2115479 -0.24483235 0.80619061
9.1998711 -0.30237785 0.80531907
9.2077436 -0.3605659 0.80619061
9.1853933 -0.41750777 0.80444747
9.1925373 -0.47572765 0.80531907
9.1893673 -0.53347641 0.80531907
9.1858339 -0.59120405 0.80531907
9.1819553 -0.64865774 0.80531907
9.1777601 -0.70553493 0.80531907
9.1632433 -0.76206017 0.80444747
9.1681252 -0.82130802 0.80531907
9.162755 -0.8791967 0.80531907
9.1670418 -0.93696338 0.80619061
9.4911013 -1.0901855 0.83582354
9.0687037 -1.0994407 0.79921812
9.0813799 -1.1589212 0.80096126
9.0837927 -1.2172811 0.8018328
9.0759649 -1.274332 0.8018328
9.0677795 -1.3313326 0.8018328
9.0592356 -1.3882805 0.8018328
9.050334 -1.4451737 0.8018328
9.0410748 -1.5020097 0.8018328
9.041276 -1.560481 0.80270439
9.0410986 -1.6190139 0.80357593
9.0405426 -1.6776061 0.80444747
9.0298233 -1.7343761 0.80444747
9.0285187 -1.7930169 0.80531907
9.0365925 -1.8537128 0.80706215
9.0247669 -1.9104545 0.80706215
8.759532 -1.9118885 0.78440166
8.7765036 -1.9734446 0.78701633
6.1508074 -1.752394 0.55953985
6.0631685 -1.768688 0.55256742
5.8992057 -1.7611527 0.5386225
5.7355828 -1.7516279 0.52467757
5.6103554 -1.7519971 0.51421887
5.456883 -1.7417756 0.50114554
5.3227081 -1.7358739 0.48981526
5.188828 -1.7283566 0.47848502
5.0552573 -1.7192271 0.46715477
4.9314218 -1.7117555 0.45669609
4.817275 -1.7061231 0.44710895
4.7033973 -1.6991253 0.43752182
2.1090188 -1.5544767 0.2292196
2.0672832 -1.543854 0.22573337
1.7922275 -1.6420403 0.21266001
1.7892772 -1.6599371 0.21353157
1.7352495 -1.6302207 0.20830221
1.7177105 -1.6342715 0.20743066
1.7000911 -1.6382685 0.20655911
1.6825808 -1.6420153 0.20568755
1.672375 -1.6524087 0.20568755
1.6409314 -1.6416472 0.20307288
1.6095896 -1.6306556 0.2004582
1.2152978 -1.6288153 0.1777977
1.1991327 -1.6283973 0.17692615
1.1771644 -1.6197823 0.17518304
1.1611581 -1.6190513 0.17431149
1.1394528 -1.610052 0.17256837
1.1179069 -1.6008444 0.17082526
1.1021748 -1.5996332 0.16995369
1.0977027 -1.6147654 0.17082526
1.0819867 -1.6133569 0.16995369
1.0608351 -1.6035068 0.16821058
1.0398507 -1.5934551 0.16646747
1.0352099 -1.6083339 0.16733903
1.0197451 -1.6063961 0.16646747
-1.0076245 -1.4104236 0.151651
-1.0223082 -1.4121341 0.15252255
-1.0311607 -1.4056829 0.15252255
-1.0518579 -1.4151669 0.15426566
-1.0607288 -1.4085299 0.15426566
-1.0756006 -1.4097574 0.15513723
-1.0905294 -1.4108533 0.15600878
-1.1055143 -1.4118168 0.15688033
-1.120554 -1.4126475 0.15775189
-1.1356477 -1.4133446 0.15862344
-1.1445055 -1.4061813 0.15862344
-1.159655 -1.406649 0.15949501
-1.0783038 -1.2273673 0.14293541
-1.0925089 -1.2281058 0.14380698
-1.1067979 -1.2286848 0.14467853
-1.1144961 -1.2217064 0.14467853
-1.1221503 -1.2146797 0.14467853
-1.1365659 -1.2148799 0.14555009
-1.1510282 -1.2149464 0.14642164
-1.2069157 -1.2580107 0.15252255
-1.2495047 -1.2861285 0.15688033
-1.2435881 -1.2640495 0.15513723
-1.230413 -1.2350388 0.15252255
-1.209848 -1.1992314 0.14903632
-1.2031211 -1.177669 0.14729321
-1.2104968 -1.1700865 0.14729321
-1.2106186 -1.1555792 0.14642164
-1.486578 -1.2349482 0.16908213
-1.4095793 -1.1560916 0.15949501
-1.4168153 -1.1472121 0.15949501
-1.4317769 -1.1445075 0.16036656
-1.4624007 -1.1540023 0.16298124
-1.4774816 -1.1509129 0.1638528
-1.492581 -1.1476793 0.16472435
-1.5076978 -1.1443012 0.1655959
-1.5308038 -1.1467508 0.16733903
-1.5379788 -1.1371099 0.16733903
-1.5611877 -1.1391681 0.16908213
-1.5763986 -1.1351578 0.16995369
-1.5997409 -1.1367714 0.17169681
-1.6150085 -1.1324168 0.17256837
-2.2693577 -1.3291626 0.23009115
-2.320802 -1.3397807 0.23444894
-2.35515 -1.3399512 0.23706362
-2.3809016 -1.3348705 0.23880672
-2.4066815 -1.3295188 0.24054985
-2.4412374 -1.3286576 0.24316452
-2.4670968 -1.3227071 0.24490763
-2.5017862 -1.3211354 0.24752231
-2.5453904 -1.323776 0.25100854
-2.5802219 -1.32145 0.25362322
-2.6150439 -1.3188963 0.25623786
-2.64101 -1.3115304 0.257981
-2.6848838 -1.3126439 0.26146722
-2.6273551 -1.3046236 -0.46461037
-2.6620078 -1.3013333 -0.4693034
-2.6968048 -1.2974865 -0.47399643
-4.0661368 -1.3877909 -0.6804899
-4.1122456 -1.3747416 -0.68674731
-4.1489625 -1.3580943 -0.69144034
-4.2420669 -1.3591211 -0.70551944
-4.2599473 -1.3353951 -0.70708376
-4.2682538 -1.3086028 -0.70708376
-4.3047748 -1.2902662 -0.71177679
-4.3127966 -1.2631943 -0.71177679
-4.8319154 -1.1551341 -0.78686535
-4.9545231 -1.1515859 -0.80563748
-5.0676384 -1.1443634 -0.82284528
-5.1808538 -1.1357667 -0.84005308
-5.3231764 -1.1317817 -0.86195391
-5.4560385 -1.1237479 -0.88229036
-5.5889354 -1.1144354 -0.90262687
-5.7509007 -1.1097267 -0.92765635
-5.9033432 -1.1010493 -0.95112151
-6.1522465 1.3631427 -0.99805188
-5.9125719 1.3485252 -0.96050757
-5.6924677 1.3358767 -0.92609203
-5.4822192 1.3234391 -0.89324081
-5.2819977 1.3105862 -0.86195391
-5.1109509 1.3022879 -0.83536005
-4.9593339 1.2968941 -0.81189483
-4.7984529 1.2870862 -0.78686535
-2.6960084 1.18094 -0.46617469
-2.6524472 1.1817783 -0.45991731
-2.5999875 1.1780387 -0.4520956
-2.5476804 1.1736888 -0.44427386
-2.5044777 1.1729164 -0.4380165
-2.4524679 1.1674044 -0.43019477
-2.4184113 1.1698867 -0.42550173
-2.3755567 1.1676322 -0.41924435
-2.3416643 1.1692972 -0.41455132
-2.2901902 1.1617228 -0.40672961
-2.2476242 1.1581916 -0.40047222
-2.2139859 1.1586739 -0.39577919
-2.1804965 1.1586574 -0.39108616
-2.147095 1.1582675 -0.38639313
-2.1137862 1.157503 -0.3817001
-2.0892053 1.1611656 -0.37857139
-2.0474575 1.1548594 -0.37231401
-2.0144441 1.1529827 -0.36762097
-1.9900782 1.1556964 -0.3644923
-1.9572479 1.1531372 -0.35979927
-1.9245299 1.1502105 -0.35510623
-1.9003724 1.1520401 -0.35197753
-1.8762692 1.1536109 -0.34884885
-1.8438404 1.1496998 -0.34415582
-1.8198843 1.1507049 -0.34102714
1.1035118 1.8603743 -0.34259146
1.1151791 1.8534042 -0.34259146
1.1319474 1.8547915 -0.34415582
1.143579 1.8476428 -0.34415582
1.1656668 1.8571522 -0.3472845
2.1877358 1.3066441 -0.4036009
2.1874614 1.287742 -0.40203658
2.1784236 1.2640582 -0.39890787
2.1862819 1.2504176 -0.39890787
2.1853836 1.2319971 -0.39734355
2.1757469 1.208768 -0.39421484
2.1399794 1.1713618 -0.38639313
2.1299474 1.1484476 -0.38326442
2.1284969 1.1302236 -0.3817001
2.1268647 1.1121346 -0.38013574
2.1338105 1.0987492 -0.38013574
2.140672 1.0853205 -0.38013574
2.1562862 1.0762597 -0.3817001
2.1984651 1.0801114 -0.38795745
2.2141001 1.0705763 -0.38952181
2.2118642 1.0524 -0.38795745
5.0205364 0.75318003 -0.80407315
5.1815548 0.74436545 -0.82910264
5.3524771 0.7346254 -0.8556965
5.5430617 0.72532892 -0.88541907
5.7533355 0.71610624 -0.91827029
5.953896 0.70310974 -0.94955719
6.1937757 0.69200701 -0.98710144
6.0691104 -1.7316951 -0.99961621
5.8874588 -1.7199407 -0.97145802
5.76298 -1.7229488 -0.95268589
5.6292548 -1.7215734 -0.93234938
5.4863529 -1.7156385 -0.91044855
5.3249369 -1.7019641 -0.88541907
5.1920819 -1.6955292 -0.86508256
5.068892 -1.6906186 -0.84631044
4.9459739 -1.6842283 -0.82753831
4.8233399 -1.6763616 -0.80876619
4.7103138 -1.6703229 -0.79155838
2.1221981 -1.5654771 -0.41768003
2.0727634 -1.5492151 -0.40985829
2.0472915 -1.5502157 -0.40672961
2.0219731 -1.5508485 -0.4036009
1.9888756 -1.5452335 -0.39890787
1.9558436 -1.5393735 -0.39421484
1.9384105 -1.5454742 -0.39265051
1.7790294 -1.6110405 -0.38013574
1.7835733 -1.6353821 -0.38326442
1.7443999 -1.6195785 -0.37700707
1.7269937 -1.6237413 -0.37544271
1.7095509 -1.6278056 -0.37387836
1.6849275 -1.6249505 -0.37074968
1.653451 -1.6148382 -0.36605665
1.6363909 -1.618107 -0.3644923
1.6262807 -1.628268 -0.3644923
-1.0021544 -1.4203813 -0.27532464
-1.0168033 -1.4220912 -0.276889
-1.0315135 -1.4236726 -0.27845335
-1.0404383 -1.4171634 -0.27845335
-1.055217 -1.4185228 -0.28001767
-1.0700538 -1.4197522 -0.28158203
-1.0849473 -1.4208509 -0.28314638
-1.0998968 -1.4218181 -0.28471074
-1.1149009 -1.4226533 -0.28627506
-1.1238177 -1.4156202 -0.28627506
-1.1388795 -1.4162281 -0.28783941
-1.1539932 -1.4167022 -0.28940377
-1.1628718 -1.4094235 -0.28940377
-1.1021762 -1.2535604 -0.26437426
-1.1033543 -1.2393305 -0.2628099
-1.1110522 -1.2324343 -0.2628099
-1.1187738 -1.2254289 -0.2628099
-1.1331563 -1.2256277 -0.26437426
-1.1475853 -1.2256936 -0.26593858
-1.1620595 -1.2256263 -0.26750293
-1.1834185 -1.2325499 -0.27063161
-1.2324506 -1.2675786 -0.28001767
-1.2473203 -1.266848 -0.28158203
-1.2482818 -1.2519915 -0.28001767
-1.2280538 -1.2163219 -0.27376032
-1.2286109 -1.2016758 -0.27219597
-1.2290328 -1.1870707 -0.27063161
-1.2293198 -1.1725082 -0.26906729
-1.2366626 -1.1647611 -0.26906729
-1.2439566 -1.156968 -0.26906729
-1.2584759 -1.1558101 -0.27063161
-1.2803457 -1.1611505 -0.27376032
-1.2949739 -1.1596719 -0.27532464
-1.3169947 -1.164641 -0.27845335
-1.3241853 -1.1564589 -0.27845335
-1.3313627 -1.1481886 -0.27845335
-1.3535906 -1.1526076 -0.28158203
-1.3608059 -1.1440799 -0.28158203
-1.383167 -1.148124 -0.28471074
-1.3979928 -1.1456711 -0.28627506
-1.4128423 -1.1430771 -0.28783941
-1.4199965 -1.1341774 -0.28783941
-1.4503624 -1.1435792 -0.29253244
-1.4653133 -1.1405103 -0.2940968
-1.4802827 -1.1372985 -0.29566112
-1.5031389 -1.1399114 -0.29878983
-1.5260859 -1.1422815 -0.30191851
-1.5332328 -1.1326704 -0.30191851
-1.5562812 -1.134652 -0.30504721
-1.5713969 -1.1306196 -0.30661154
-1.6106836 -1.1435959 -0.31286892
-1.6097479 -1.1277859 -0.31130457
-1.6330515 -1.1288821 -0.31443328
-2.1242878 -1.3530608 -0.39890787
-2.1411111 -1.3449405 -0.40047222
-2.1747091 -1.3470641 -0.40516526
-2.2084172 -1.3488179 -0.40985829
-2.2337708 -1.3451056 -0.41298699
-2.2591646 -1.3411276 -0.41611567
-2.2845957 -1.3368833 -0.41924435
-2.3186178 -1.3373065 -0.42393738
-2.335561 -1.3275927 -0.42550173
-2.3697078 -1.3273723 -0.43019477
-2.4039431 -1.3267746 -0.4348878
-2.4295859 -1.3210803 -0.4380165
-2.4552517 -1.3151158 -0.44114518
-2.4984093 -1.3180981 -0.44740257
-2.5241706 -1.3114817 -0.45053124
-2.558697 -1.3091757 -0.45522428
-2.5932207 -1.3066304 -0.45991731
-2.62781 -1.3037069 -0.46461037
-2.6624618 -1.3004045 -0.4693034
-2.6496763 -1.3144286 0.36317062
-2.6756067 -1.3066978 0.36560804
-2.7195334 -1.3070886 0.3704828
-10.284266 -4.5493102 1.3807796
-10.28534 -4.4727283 1.3771236
-10.276733 -4.3924122 1.3722488
-10.267525 -4.3123813 1.3673741
-10.266891 -4.2364259 1.3637179
-10.265712 -4.1606493 1.3600619
-3.5781007 -1.4240804 0.47285303
-3.5962226 -1.4051827 0.47407174
-4.1047697 -1.3704499 0.53135031
-4.1510363 -1.356968 0.53622508
-4.2256536 -1.3520324 0.54475594
-4.2814264 -1.3402814 0.55084944
-4.2707815 -1.3075428 0.54841202
-4.3169475 -1.292068 0.55328679
-4.315454 -1.2621323 0.55206811
-4.8947535 -1.1681253 0.61787754
-5.0083508 -1.1620252 0.63128316
-5.1414266 -1.1589051 0.6471262
-5.2649589 -1.1520387 0.6617505
-5.3789382 -1.1413977 0.67515618
-5.5124884 -1.1330886 0.69099915
-5.6557956 -1.1254904 0.70806086
-5.7991099 -1.1167004 0.72512257
-6.2157912 -1.1568003 0.7763077
-6.3597045 -1.1422896 0.79336941
-8.0782499 -1.3986253 1.0066408
-8.3120575 -1.3853737 1.0346707
-8.555809 -1.3708035 1.0639193
-8.8487473 -1.3607711 1.0992614
-9.1517057 -1.3485522 1.1358223
-9.4450188 -1.3311979 1.1711644
-9.6499338 -1.2982934 1.1955383
-9.6677456 -1.2388998 1.196757
-9.6654863 -1.1769291 1.1955383
-9.6726904 -1.1161788 1.1955383
-9.6696453 -1.0543033 1.1943195
-9.656332 -0.99150157 1.1918821
-9.6524916 -0.92985547 1.1906635
-9.9645939 -0.89677083 1.2284429
-10.157991 -0.84947479 1.2515981
-10.107525 0.36311713 1.2418486
-10.085195 0.42616385 1.2394112
-10.151671 0.49377573 1.2479421
-10.148341 0.55805051 1.2479421
-10.144634 0.62180036 1.2479421
-10.140527 0.68553108 1.2479421
-10.145918 0.74996102 1.2491608
-10.131143 0.81251496 1.2479421
-10.135803 0.87612736 1.2491608
-10.070846 0.93380284 1.2418486
-10.361093 1.0264125 1.2784094
-10.028704 1.0571531 1.2381926
-9.9922724 1.1168339 1.2345364
-9.9850121 1.1799805 1.2345364
-9.9871416 1.244791 1.2357551
-9.9889002 1.3092989 1.2369738
-9.9804773 1.3720322 1.2369738
-9.9814835 1.4361302 1.2381926
-9.9624481 1.4973391 1.2369738
-9.8156214 1.5380154 1.2199121
-9.2671175 1.5109577 1.152884
-8.7779493 1.4877813 1.093168
-8.1231346 1.4300877 1.0127342
-8.1041517 1.4797153 1.0115155
-8.1044474 1.5324478 1.0127342
-7.0718679 1.38328 0.88477141
-6.8781919 1.3903208 0.86161625
-6.6069322 1.3790166 0.82871151
-6.3263302 1.3625615 0.79458809
-6.094768 1.3528833 0.76655817
-5.863718 1.3397716 0.73852819
-5.6426344 1.3265511 0.71171695
-5.4314742 1.3134762 0.68612438
-5.2496648 1.3047515 0.66418791
-5.0778713 1.2959821 0.64347011
-4.9160028 1.2876247 0.62397105
-2.7874899 1.1807789 0.37170148
-2.7344415 1.1786268 0.36560804
-2.6906226 1.1798398 0.36073324
-2.6378324 1.1765079 0.35463977
-2.5851927 1.1725587 0.34854633
-2.5417213 1.1721531 0.34367153
-2.489372 1.1670338 0.33757809
-2.4461489 1.1655744 0.33270329
-2.4030445 1.1636175 0.32782853
-2.3689678 1.1655486 0.32417244
-2.3172071 1.1582214 0.31807899
-2.2832897 1.1593648 0.31442291
-2.2493944 1.1602366 0.31076682
-2.2156258 1.1606402 0.30711073
-2.1732376 1.1558944 0.30223596
-2.1397309 1.1553795 0.29857987
-2.0976143 1.1497179 0.29370511
-2.0730014 1.1532251 0.29126772
-2.0397856 1.1515878 0.28761163
-2.0066724 1.1495805 0.28395557
-1.9736665 1.147202 0.28029948
-1.94932 1.1494974 0.2778621
-1.9165059 1.1464362 0.27420601
-1.8838077 1.1430098 0.27054992
-1.8596829 1.1444192 0.26811254
-1.8356148 1.1455719 0.26567516
-1.811607 1.1464669 0.26323777
2.1782467 1.2090374 0.30589205
2.1858001 1.1953275 0.30589205
2.1845741 1.1767794 0.30467334
2.1832583 1.1581875 0.30345467
2.181751 1.1397436 0.30223596
2.1888692 1.1260128 0.30223596
2.2047553 1.1167225 0.30345467
2.2206109 1.1072767 0.30467334
2.2275243 1.0933024 0.30467334
2.2254121 1.074968 0.30345467
2.2410867 1.065225 0.30467334
2.2567265 1.0553274 0.30589205
2.2903643 1.053571 0.30954814
3.1703374 0.93443412 0.4058249
3.1570699 0.9090035 0.40338752
5.0206547 0.719239 0.62275231
5.1922493 0.71055704 0.64347011
5.3737688 0.70103019 0.66540658
5.5455165 0.6880281 0.68612438
5.7468781 0.67637444 0.71049827
5.9581695 0.66331482 0.73609084
6.1892824 0.64946175 0.76412076
6.4402361 0.6343435 0.79458809
6.710958 0.61838537 0.82749283
14.972012 1.2861035 1.8451018
15.147939 1.2061355 1.8658196
15.145319 1.1102092 1.8646009
9.1536627 -0.82736039 1.1285101
10.076932 -0.97479159 1.2430673
9.1327419 -0.94060612 1.1272914
9.1168337 -0.99644315 1.1260728
9.0413752 -1.0457233 1.1175419
9.0641832 -1.106118 1.1211979
9.0668993 -1.1643107 1.1224166
9.0594044 -1.2212565 1.1224166
9.0613804 -1.2795419 1.1236353
9.0629807 -1.3379002 1.124854
9.0445862 -1.3933066 1.1236353
9.0356531 -1.4501077 1.1236353
9.0361538 -1.5084858 1.124854
9.0362768 -1.5669274 1.1260728
9.0360222 -1.62543 1.1272914
9.025631 -1.6821727 1.1272914
9.0246286 -1.7407287 1.1285101
9.0232477 -1.7993385 1.1297288
9.0214853 -1.8579984 1.1309475
9.0193415 -1.9167084 1.1321661
8.7550383 -1.9181124 1.1004802
8.7718592 -1.9796388 1.1041362
8.7495794 -2.0324688 1.1029176
8.9356833 -2.1932123 1.1297288
8.9892082 -2.2658567 1.1382596
6.1269069 -1.7507882 0.78240114
6.0776811 -1.778102 0.77752638
5.8476944 -1.7507777 0.74949646
5.7321849 -1.7555138 0.73609084
5.5979066 -1.752936 0.72024781
5.4544387 -1.7457168 0.70318609
5.3207216 -1.7398505 0.68734306
5.196713 -1.7355183 0.67271876
5.0729733 -1.7296982 0.65809447
4.9401422 -1.7191309 0.64225143
4.8170018 -1.7102853 0.62762713
4.7128372 -1.7067211 0.61544019
2.0920925 -1.544538 0.31929767
2.0585029 -1.5398169 0.31564158
2.0488467 -1.552642 0.31564158
2.0155675 -1.5471758 0.31198552
2.0058832 -1.5597107 0.31198552
1.9804498 -1.5599996 0.30954814
1.9473341 -1.5538404 0.30589205
1.9143748 -1.5473275 0.30223596
1.7843959 -1.6374087 0.2973612
1.7741535 -1.6485012 0.2973612
1.713161 -1.6120039 0.28883034
1.6957514 -1.6159538 0.28761163
1.6854227 -1.6267238 0.28761163
1.6822491 -1.6442369 0.28883034
1.6438094 -1.6267021 0.28395557
1.6266251 -1.6298928 0.28273687
1.6024181 -1.6259423 0.28029948
1.5852479 -1.6288656 0.27908078
1.209572 -1.6238002 0.24861346
1.1934663 -1.6233711 0.24739476
1.1832429 -1.6308379 0.24739476
1.1671945 -1.63017 0.24617606
1.1512015 -1.6293652 0.24495737
1.1352649 -1.628424 0.24373868
1.1193862 -1.6273471 0.24251999
1.0979922 -1.6179227 0.24008261
1.0767611 -1.6082942 0.23764521
1.0721046 -1.6233101 0.23886392
1.0510484 -1.6133815 0.23642652
1.0301597 -1.603253 0.23398913
1.014753 -1.6013101 0.23277044
-1.0108135 -1.4125408 0.21327135
-1.0254954 -1.414197 0.21449004
-1.0343608 -1.4077258 0.21449004
-1.0550396 -1.4171216 0.21692742
-1.0639229 -1.4104646 0.21692742
-1.0848175 -1.4195246 0.21936481
-1.0997914 -1.4205287 0.22058351
-1.1148205 -1.4214003 0.2218022
-1.1299037 -1.4221389 0.2230209
-1.14504 -1.4227438 0.22423959
-1.1539567 -1.4155213 0.22423959
-1.1691476 -1.4158964 0.22545828
-1.1783198 -1.3560994 0.22058351
-1.0949714 -1.2443941 0.2035218
-1.1026604 -1.2375859 0.2035218
-1.0970566 -1.2159489 0.20108442
-1.1046749 -1.2090319 0.20108442
-1.1189905 -1.2093525 0.20230311
-1.1333536 -1.2095406 0.2035218
-1.1614268 -1.2239956 0.20717788
-1.1759714 -1.2238309 0.20839657
-1.2320907 -1.2662128 0.21692742
-1.2400222 -1.2584465 0.21692742
-1.2268726 -1.2295523 0.21327135
-1.2134098 -1.200874 0.20961526
-1.2067342 -1.1793514 0.20717788
-1.2069786 -1.1648535 0.20595919
-1.2142737 -1.1572468 0.20595919
-1.4744596 -1.2229252 0.23520783
-1.4053209 -1.1507541 0.2230209
-1.4202422 -1.1481414 0.22423959
-1.4351859 -1.1453865 0.22545828
-1.4501507 -1.1424887 0.22667697
-1.4651355 -1.1394479 0.22789566
-1.4880121 -1.1423076 0.23033306
-1.5030708 -1.1389301 0.23155175
-1.5181457 -1.1354082 0.23277044
-1.5412209 -1.1376359 0.23520783
-1.5563608 -1.1337739 0.23642652
-1.5715128 -1.1297665 0.23764521
-1.5866756 -1.125613 0.23886392
-2.2792227 -1.3325375 0.32417244
-2.3047497 -1.3281018 0.32660982
-2.3562028 -1.3381017 0.33270329
-2.3905482 -1.3378124 0.33635938
-2.4249816 -1.3371437 0.34001547
-2.4420569 -1.3266187 0.34123415
-2.4765978 -1.3252978 0.34489024
-2.5024369 -1.3189667 0.34732762
-2.5371029 -1.3169355 0.35098371
-2.5806286 -1.3191365 0.35585847
-2.6153488 -1.3165103 0.35951456
-2.6501348 -1.3135041 0.36317062
-2.6849828 -1.3101168 0.36682671
-2.6235058 -1.3001796 -0.35951456
-2.6582718 -1.2969573 -0.36317062
-2.7021585 -1.2974136 -0.36804542
-3.57866 -1.4226747 -0.47285303
-3.6060202 -1.4073796 -0.47529042
-4.1147232 -1.371978 -0.53256905
-4.1515689 -1.3553373 -0.53622508
-4.2356386 -1.3533945 -0.54597467
-4.2630057 -1.3326764 -0.54841202
-4.2618027 -1.3029642 -0.54719335
-4.3079448 -1.2875298 -0.55206811
-4.3064218 -1.2576545 -0.55084944
-4.8662457 -1.1593031 -0.61422145
-4.9701295 -1.1510985 -0.6264084
-5.0934639 -1.1459934 -0.64103276
-5.2072296 -1.137265 -0.65443838
-5.3405514 -1.1310319 -0.67028135
-5.4740477 -1.1229142 -0.68612438
-5.607554 -1.1136333 -0.70196742
-5.7703009 -1.1088356 -0.72146648
-6.138176 -1.1398627 -0.76655817
-6.3503833 -1.1380389 -0.79215074
-7.0421042 1.3803284 -0.88111532
-6.8581891 1.3890837 -0.85917884
-6.6063819 1.3816488 -0.82871151
-6.3451915 1.3692693 -0.7970255
-6.0845547 1.3530887 -0.76533943
-5.8631978 1.3420452 -0.73852819
-5.6517663 1.3310744 -0.71293563
-5.4309506 1.31564 -0.68612438
-5.2587833 1.3092099 -0.66540658
-5.0773616 1.297978 -0.64347011
-4.9250975 1.292073 -0.62518972
-2.7870255 1.1818745 -0.37170148
-2.7339785 1.1797 -0.36560804
-2.6810701 1.1769079 -0.35951456
-2.6283071 1.1734968 -0.35342109
-2.5937691 1.1776782 -0.349765
-2.541261 1.1731508 -0.34367153
-2.4889131 1.1680121 -0.33757809
-2.4546497 1.1708076 -0.333922
-2.4025869 1.164562 -0.32782853
-2.359606 1.1620932 -0.32295376
-2.3167517 1.1591321 -0.31807899
-2.2828276 1.1602744 -0.31442291
-2.2489319 1.1611327 -0.31076682
-2.2151699 1.16151 -0.30711073
-2.1727831 1.1567487 -0.30223596
-2.1392772 1.1562194 -0.29857987
-2.1058643 1.1553164 -0.29492381
-2.0812204 1.1588672 -0.29248643
-2.0479739 1.1572726 -0.28883034
-1.9976106 1.1454309 -0.28273687
-1.9732155 1.1479777 -0.28029948
-1.940321 1.1452175 -0.2766434
-1.9160551 1.1471895 -0.27420601
-1.8918425 1.1489012 -0.27176863
-1.8592329 1.1451501 -0.26811254
-1.835165 1.1462923 -0.26567516
-1.8027712 1.1418679 -0.2620191
2.1735637 1.2772629 -0.30954814
2.181546 1.2635809 -0.30954814
2.180768 1.2450235 -0.30832943
2.1711404 1.2217528 -0.30589205
2.161361 1.1985551 -0.30345467
2.1514285 1.1754338 -0.30101728
2.1500819 1.157095 -0.29979858
2.1574094 1.1433746 -0.29979858
2.1646001 1.1297022 -0.29979858
2.136344 1.0979317 -0.29492381
2.1432004 1.0844871 -0.29492381
2.1588562 1.0754253 -0.29614249
2.192306 1.0749488 -0.29979858
2.2079558 1.0654668 -0.30101728
2.2146068 1.0515728 -0.30101728
5.0163636 0.74858147 -0.62275231
5.1683226 0.73832226 -0.64103276
5.3498774 0.72998834 -0.66296923
5.5315247 0.71940112 -0.68490571
5.7230935 0.70777816 -0.70806086
5.934443 0.69608724 -0.73365343
6.1853232 0.68614471 -0.76412076
6.4363327 0.67279482 -0.79458809
6.6973171 0.656973 -0.82627416
6.1562324 -1.7200091 -0.78483856
6.0785069 -1.7395399 -0.7763077
5.8864813 -1.7246737 -0.75315255
5.7424259 -1.7217181 -0.73609084
5.6081347 -1.719932 -0.72024781
5.4646273 -1.7135572 -0.70318609
5.3214259 -1.7054495 -0.68612438
5.1785479 -1.6956115 -0.66906267
5.0548344 -1.6903427 -0.65443838
4.9407897 -1.6867944 -0.64103276
4.826993 -1.6818812 -0.62762713
4.7041049 -1.6722814 -0.61300278
2.0994687 -1.5512578 -0.32051638
2.0658438 -1.5465734 -0.31686029
2.0482454 -1.5534352 -0.31564158
2.0149682 -1.5479561 -0.31198552
1.9817712 -1.5422113 -0.30832943
1.956453 -1.542343 -0.30589205
1.9234563 -1.5360239 -0.30223596
1.7865249 -1.6203482 -0.29614249
1.7764512 -1.631386 -0.29614249
1.7589688 -1.6356798 -0.29492381
1.7342056 -1.6330899 -0.29248643
1.7094733 -1.630329 -0.29004905
1.6776359 -1.6204989 -0.28639296
1.660326 -1.6240668 -0.28517425
1.6361268 -1.6203547 -0.28273687
1.6049595 -1.6094468 -0.27908078
-1.0171471 -1.4202132 -0.21449004
-1.0260508 -1.413794 -0.21449004
-1.0407935 -1.4153157 -0.21570873
-1.0615267 -1.4246662 -0.21814612
-1.0704566 -1.4179685 -0.21814612
-1.0793452 -1.4112145 -0.21814612
-1.0942698 -1.412251 -0.21936481
-1.1092503 -1.4131548 -0.22058351
-1.1242845 -1.4139265 -0.2218022
-1.1393727 -1.4145641 -0.2230209
-1.1545123 -1.4150681 -0.22423959
-1.163381 -1.407786 -0.22423959
-1.0888935 -1.236521 -0.20230311
-1.1031399 -1.2371585 -0.2035218
-1.1108373 -1.2302518 -0.2035218
-1.1252434 -1.2305725 -0.20474049
-1.1329528 -1.2234784 -0.20474049
-1.1474074 -1.2235755 -0.20595919
-1.1687418 -1.2307369 -0.20839657
-1.217731 -1.2662941 -0.21570873
-1.2395123 -1.2728399 -0.21814612
-1.2474856 -1.2650265 -0.21814612
-1.2413821 -1.2431171 -0.21570873
-1.2279962 -1.2143553 -0.21205266
-1.2213994 -1.1927469 -0.20961526
-1.2217252 -1.1781589 -0.20839657
-1.2219156 -1.1636149 -0.20717788
-1.8450645 -1.2226114 -0.27176863
-1.7447041 -1.1403989 -0.25592563
-1.7434932 -1.1240355 -0.25470692
-1.7588967 -1.1183848 -0.25592563
-2.2115622 -1.3105204 -0.31564158
-2.2797456 -1.3316427 -0.32417244
-2.322475 -1.3371007 -0.32904723
-2.3480952 -1.3322786 -0.33148462
-2.3737469 -1.3271858 -0.333922
-2.3994257 -1.3218241 -0.33635938
-2.4251308 -1.3161904 -0.33879676
-2.4596117 -1.3149663 -0.34245285
-2.4941726 -1.3133591 -0.34610894
-2.5288086 -1.3113703 -0.349765
-2.554621 -1.3045939 -0.35220239
-2.5981238 -1.3065789 -0.35707718
-2.6239591 -1.2992642 -0.35951456
-2.6676459 -1.3003788 -0.36438933
-2.6465719 -1.3103347 0.46773905
-2.6812749 -1.3068943 0.47243208
-5.5389032 -2.4449697 0.95894325
-5.5541563 -2.4101195 0.95894325
-5.5601044 -2.3712997 0.95737892
-5.5566754 -2.3286829 0.95425022
-5.5529308 -2.2862031 0.95112151
-5.5397162 -2.2401597 0.94642848
-4.1138625 -1.3698956 0.68674731
-4.178731 -1.3623898 0.69613338
-4.2530746 -1.3571247 0.70708376
-4.261518 -1.3303752 0.70708376
-4.2886858 -1.3093412 0.71021247
-4.3252206 -1.2908438 0.7149055
-4.3237638 -1.2608773 0.71334118
-4.7971725 -1.1727507 0.78217232
-4.9101443 -1.1677217 0.79938012
-5.0232377 -1.1613212 0.81658787
-5.1460772 -1.1557088 0.83536005
-5.2690401 -1.1485976 0.85413218
-5.4018316 -1.1417614 0.87446862
-5.5347857 -1.1330791 0.89480513
-5.6871104 -1.127144 0.91827029
-5.8297873 -1.1179261 0.94017112
-6.2348294 -1.1552762 1.0043093
-6.3878055 -1.1421573 1.0277745
-8.1079378 -1.3972054 1.303099
-8.3504066 -1.3850236 1.3406433
-8.6125412 -1.3729539 1.3813163
-8.8846064 -1.3591413 1.4235536
-9.1959181 -1.3476865 1.4720483
-9.4976435 -1.3310057 1.5189786
-9.6624546 -1.2922502 1.5440081
-9.6801805 -1.2327642 1.5455725
-9.6779299 -1.170729 1.5440081
-9.6654692 -1.1076516 1.5408795
-9.6722383 -1.0468975 1.5408795
-9.6687994 -0.98510611 1.5393151
-9.6551342 -0.92245483 1.5361865
-10.034576 -0.89512217 1.5956315
-10.148318 -0.84052885 1.6128393
-10.114435 0.4354735 1.6034533
-10.101591 0.49940833 1.6018889
-10.098232 0.56325293 1.6018889
-10.094494 0.62668782 1.6018889
-10.110065 0.69145131 1.6050175
-10.105521 0.75495803 1.6050175
-10.080929 0.816351 1.6018889
-10.065838 0.87793928 1.6003245
-10.079827 0.94261795 1.6034533
-10.624074 1.0608879 1.6910565
-10.283262 1.0921561 1.6378688
-9.9817505 1.1235986 1.5909384
-9.9842424 1.1879517 1.5925028
-9.9960728 1.2539884 1.5956315
-9.9977379 1.3184475 1.5971959
-9.9990406 1.382589 1.5987602
-9.980381 1.4439756 1.5971959
-9.9808779 1.5081284 1.5987602
-9.7371225 1.5334424 1.5612159
-9.2011003 1.5075102 1.4767413
-8.7045956 1.4824799 1.398524
-8.2864866 1.4656498 1.3328216
-7.8787465 1.4449563 1.2686834
-7.5104842 1.4262491 1.2108028
-7.0458641 1.3839418 1.1372786
-6.8337593 1.3869286 1.1044273
-6.5831671 1.3795314 1.0653187
-6.3135929 1.3650831 1.0230814
-6.0638933 1.3509618 0.98397279
-5.824357 1.3355285 0.94642848
-5.6139641 1.3245323 0.91357726
-5.4230447 1.3160124 0.88385469
-5.232533 1.3048593 0.85413218
-5.0424356 1.2911586 0.8244096
-4.9004869 1.2876756 0.80250877
-2.8258424 1.1787455 0.48494685
-2.772923 1.1771786 0.47712511
-2.7201359 1.1749955 0.4693034
-2.6674883 1.172195 0.46148166
-2.6240015 1.1728116 0.45522428
-2.5716226 1.1688405 0.44740257
-2.5193985 1.1642597 0.43958083
-2.4852149 1.1674672 0.4348878
-2.4332647 1.1617818 0.42706609
-2.3903728 1.1598006 0.4208087
-2.3476026 1.1573284 0.41455132
-2.313791 1.1587868 0.40985829
-2.2711945 1.1555007 0.4036009
-2.2374644 1.1563413 0.39890787
-2.1951282 1.1521015 0.39265051
-2.1616967 1.1519358 0.38795745
-2.1283545 1.1513972 0.38326442
-2.0951059 1.1504844 0.37857139
-2.0619533 1.149201 0.37387836
-2.0289013 1.1475459 0.36918533
-1.9959518 1.1455226 0.3644923
-1.9716446 1.1481 0.36136362
-1.9388802 1.145395 0.35667059
-1.9062291 1.1423233 0.35197753
-1.8821337 1.1440181 0.34884885
-1.8496858 1.1402715 0.34415582
-1.8257346 1.1413999 0.34102714
-1.8018435 1.1422716 0.33789843
-1.6706405 1.2292436 0.32851237
-1.662776 1.2398611 0.32851237
-1.6470249 1.2443931 0.32694802
-1.631331 1.2487131 0.32538369
-1.623515 1.2588584 0.32538369
2.1760356 1.1877686 0.39265051
2.1922126 1.1786427 0.39421484
2.1996765 1.1646535 0.39421484
2.1982367 1.1461591 0.39265051
2.1966085 1.1278133 0.39108616
2.212466 1.1184454 0.39265051
2.228292 1.1089225 0.39421484
2.2352157 1.0948999 0.39421484
2.2331538 1.0765452 0.39265051
2.2487977 1.0667257 0.39421484
2.2733562 1.0609289 0.39734355
2.2889535 1.0507448 0.39890787
2.432637 1.0435091 0.41924435
2.4573481 1.0358771 0.42237306
3.1839786 0.93573755 0.5256198
3.1613147 0.90753764 0.52092677
3.1764648 0.89032233 0.5224911
3.1629424 0.86513489 0.51936239
5.0161991 0.71458077 0.80250877
5.1771774 0.7043528 0.82753831
5.3578091 0.69466919 0.8556965
5.538516 0.68274337 0.88385469
5.7388983 0.67086613 0.91514158
5.9589763 0.65866709 0.94955719
6.1889744 0.64444739 0.98553711
6.4387064 0.62901652 1.0246457
6.6884232 0.61108541 1.0637543
9.1524048 0.77905637 1.4548405
9.1767836 0.72343743 1.4579692
9.1811485 0.66576403 1.4579692
9.1654396 0.60675943 1.4548405
9.1592121 0.54856908 1.4532762
9.1427526 0.48995245 1.4501475
9.1456499 0.43249866 1.4501475
9.1383181 0.37462205 1.4485831
9.1404915 0.31719717 1.4485831
9.132432 0.25947928 1.4470187
9.1338816 0.20209368 1.4470187
9.1250954 0.14454366 1.4454545
9.1159468 0.087112047 1.4438901
9.1261911 0.029865742 1.4454545
9.1163225 -0.027446382 1.4438901
9.1159697 -0.084725097 1.4438901
9.1152573 -0.14200047 1.4438901
9.1141853 -0.19927025 1.4438901
9.1028805 -0.256253 1.4423257
9.1010904 -0.31344274 1.4423257
9.0989418 -0.3706201 1.4423257
9.0964336 -0.42778286 1.4423257
9.0935659 -0.4849287 1.4423257
9.0903397 -0.54205543 1.4423257
9.0867538 -0.59916073 1.4423257
9.0828428 -0.65579611 1.4423257
9.0786047 -0.71206021 1.4423257
9.0739431 -0.76918751 1.4423257
9.0786953 -0.82787323 1.4438901
9.0733242 -0.88480067 1.4438901
9.0774918 -0.94202095 1.4454545
9.0714321 -0.99869096 1.4454545
9.0747881 -1.056811 1.4470187
9.0679693 -1.1138084 1.4470187
9.060792 -1.1707606 1.4470187
9.053257 -1.2276679 1.4470187
9.0551434 -1.2859154 1.4485831
9.0468855 -1.3427849 1.4485831
9.0480309 -1.4011128 1.4501475
9.0390482 -1.4579353 1.4501475
9.0394506 -1.5163342 1.4517118
9.0297441 -1.5731006 1.4517118
9.0391216 -1.6333172 1.4548405
9.0286808 -1.6900792 1.4548405
9.0275803 -1.7486527 1.4564048
9.0260992 -1.807279 1.4579692
9.0242386 -1.8659545 1.4595336
9.0219955 -1.924679 1.4610978
8.8843212 -1.9537503 1.4407614
8.5443525 -1.9353485 1.3875737
8.2145977 -1.9149971 1.3359503
7.8951468 -1.892496 1.2858913
7.6051493 -1.8728862 1.2405252
7.3347688 -1.8549596 1.198288
6.143023 -1.7606131 1.012131
6.0465436 -1.7741488 0.99805188
5.8744621 -1.7638202 0.97145802
5.731081 -1.7601001 0.94955719
5.5974069 -1.7576077 0.92922074
5.4545903 -1.7504892 0.9073199
5.3120899 -1.7416471 0.88541907
5.1792865 -1.7342211 0.86508256
5.0561371 -1.7283914 0.84631044
4.9425955 -1.7243377 0.82910264
4.820003 -1.7156147 0.81033051
4.7070041 -1.7087914 0.79312271
2.0885868 -1.5444858 0.41142264
2.0630326 -1.5457335 0.40829393
2.0533564 -1.5585644 0.40829393
2.0045097 -1.5411563 0.40047222
2.0104311 -1.5657821 0.4036009
1.9617831 -1.547794 0.39577919
1.9443038 -1.5539232 0.39421484
1.9037955 -1.5412501 0.38795745
1.7744002 -1.6307695 0.3817001
1.7714115 -1.6485476 0.38326442
1.7178916 -1.6190008 0.37387836
1.6861709 -1.609388 0.36918533
1.6829853 -1.6269619 0.37074968
1.6798055 -1.6443952 0.37231401
1.6555548 -1.6408658 0.36918533
1.6173897 -1.6231863 0.36292794
1.6002315 -1.6262765 0.36136362
1.5762157 -1.6221318 0.35823491
1.0190953 -1.6109593 0.30191851
1.0037255 -1.6089507 0.30035415
-1.012724 -1.4128647 0.27532464
-1.0273857 -1.414465 0.276889
-1.0362527 -1.4079819 0.276889
-1.0509832 -1.4093609 0.27845335
-1.0657717 -1.4106101 0.28001767
-1.0746138 -1.4038858 0.28001767
-1.0955186 -1.4127163 0.28314638
-1.1043732 -1.405805 0.28314638
-1.1193346 -1.4065667 0.28471074
-1.1343488 -1.4071956 0.28627506
-1.1494148 -1.407691 0.28783941
-1.1645316 -1.4080524 0.28940377
-1.1606442 -1.3336399 0.28001767
-1.0905713 -1.2374591 0.26124555
-1.0850651 -1.2159398 0.25811687
-1.0992593 -1.2164681 0.2596812
-1.1068809 -1.2095373 0.2596812
-1.1211723 -1.209803 0.26124555
-1.1355106 -1.2099366 0.2628099
-1.1771109 -1.2385751 0.27063161
-1.1848699 -1.2311547 0.27063161
-1.2339432 -1.2661257 0.28001767
-1.2349362 -1.2513177 0.27845335
-1.2148466 -1.2155892 0.27219597
-1.2084091 -1.1940478 0.26906729
-1.2088186 -1.1795338 0.26750293
-1.2019812 -1.1582087 0.26437426
-1.2163899 -1.1574421 0.26593858
-1.4832331 -1.2440293 0.30661154
-1.3997333 -1.1590924 0.28783941
-1.3993417 -1.1440233 0.28627506
-1.414188 -1.1414118 0.28783941
-1.4290564 -1.1386585 0.28940377
-1.4517088 -1.1418697 0.29253244
-1.4666561 -1.1387831 0.2940968
-1.4816215 -1.1355536 0.29566112
-1.4966041 -1.1321808 0.29722548
-1.5195165 -1.1345736 0.30035415
-1.5345663 -1.1308632 0.30191851
-1.5576169 -1.1328176 0.30504721
-1.5727279 -1.1287675 0.30661154
-1.5959095 -1.1302805 0.30974025
-2.2776387 -1.3292123 0.41768003
-2.3030686 -1.3247247 0.4208087
-2.3543084 -1.3345816 0.42863044
-2.3885157 -1.3342128 0.43332347
-2.4141574 -1.3287038 0.43645215
-2.4485061 -1.3276328 0.44114518
-2.4742236 -1.3215288 0.44427386
-2.5087016 -1.3197521 0.44896692
-2.5432537 -1.3175937 0.45365995
-2.5690143 -1.3106904 0.45678863
-2.6123884 -1.3124844 0.46304601
-2.6470289 -1.3094113 0.46773905
-2.6817307 -1.3059587 0.47243208
-2.6430888 -1.307336 -0.257981
-2.6869643 -1.3083799 -0.26146722
-2.7131276 -1.3000228 -0.26321033
-10.272752 -4.5297532 -0.98224521
-10.264449 -4.4492707 -0.97875899
-10.255543 -4.369072 -0.97527272
-10.246035 -4.2891612 -0.9717865
-10.245142 -4.2133322 -0.96917182
-10.234466 -4.1339536 -0.96568561
-4.1214762 -1.3706326 -0.37999904
-4.1678967 -1.3570466 -0.38348526
-4.2522745 -1.3550292 -0.39045772
-4.2892361 -1.3371795 -0.3930724
-4.2880235 -1.3072993 -0.39220083
-4.3247938 -1.2888666 -0.3948155
-4.3232422 -1.2588826 -0.39394394
-4.8947392 -1.1620282 -0.44013649
-5.0087185 -1.1558933 -0.44972363
-5.1228094 -1.1483711 -0.45931077
-5.2369995 -1.1394598 -0.46889788
-5.3708329 -1.132977 -0.48022813
-5.5145864 -1.1266549 -0.49242994
-5.6485763 -1.1172338 -0.50376016
-5.7923722 -1.1084261 -0.515962
-6.2204118 -1.1500793 -0.55343896
-6.3942356 -1.1407169 -0.56825542
-8.0899572 -1.3908372 -0.71816331
-8.3147593 -1.3757576 -0.73733759
-8.5691986 -1.3625954 -0.75912648
-8.8434858 -1.3492982 -0.78265858
-9.1475058 -1.3369238 -0.80880529
-9.4319754 -1.318028 -0.83320886
-9.6375618 -1.2850703 -0.85064006
-9.6454458 -1.2244933 -0.85064006
-9.6430588 -1.1626701 -0.84976846
-9.6501741 -1.102061 -0.84976846
-9.6470032 -1.0403351 -0.84889692
-9.6335278 -0.97769171 -0.84715378
-9.6295633 -0.91619736 -0.84628224
-9.9923534 -0.88740224 -0.87765831
-10.077204 -0.83060199 -0.8846308
-10.092224 -0.76714063 -0.88550234
-10.096868 -0.70338374 -0.88550234
-10.071261 -0.63804281 -0.88288766
-10.065095 -0.57473308 -0.88201612
-10.058514 -0.51185167 -0.88114452
-10.051564 -0.4485279 -0.88027298
-10.04423 -0.38498464 -0.87940145
-10.04645 -0.32186493 -0.87940145
-10.048274 -0.25873783 -0.87940145
-10.039752 -0.19485591 -0.87852985
-10.04079 -0.130891 -0.87852985
-10.031454 -0.067410059 -0.87765831
-10.03168 -0.0043822271 -0.87765831
-10.031509 0.058651123 -0.87765831
-10.030943 0.12167682 -0.87765831
-10.02999 0.18415813 -0.87765831
-10.018698 0.24605654 -0.87678677
-10.026921 0.30897942 -0.87765831
-10.014827 0.37160197 -0.87678677
-10.012271 0.43506595 -0.87678677
-10.009296 0.49883765 -0.87678677
-10.005946 0.56204551 -0.87678677
-10.002217 0.6249007 -0.87678677
-9.9980927 0.68773651 -0.87678677
-9.9935751 0.75053978 -0.87678677
-9.9986343 0.81358409 -0.87765831
-9.9834776 0.87465125 -0.87678677
-9.9877348 0.93796104 -0.87765831
-9.9717321 0.99970061 -0.87678677
-9.9751596 1.0633935 -0.87765831
-9.9682817 1.1260452 -0.87765831
-9.9708366 1.1903801 -0.87852985
-9.9630508 1.2538779 -0.87852985
-9.9549322 1.3167785 -0.87852985
-9.9563303 1.3806666 -0.87940145
-9.9573174 1.4446295 -0.88027298
-9.9480438 1.5071617 -0.88027298
-9.781023 1.5442375 -0.86632806
-9.1224709 1.4982549 -0.80880529
-8.641489 1.4752705 -0.76697052
-8.0924206 1.4346502 -0.71903485
-8.0831976 1.4857326 -0.71903485
-8.093276 1.5402138 -0.72077799
-7.0571256 1.3890311 -0.62926447
-6.82373 1.3876822 -0.60921866
-6.5905628 1.3838189 -0.58917284
-6.3187389 1.3688276 -0.56564075
-6.0766988 1.3562847 -0.54472339
-5.8448696 1.3426145 -0.52467757
-5.6326971 1.3313181 -0.50637484
-5.4305015 1.3201101 -0.4889437
-5.2480855 1.3109262 -0.47325566
-5.0757017 1.3018 -0.4584392
-4.91328 1.2930993 -0.44449428
-2.7339537 1.182238 -0.26059568
-2.6899974 1.1833464 -0.25710943
-2.6279492 1.1758142 -0.25188008
-2.58424 1.1757996 -0.24839386
-2.5406351 1.1752841 -0.24490763
-2.488126 1.1700274 -0.24054985
-2.4537609 1.1727508 -0.23793517
-2.4105003 1.1707357 -0.23444894
-2.3584292 1.1638168 -0.23009115
-2.3243539 1.1652182 -0.22747648
-2.281414 1.1618428 -0.22399026
-2.247422 1.1626207 -0.22137558
-2.2047582 1.1582599 -0.21788935
-2.1710682 1.1580242 -0.21527468
-2.1374686 1.1574125 -0.21266001
-2.1039641 1.1564239 -0.21004534
-2.0705569 1.1550616 -0.20743066
-2.0372512 1.1533245 -0.204816
-2.0126879 1.1561784 -0.20307288
-1.9795637 1.1537521 -0.2004582
-1.9465498 1.1509569 -0.19784354
-1.9136508 1.147792 -0.19522886
-1.8893795 1.1494383 -0.19348575
-1.8651644 1.1508243 -0.19174263
-1.8325615 1.1466686 -0.18912795
-1.8084977 1.1474855 -0.18738484
-1.7761182 1.1426567 -0.18477017
-4.6910043 6.6388469 -0.71119082
-4.6321082 6.6436734 -0.7085762
-4.5563984 6.6234007 -0.70334685
-4.4979076 6.6271715 -0.70073217
-3.2847614 6.9978943 -0.67632854
-3.240726 7.0183954 -0.67632854
-3.180089 7.0023365 -0.67284232
-3.1279032 7.0039878 -0.67109919
-3.0758262 7.005259 -0.66935611
-3.0195255 6.9971724 -0.66674143
-3.0059969 7.0896397 -0.67371386
-2.9994667 7.2004437 -0.68242943
-1.0520291 5.5597272 -0.49504462
-1.0152837 5.556428 -0.49417305
1.2385622 5.4803224 -0.49155837
1.2752284 5.4821353 -0.49242994
1.3119663 5.4837031 -0.49330148
1.3807712 5.4667835 -0.49330148
1.4200928 5.4772863 -0.49504462
1.0159062 2.5012493 -0.23619206
1.0316019 2.4948168 -0.23619206
1.0512575 2.4974103 -0.23706362
1.071069 2.4998195 -0.23793517
1.0868362 2.493005 -0.23793517
1.106517 2.4952338 -0.23880672
1.1262686 2.4973133 -0.23967829
1.1460898 2.4992425 -0.24054985
1.1617703 2.4919922 -0.24054985
1.1816709 2.4936459 -0.2414214
1.1973155 2.486172 -0.2414214
1.2216703 2.4964962 -0.24316452
1.237332 2.488771 -0.24316452
1.2619267 2.4987319 -0.24490763
1.2776016 2.4907537 -0.24490763
1.2978283 2.4915125 -0.24577919
1.318115 2.4921148 -0.24665074
1.3337473 2.4837837 -0.24665074
1.3588629 2.4928482 -0.24839386
1.3744988 2.484261 -0.24839386
1.3950937 2.4841862 -0.24926542
1.4207571 2.4925578 -0.25100854
1.4314836 2.4749115 -0.25013697
1.4520475 2.4744601 -0.25100854
1.4777576 2.4824078 -0.25275165
3.6715331 5.4422479 -0.57435632
3.6494236 5.3368397 -0.56564075
3.6658595 5.2892413 -0.56302607
3.7164872 5.2903566 -0.56564075
3.7096653 5.2097697 -0.55953985
3.7075193 5.1377664 -0.5543105
3.6985669 5.0580797 -0.54820961
3.6887608 4.9787107 -0.54210871
3.6840861 4.9076338 -0.53687936
3.6786649 4.8368144 -0.53165001
3.6785812 4.7741494 -0.52729225
3.6839862 4.7195311 -0.52380598
2.1739671 1.2752039 -0.22050403
2.1991849 1.2714919 -0.22224714
2.1810966 1.2429723 -0.21963246
2.188756 1.2294344 -0.21963246
2.1789658 1.2060812 -0.21788935
2.1777549 1.1875972 -0.2170178
2.1676857 1.1643435 -0.21527468
2.1750591 1.1505109 -0.21527468
2.1646118 1.127546 -0.21353157
2.1539259 1.1048299 -0.21178845
2.1697176 1.0957655 -0.21266001
2.1676393 1.0776763 -0.21178845
2.2012115 1.0771718 -0.21440312
2.1989608 1.0589976 -0.21353157
2.2145734 1.0494263 -0.21440312
2.2030656 1.0270724 -0.21266001
3.1676209 0.95123613 -0.28935707
3.1639764 0.92850953 -0.2884855
3.1697478 0.90861148 -0.2884855
3.1753943 0.88867748 -0.2884855
5.0255299 0.74597114 -0.44449428
5.1879015 0.73696208 -0.4584392
5.3503742 0.72577631 -0.47238412
5.5425439 0.71640813 -0.4889437
5.7249122 0.70343864 -0.50463176
5.9568048 0.69396794 -0.52467757
6.1887951 0.68160999 -0.54472339
6.4506192 0.66909599 -0.56738389
6.6927137 0.65114123 -0.58830124
9.3157978 0.84749603 -0.8183924
9.3010168 0.78807878 -0.81664932
9.2362413 0.72447526 -0.81054837
9.2406111 0.66642827 -0.81054837
9.2346754 0.60770077 -0.80967683
9.2383108 0.54966587 -0.80967683
9.2316341 0.49108014 -0.80880529
9.2345381 0.43306789 -0.80880529
9.2271223 0.37463316 -0.80793375
9.2193384 0.31630874 -0.80706215
9.2211437 0.25837597 -0.80706215
9.2126255 0.20021656 -0.80619061
9.2137012 0.14232825 -0.80619061
9.2044525 0.084343053 -0.80531907
9.2048006 0.026508391 -0.80531907
9.2147474 -0.031361222 -0.80619061
9.2143688 -0.089258283 -0.80619061
9.1937046 -0.14683366 -0.80444747
9.1926003 -0.20459624 -0.80444747
9.1911335 -0.26234949 -0.80444747
9.1992598 -0.32044044 -0.80531907
9.1871109 -0.37782514 -0.80444747
9.184556 -0.43554172 -0.80444747
9.17169 -0.49270672 -0.80357593
9.1684141 -0.55032414 -0.80357593
9.174715 -0.60857916 -0.80444747
9.1707468 -0.66571385 -0.80444747
9.1565142 -0.72173846 -0.80357593
9.1617079 -0.78030121 -0.80444747
9.1565514 -0.83864892 -0.80444747
9.1511211 -0.89596575 -0.80444747
9.1354856 -0.95161498 -0.80357593
