# .PCD v0.7 - Point Cloud Data file format
VERSION 0.7
FIELDS x y z
SIZE 4 4 4
TYPE F F F
COUNT 1 1 1
WIDTH 1471
HEIGHT 1
VIEWPOINT 0 0 0 1 0 0 0
POINTS 1471
DATA ascii
-4.4950824 9.057271 -0.8846308
-4.4861851 9.1837959 -0.89421791
-4.4197588 9.1938467 -0.89247477
-4.2036772 9.3383484 -0.89596105
-4.1126661 9.2916994 -0.88898855
-4.0740747 9.3630304 -0.89334637
-4.1013465 9.5899515 -0.91252059
-5.511518 13.114594 -1.244584
-5.4936428 13.305499 -1.2594005
-5.2983303 13.062514 -1.2332537
-5.1877952 13.021057 -1.2262813
-5.1099362 13.062506 -1.2271528
-5.0277648 13.094353 -1.2271528
-4.9418759 13.116364 -1.2262813
-4.8766384 13.193874 -1.2306391
-4.8174038 13.289815 -1.23674
-4.7404823 13.338593 -1.2384831
-4.6664081 13.396339 -1.2410978
-4.6722465 13.689376 -1.2655014
-4.5450778 13.59564 -1.2541711
-4.496757 13.737539 -1.2646298
-4.3525987 13.585272 -1.2480702
-4.2999363 13.716914 -1.2576573
-4.2749839 13.943674 -1.2759601
-4.1329494 13.78895 -1.2594005
-4.0574269 13.852888 -1.2628866
-4.003191 13.993039 -1.2733454
-3.8830302 13.902781 -1.2628866
-3.8322766 14.061461 -1.2750885
-3.7592084 14.143028 -1.2803178
-3.6402934 14.050645 -1.2698592
-3.5543733 14.0829 -1.2707307
-0.28170961 3.9348595 -0.34513673
-0.25179023 3.8570256 -0.33816427
-0.22541355 3.8187406 -0.33467805
-0.19964649 3.7802715 -0.33119181
-0.17555119 3.7714944 -0.33032027
-0.15305385 3.8023846 -0.33293495
-0.12915884 3.8032713 -0.33293495
-0.10443411 3.7741332 -0.33032027
-0.080717579 3.7747149 -0.33032027
0.01451448 3.9249802 -0.34339362
0.03932647 3.9746222 -0.34775141
0.83090556 3.1085763 -0.28151304
0.83988923 3.0648632 -0.27802682
0.84566367 3.0115707 -0.27366903
0.85889941 2.987097 -0.27192593
0.86614203 2.9434907 -0.26843968
0.89601052 2.9761755 -0.27192593
0.91176081 2.9609663 -0.27105436
0.93034697 2.9551792 -0.27105436
0.94889635 2.9492753 -0.27105436
0.96118712 2.9243274 -0.26931125
0.97954214 2.9182303 -0.26931125
1.0075464 2.9402902 -0.27192593
1.0194238 2.9150946 -0.27018279
1.0243298 2.8711011 -0.26669657
1.0389427 2.855247 -0.265825
1.560868 3.9034364 -0.36779723
1.5477953 3.8012879 -0.35908166
1.5792782 3.8098931 -0.36082476
1.6031851 3.799895 -0.36082476
1.6230987 3.7805932 -0.35995322
1.6428331 3.7611914 -0.35908166
1.6623881 3.7416909 -0.35821009
1.6858649 3.7311721 -0.35821009
1.7381804 3.783967 -0.36431101
1.7700207 3.791178 -0.36605412
1.802224 3.7980409 -0.36779723
1.826052 3.7866423 -0.36779723
1.8454245 3.7661483 -0.36692566
1.8734909 3.763397 -0.36779723
3.345365 6.0389261 -0.6039893
3.3881242 6.0264711 -0.60486084
3.4407322 6.0310225 -0.60747552
3.4935303 6.0351501 -0.6100902
3.7331743 6.3566852 -0.64495248
4.3640623 7.2215586 -0.73820913
4.2219396 6.8882303 -0.70683306
4.2861724 6.8954096 -0.71031928
4.3453488 6.8936253 -0.71293396
4.3456569 6.7990355 -0.70596153
4.4207964 6.8217568 -0.71119082
4.6003227 7.0019903 -0.73297977
4.5834818 6.8817439 -0.72339267
4.6374035 6.8695755 -0.72513574
4.7136269 6.8900428 -0.7303651
4.6037068 6.639154 -0.70683306
4.5714359 6.5037413 -0.69550282
4.6062889 6.4668765 -0.69463128
4.5588226 6.3170414 -0.68155789
4.6573663 6.3685842 -0.69027346
4.6859789 6.3227787 -0.68853039
4.7617111 6.3408518 -0.69375968
4.5782747 6.0174665 -0.66151208
4.7862797 6.2095046 -0.68591571
4.9907413 6.3913054 -0.70944774
4.9501143 6.2585225 -0.69811749
5.1445017 6.4221053 -0.71990645
5.0464549 6.2196355 -0.70073217
9.268074 10.581244 -1.2306391
9.3079309 10.492993 -1.2271528
9.3803329 10.441714 -1.2280244
9.6066484 10.559421 -1.2489418
9.5648041 10.381628 -1.2349968
9.7521715 10.452436 -1.2506849
9.6192484 10.180964 -1.2254097
9.8642673 10.180912 -1.2402261
9.8373423 10.026291 -1.2288959
9.8229094 9.886548 -1.2193089
9.9413595 9.8808155 -1.2262813
9.9813824 9.7977676 -1.2236665
7.6100979 7.3780794 -0.92733711
7.6416745 7.3165898 -0.92559397
10.129268 9.3388395 -1.2053639
10.195111 9.2817183 -1.2062354
10.562736 8.7989779 -1.2027493
10.610119 8.7261086 -1.2018777
10.641536 8.6404333 -1.199263
10.71116 8.5858622 -1.2010062
10.764894 8.5183935 -1.2010062
10.956669 8.4509153 -1.2105932
10.88246 8.2857113 -1.1966484
10.982088 8.2530804 -1.2018777
11.00172 8.1601772 -1.1983914
10.988468 8.0438166 -1.191419
11.095319 8.0154514 -1.1975199
11.202244 7.9860592 -1.2036208
11.129982 7.8295403 -1.1905475
11.350815 7.8787427 -1.2088501
11.227489 7.6890616 -1.1905475
11.308598 7.6406746 -1.1940336
11.347679 7.5645642 -1.1931621
11.386007 7.4886365 -1.1922905
11.524522 7.4769645 -1.2018777
11.529318 7.3775597 -1.1975199
11.558595 7.2943401 -1.1957768
11.621114 7.2320986 -1.1975199
11.708778 7.1849909 -1.2018777
11.770739 7.1215949 -1.2036208
6.3943515 3.5466356 -0.63972312
6.5736661 3.5927355 -0.65541118
6.6221132 3.5661066 -0.65802586
6.6882753 3.5479882 -0.66238362
6.6574588 3.4782164 -0.65715426
6.6880398 3.4408753 -0.65802586
6.6295462 3.3582702 -0.65018183
6.5435371 3.2632 -0.63972312
6.9233623 3.1851232 -0.66674143
6.8523083 3.100867 -0.65802586
7.0261087 3.1272154 -0.67284232
6.8538651 2.999368 -0.65453964
7.0006928 3.0113544 -0.66674143
7.0286512 2.9711876 -0.66761297
7.0287809 2.9193246 -0.66586989
7.0931039 2.8939202 -0.67022765
7.1111469 2.8492959 -0.67022765
2.7996495 1.1014004 -0.26321033
2.7972214 1.0801997 -0.26233879
2.8132687 1.0661333 -0.26321033
6.7411175 2.2692921 -0.62229198
6.6984758 2.2081785 -0.61706263
6.7596207 2.1813443 -0.62142044
6.7161956 2.120831 -0.61619109
6.7864981 2.0962303 -0.62142044
3.9888055 0.78062999 -0.35559541
3.9936068 0.75568312 -0.35559541
4.0178752 0.73415703 -0.35733855
4.0420303 0.71235561 -0.35908166
4.0464263 0.68694484 -0.35908166
4.0604944 0.66311258 -0.35995322
4.0744224 0.63913059 -0.36082476
4.0882087 0.61499965 -0.36169633
4.1018524 0.59072065 -0.36256787
4.1251903 0.56787711 -0.36431101
4.1385064 0.54360473 -0.36518255
4.1615934 0.52019805 -0.36692566
4.1944575 0.49756035 -0.36954033
4.2272 0.47453004 -0.37215501
4.2796311 0.45320651 -0.3765128
4.3022199 0.42828164 -0.3782559
4.3147449 0.40216619 -0.37912747
4.3171663 0.37528315 -0.37912747
4.3194084 0.34852764 -0.37912747
4.3115683 0.32078367 -0.3782559
4.3134985 0.29368711 -0.3782559
4.3351445 0.26780739 -0.37999904
4.3466883 0.24111548 -0.38087058
4.3680177 0.21477829 -0.38261372
4.3692808 0.18732913 -0.38261372
4.4002376 0.16096509 -0.38522837
4.4011621 0.13331454 -0.38522837
4.4118719 0.10589777 -0.38609993
4.4423313 0.07870461 -0.38871461
4.4526963 0.051147584 -0.38958615
4.4728518 0.023663973 -0.39132929
4.492836 -0.0043127178 -0.3930724
4.5126438 -0.032686125 -0.3948155
4.5322714 -0.061308604 -0.39655861
4.5517163 -0.090178408 -0.39830175
4.5709839 -0.11904663 -0.40004486
4.5801153 -0.14768693 -0.4009164
4.6089664 -0.17746145 -0.40353107
4.6276641 -0.20730783 -0.40527418
4.6461682 -0.23739675 -0.40701732
4.6545305 -0.2671555 -0.40788886
4.9486632 -0.47083622 -0.43490714
4.9654293 -0.50393182 -0.43665028
4.9819741 -0.53725666 -0.43839338
5.008224 -0.57166678 -0.44100806
5.0342574 -0.60625899 -0.44362271
5.0600185 -0.64147192 -0.44623739
5.0756378 -0.67588198 -0.44798052
5.1502604 -0.71849489 -0.45495296
5.1851406 -0.75614125 -0.4584392
5.1507678 -0.78403831 -0.45582452
5.214612 -0.82731271 -0.46192542
5.3862309 -0.88927019 -0.47761345
5.7045479 -0.97868299 -0.50637484
5.8356504 -1.0386343 -0.51857668
5.8584938 -1.0801899 -0.52119136
5.8516278 -1.1167868 -0.52119136
5.8444953 -1.1535314 -0.52119136
5.8078489 -1.1842594 -0.51857668
5.7515516 -1.2104686 -0.51421887
5.7438326 -1.2465827 -0.51421887
5.7261648 -1.2804735 -0.51334733
5.5353203 -1.3102152 -0.4976593
5.4786253 -1.3330119 -0.49330148
5.5087996 -1.3770723 -0.49678773
7.7455745 -2.0387871 -0.70073217
7.800004 -2.1053319 -0.70683306
7.8442297 -2.1702371 -0.71206242
7.8784823 -2.2326348 -0.71642017
7.9027681 -2.2925072 -0.71990645
7.9551344 -2.3617041 -0.72600734
7.9973307 -2.4290116 -0.7312367
8.0009384 -2.4851222 -0.73297977
5.9482379 -1.970287 -0.54820961
5.8697486 -1.9850872 -0.54210871
5.9607434 -2.0576861 -0.55169582
7.2167425 -2.798737 -0.67720014
7.8106155 -3.0853474 -0.73472291
6.7836885 -2.7290883 -0.63972312
6.4162459 -2.6278162 -0.60660398
6.3998413 -2.6675196 -0.60660398
6.4013853 -2.7152491 -0.60834706
6.6672621 -3.0265088 -0.64059472
6.7928352 -3.1351345 -0.65453964
6.7639837 -3.1735215 -0.65366805
7.4452777 -3.5504167 -0.72164953
7.3961239 -3.5836906 -0.71903485
6.9894481 -3.4402757 -0.68155789
7.2618461 -3.630914 -0.71031928
7.0612478 -3.5862494 -0.69288814
7.0918961 -3.6575596 -0.69811749
7.113225 -3.7245345 -0.70247525
7.0898066 -3.7689223 -0.70247525
7.0396852 -3.7992003 -0.69986057
7.0855703 -3.8816469 -0.70683306
7.1394005 -3.9696593 -0.7146771
7.2010775 -4.0633955 -0.72339267
7.469337 -4.2768631 -0.75302559
7.5545354 -4.3883543 -0.76435584
7.61303 -4.4856477 -0.77307141
7.6874576 -4.5944719 -0.78353012
7.7521453 -4.6994901 -0.79311723
7.8242993 -4.8107176 -0.80357593
7.903811 -4.9283056 -0.81490618
7.9908447 -5.0519691 -0.82710797
8.2445526 -5.2841501 -0.85674095
8.0108833 -5.2053099 -0.83582354
9.1426935 -6.0227733 -0.95784158
9.1378088 -6.1022286 -0.96132785
2.9615993 -2.0047765 -0.3128891
2.8750157 -1.9726207 -0.3050451
2.8543861 -1.9849579 -0.30417353
8.5493793 -6.7749405 -0.95435536
8.5225534 -6.8405309 -0.9560985
8.4722767 -6.88692 -0.9552269
5.9134202 -4.9945736 -0.67720014
5.9046316 -5.0510569 -0.67981476
5.2026796 -4.5074964 -0.60224617
5.8406935 -5.124856 -0.67981476
5.7987885 -5.2170148 -0.68242943
5.0812073 -4.6292205 -0.60137463
6.8191009 -6.5335746 -0.82623643
6.8065133 -6.6040392 -0.82972264
6.7865667 -6.6672502 -0.83233732
6.0882721 -6.0558167 -0.75128251
6.5768175 -6.7078228 -0.82187861
6.6111388 -6.8273792 -0.83146578
5.763114 -6.0258822 -0.72949356
5.7321763 -6.0690298 -0.7303651
5.7075195 -6.1194963 -0.73210824
3.9811494 -4.4316144 -0.52119136
4.0061126 -4.5161605 -0.52816379
4.0104766 -4.5787115 -0.53252161
8.6297865 -10.105968 -1.1626576
8.546855 -10.137143 -1.1600429
8.4771757 -10.182525 -1.1591713
8.3183975 -10.248569 -1.1548135
8.2413816 -10.285085 -1.1530704
8.1647987 -10.320591 -1.1513274
8.1068296 -10.378832 -1.1521989
8.0296307 -10.413524 -1.1504558
7.9580092 -10.455843 -1.1495842
7.8682227 -10.473779 -1.146098
7.802259 -10.523009 -1.146098
7.7306809 -10.563362 -1.1452265
7.6592507 -10.602983 -1.1443549
7.5928283 -10.650648 -1.1443549
7.4970999 -10.657406 -1.1399971
7.4129486 -10.679749 -1.1373824
7.3288131 -10.701458 -1.1347678
7.2335439 -10.706022 -1.13041
7.1550832 -10.734682 -1.1286669
7.0716624 -10.754068 -1.1260521
6.9940534 -10.780962 -1.1243091
6.9211593 -10.816078 -1.1234375
6.8317971 -10.825653 -1.1199512
6.742589 -10.834533 -1.1164651
6.6691704 -10.868193 -1.1155934
6.5961905 -10.900998 -1.1147219
6.5132103 -10.915994 -1.1121073
6.4297013 -10.930731 -1.1094925
6.3509011 -10.953677 -1.1077495
6.2720671 -10.976066 -1.1060064
6.1883149 -10.989217 -1.1033916
6.099812 -10.993039 -1.0999055
6.0162849 -11.004925 -1.0972908
5.9328494 -11.016196 -1.0946761
5.8541789 -11.035655 -1.0929329
5.7853293 -11.071904 -1.0929329
5.6938252 -11.063248 -1.0885752
5.6155581 -11.080849 -1.086832
5.5280352 -11.080256 -1.0833459
5.4633055 -11.123415 -1.0842174
5.389946 -11.148083 -1.0833459
5.3158774 -11.17256 -1.0824744
5.2455735 -11.20574 -1.0824744
5.1798434 -11.247243 -1.0833459
5.1100583 -11.27912 -1.0833459
5.0354052 -11.301741 -1.0824744
4.9563012 -11.314906 -1.0807312
4.8811707 -11.336674 -1.0798596
4.809844 -11.36712 -1.0798596
4.7268548 -11.36952 -1.077245
4.6816902 -11.463552 -1.0833459
4.5434375 -11.326067 -1.0676578
4.3709321 -11.09448 -1.0432543
4.2152534 -10.898595 -1.0223368
4.0689197 -10.719965 -1.0031626
3.831696 -10.287663 -0.96045625
3.6721466 -10.049216 -0.93605268
3.5958209 -10.03446 -0.9325664
3.4798763 -9.9064722 -0.91862154
3.3332596 -9.6832352 -0.89596105
3.2150545 -9.5340729 -0.88027298
3.13322 -9.4878693 -0.87417209
3.0091929 -9.3083105 -0.85586935
2.8875487 -9.1275759 -0.83756667
2.8419218 -9.1836052 -0.84105289
2.8077512 -9.2774076 -0.84802538
2.7162979 -9.1799946 -0.83756667
2.7363358 -9.4647541 -0.86197031
2.5983224 -9.2037306 -0.83669513
2.540946 -9.2197361 -0.83669513
2.5174079 -9.360364 -0.84802538
2.5599334 -9.7613602 -0.88288766
2.4664865 -9.6517782 -0.87155741
2.3745189 -9.5414133 -0.86022717
2.2605867 -9.3334579 -0.84018135
2.245297 -9.5317125 -0.85674095
2.1409001 -9.3514175 -0.83930981
2.2031791 -9.909256 -0.88811702
2.0442302 -9.4749603 -0.84802538
1.9627323 -9.3802509 -0.83843821
1.8709197 -9.2262564 -0.82362175
0.14301118 -0.75362062 -0.06710992
0.14545627 -0.79369932 -0.070596151
0.14566892 -0.82402712 -0.073210821
0.1405336 -0.82491845 -0.073210821
0.13541988 -0.82577336 -0.073210821
0.1302558 -0.82660365 -0.073210821
0.12654836 -0.83725584 -0.074082382
0.12128526 -0.83803439 -0.074082382
0.11601736 -0.83877993 -0.074082382
0.11079072 -0.8394863 -0.074082382
0.1031029 -0.8203882 -0.072339267
0.097972915 -0.82101667 -0.072339267
0.092812404 -0.82161599 -0.072339267
0.91129673 -12.139342 -1.0650432
0.83130139 -12.08517 -1.0598139
0.75410962 -12.07027 -1.0580707
0.67546189 -12.025038 -1.053713
0.59890103 -12.009146 -1.0519698
0.52213287 -11.982814 -1.0493551
0.44571933 -11.955993 -1.0467404
0.37031472 -11.928666 -1.0441258
0.29417321 -11.841102 -1.0362817
0.21885976 -11.772987 -1.0301808
0.14365819 -11.674518 -1.0214653
0.069762684 -11.585534 -1.0136213
-0.0030011076 -11.466201 -1.0031626
-0.074392959 -11.366338 -0.99444699
-0.14440227 -11.256074 -0.98485988
-0.2126103 -11.155354 -0.97614431
-0.27920723 -11.054235 -0.96742874
-0.34516028 -10.952704 -0.95871317
-0.045586765 -1.0350391 -0.090641968
-0.054498732 -1.0844837 -0.09499976
-0.061838288 -1.0940679 -0.095871314
-0.068711266 -1.0936579 -0.095871314
-0.074894428 -1.0832663 -0.09499976
-0.080949739 -1.0728407 -0.094128199
-0.083629295 -1.0226668 -0.089770414
-0.091801822 -1.0419682 -0.091513529
-0.10016219 -1.0612119 -0.093256645
-0.10673533 -1.060571 -0.093256645
-0.11230306 -1.0499777 -0.092385083
-0.11777633 -1.0393527 -0.091513529
-0.12430442 -1.0385922 -0.091513529
-0.13082761 -1.0377907 -0.091513529
-0.137289 -1.0369556 -0.091513529
-0.14234246 -1.0262177 -0.090641968
-0.15018429 -1.0351666 -0.091513529
-0.15519319 -1.024353 -0.090641968
-0.16162629 -1.0233577 -0.090641968
-0.16805302 -1.0223219 -0.090641968
-0.17106317 -1.0016159 -0.088898852
-0.1772657 -1.0005368 -0.088898852
-0.183516 -0.99940926 -0.088898852
-0.19165252 -1.0080231 -0.089770414
-0.20182662 -1.0263485 -0.091513529
-0.20430426 -1.0055352 -0.089770414
-0.21056335 -1.0042431 -0.089770414
-0.21678139 -1.0029193 -0.089770414
-0.22737707 -1.0209922 -0.091513529
-0.22933453 -1.0001235 -0.089770414
-0.23790145 -1.0083585 -0.090641968
-0.24423243 -1.0068438 -0.090641968
-0.24814458 -0.99562317 -0.089770414
-0.2568652 -1.0036954 -0.090641968
-0.26564172 -1.0117112 -0.091513529
-0.27190498 -1.010046 -0.091513529
-0.28086251 -1.0179299 -0.092385083
-0.28725278 -1.0161451 -0.092385083
-0.29357633 -1.0143362 -0.092385083
-0.29985532 -1.0124978 -0.092385083
-0.30906671 -1.0201377 -0.093256645
-0.30957365 -0.99914432 -0.091513529
-0.32787752 -1.0351673 -0.09499976
-0.34357816 -1.0615203 -0.09761443
-0.35018325 -1.0593598 -0.09761443
-0.35674012 -1.0571698 -0.09761443
-0.36982909 -1.0737572 -0.099357545
-0.36996192 -1.0526156 -0.09761443
-0.37320614 -1.0408928 -0.096742876
-3.3135338 -8.1054106 -0.76609898
-3.3639545 -8.0846148 -0.76609898
-3.4100966 -8.0544443 -0.76522744
-3.4643171 -8.04212 -0.76609898
-3.5267744 -8.0475674 -0.76871365
-3.5813246 -8.0343485 -0.76958519
-3.635848 -8.0207605 -0.77045673
-3.6820021 -7.9887109 -0.76958519
-3.7236702 -7.9473767 -0.76784205
-3.7778146 -7.9328175 -0.76871365
-3.8232436 -7.8999577 -0.76784205
-3.8723748 -7.8759909 -0.76784205
-3.898845 -7.8072853 -0.7634843
-3.9430609 -7.7738791 -0.76261276
-3.9872656 -7.7400947 -0.76174116
-4.021966 -7.6884079 -0.75912648
-4.0748672 -7.6717834 -0.75999808
-4.0989337 -7.6024108 -0.75564027
-4.136394 -7.5593905 -0.75389719
-4.1787262 -7.5246797 -0.75302559
-4.2112489 -7.4722395 -0.75041091
-4.2527637 -7.4372168 -0.74953938
-4.2887645 -7.3934903 -0.74779624
-4.3298426 -7.3579526 -0.7469247
-4.3606696 -7.3049412 -0.74431002
-4.396162 -7.260355 -0.74256694
-4.43648 -7.2241011 -0.74169534
-4.4712496 -7.1791711 -0.73995227
-4.5109496 -7.1425133 -0.73908067
-4.5499778 -7.1058884 -0.73820913
-4.5884933 -7.0692053 -0.73733759
-4.6216373 -7.0237432 -0.73559445
-4.6546211 -6.9779916 -0.73385131
-4.681633 -6.9238505 -0.7312367
-4.7137809 -6.8778639 -0.72949356
-4.7512193 -6.8399286 -0.72862202
-4.7826324 -6.7936497 -0.72687888
-4.7037253 -6.5931621 -0.7085762
-4.7392216 -6.5554047 -0.7077046
-4.7740741 -6.5177221 -0.70683306
-4.8024921 -6.4720178 -0.70508993
-4.8248925 -6.4179859 -0.70247525
-4.859086 -6.3796186 -0.70160371
-4.8865571 -6.3334551 -0.69986057
-4.91957 -6.295208 -0.69898903
-4.9402738 -6.2409019 -0.69637436
-4.9731569 -6.2019663 -0.69550282
-4.999465 -6.1551318 -0.69375968
-5.0570278 -6.1466765 -0.69637436
-5.2167192 -6.2601891 -0.71293396
-5.1788454 -6.1359339 -0.70247525
-5.1522365 -6.0278316 -0.69375968
-5.2025237 -6.0108585 -0.69550282
-5.3647542 -6.1205621 -0.71206242
-5.4295583 -6.1165342 -0.71554863
-5.7272754 -6.3715391 -0.74953938
-5.8336964 -6.409605 -0.75825495
-5.8668952 -6.3656902 -0.75738341
-5.906776 -6.328702 -0.75738341
-5.9464235 -6.2914639 -0.75738341
-5.9720602 -6.239584 -0.75564027
-5.996942 -6.1879582 -0.75389719
-6.0281892 -6.1435728 -0.75302559
-6.2068987 -6.2471113 -0.77045673
-6.5145226 -6.4748487 -0.80357593
-6.8181324 -6.691978 -0.83582354
-7.2105579 -6.9887366 -0.87852985
-7.5134101 -7.1912684 -0.90990591
-7.8697605 -7.4381604 -0.94738293
-8.2436438 -7.6948915 -0.98660296
-8.6280813 -7.9542761 -1.0266947
-8.9059887 -8.1080914 -1.053713
-9.2012348 -8.2717543 -1.0824744
-9.4243784 -8.3658857 -1.1025201
-9.4842482 -8.3130722 -1.1033916
-9.543375 -8.2603569 -1.1042632
-9.5943708 -8.2010698 -1.1042632
-9.6454458 -8.1409388 -1.1042632
-9.7117119 -8.0929289 -1.1060064
-9.7777557 -8.0444069 -1.1077495
-9.8203745 -7.9765325 -1.1068779
-9.8858423 -7.9271359 -1.108621
-9.9354544 -7.8648653 -1.108621
-9.9846745 -7.8022842 -1.108621
-10.033501 -7.7393947 -1.108621
-10.152843 -7.7310672 -1.1164651
-10.216474 -7.6799855 -1.1182082
-10.272277 -7.6219144 -1.1190797
-10.303889 -7.5454502 -1.1173366
-10.374908 -7.4986324 -1.1199512
-10.404949 -7.4226365 -1.1182082
-10.451142 -7.3574538 -1.1182082
-7.0281096 -4.8819337 -0.74866784
-6.540956 -4.4828777 -0.69375968
-6.5359831 -4.4193716 -0.69027346
-6.5884829 -4.3948035 -0.69288814
-6.6159663 -4.3533206 -0.69288814
-6.6515441 -4.3170886 -0.69375968
-6.6869283 -4.280582 -0.69463128
-6.6968441 -4.2278461 -0.69288814
-6.7232761 -4.1856856 -0.69288814
-6.7492166 -4.1437278 -0.69288814
-6.7662392 -4.0966721 -0.6920166
-6.7917137 -4.0542984 -0.6920166
-6.8256392 -4.0165973 -0.69288814
-6.842124 -3.9686332 -0.6920166
-6.8842216 -3.9354529 -0.69375968
-6.908813 -3.8921206 -0.69375968
-6.9331312 -3.8486347 -0.69375968
-6.9571762 -3.8049967 -0.69375968
-6.9809461 -3.7612085 -0.69375968
-7.0130367 -3.7223248 -0.69463128
-7.035965 -3.678802 -0.69463128
-7.0676785 -3.639313 -0.69550282
-11.666293 -5.9148083 -1.1443549
-11.694313 -5.8369412 -1.1434833
-11.721816 -5.7589564 -1.1426117
-11.793331 -5.7031827 -1.146098
-11.837436 -5.6342854 -1.1469696
-11.872421 -5.5601864 -1.1469696
-11.925219 -5.4938173 -1.1487126
-11.97765 -5.4270034 -1.1504558
-12.029711 -5.3597474 -1.1521989
-12.090525 -5.2960482 -1.1548135
-12.141861 -5.2278562 -1.1565567
-8.0368013 -3.4006648 -0.7634843
-7.8096461 -3.2468448 -0.73995227
-7.4148803 -3.0282214 -0.70073217
-7.4707446 -2.9964066 -0.70421839
-7.4985318 -2.9534671 -0.70508993
-7.5352697 -2.9141376 -0.70683306
-7.5626512 -2.8705153 -0.7077046
-7.5805378 -2.8229413 -0.7077046
-7.607482 -2.7786758 -0.7085762
-7.6341691 -2.7341809 -0.70944774
-7.6605973 -2.6894603 -0.71031928
-7.6961846 -2.6477561 -0.71206242
-7.7219667 -2.6029506 -0.71293396
-7.7474055 -2.5581803 -0.7138055
-7.7822027 -2.5158327 -0.71554863
-7.8168521 -2.4728956 -0.71729177
-7.8512688 -2.4296224 -0.71903485
-7.8759146 -2.3831289 -0.71990645
-7.9002857 -2.3364215 -0.72077799
-7.9339509 -2.2922668 -0.72252107
-7.9673724 -2.247781 -0.7242642
-7.9909425 -2.2003212 -0.72513574
-8.0237341 -2.1556759 -0.72687888
-13.153978 -3.4467411 -1.1896759
-13.184917 -3.3669209 -1.1905475
-13.215479 -3.2864158 -1.191419
-13.264915 -3.2103424 -1.1940336
-13.284824 -3.1269372 -1.1940336
-13.32363 -3.0478513 -1.1957768
-13.381416 -2.9727218 -1.199263
-13.409569 -2.8906813 -1.2001345
-13.446969 -2.8104496 -1.2018777
-13.493654 -2.7318313 -1.2044923
-13.520328 -2.6489136 -1.2053639
-13.526777 -2.5627885 -1.2044923
-13.561996 -2.4825139 -1.2062354
-13.596868 -2.4011624 -1.2079786
-13.641148 -2.3206997 -1.2105932
-9.0445719 -1.4808025 -0.8018328
-9.0732555 -1.4278306 -0.80357593
-8.9737225 -1.3542458 -0.79398882
-8.6370792 -1.2472169 -0.7634843
-8.7039299 -1.2012874 -0.76871365
-8.7408352 -1.1512367 -0.77132833
-8.7972832 -1.1027758 -0.77568609
-8.823823 -1.0498356 -0.77742922
-8.8500443 -0.99660063 -0.7791723
-8.885849 -0.94413477 -0.78178698
-8.9213438 -0.89125341 -0.78440166
-8.9664421 -0.83889598 -0.78788787
-9.0013094 -0.7851364 -0.79050255
-9.0358534 -0.73097646 -0.79311723
-9.0800047 -0.67714942 -0.7966035
-9.1138964 -0.6221227 -0.79921812
-9.1573668 -0.56781024 -0.80270439
-9.2004948 -0.51327926 -0.80619061
-9.2333727 -0.45724061 -0.80880529
-9.2758732 -0.40094012 -0.8122915
-12.344399 -0.45588359 -1.0807312
-12.147874 -0.37221423 -1.0633
-12.08026 -0.29417902 -1.0571991
-12.121712 -0.21899408 -1.0606854
-12.162693 -0.14329337 -1.0641716
-12.063735 -0.066326 -1.055456
-11.725208 0.0092107635 -1.0258231
-11.695034 0.082667507 -1.0232084
-12.102695 0.16094004 -1.0589422
-11.394302 0.22213948 -0.99706167
-11.293105 0.29078978 -0.9883461
-11.330882 0.36301333 -0.99183232
-11.378175 0.43548638 -0.99619013
-10.768179 0.47897479 -0.94302511
-10.675433 0.54172701 -0.93518108
-10.602199 0.60481727 -0.92908019
-10.528594 0.66701442 -0.9229793
-10.484445 0.73038203 -0.91949308
-10.499515 0.79775524 -0.92123616
-10.543938 0.86779243 -0.92559397
-10.587943 0.93784392 -0.92995179
-10.641434 1.0090721 -0.93518108
-10.704298 1.0825824 -0.94128203
-11.143005 1.1977239 -0.98050207
-11.075872 1.2609494 -0.97527272
-10.988605 1.3210007 -0.96830028
-0.097386472 0.082465626 0.02480517
-7.3109188 7.1114159 1.9825054
-7.1332169 7.0263305 1.9462517
-7.0889306 7.0710092 1.9462517
-7.0236416 7.0944848 1.9405274
-6.999516 7.1595306 1.9462517
-6.9612093 7.2104325 1.9481598
-6.8751287 7.2113976 1.9367113
-6.8498669 7.2758965 1.9424355
-6.6903949 7.1965704 1.9099981
-6.7446198 7.3469353 1.9386194
-6.6262455 7.3087664 1.9176303
-6.5088034 7.2692385 1.8966414
-6.4501972 7.2951055 1.8928252
-6.4558787 7.3946481 1.9080899
-6.4349289 7.4648042 1.9157223
-6.4133472 7.5349908 1.9233546
-6.309041 7.5075011 1.9061818
-6.4121757 7.7283044 1.9519759
-6.160234 7.9181533 1.9500679
-6.0804648 7.9177775 1.9405274
-6.0602474 7.9949379 1.9500679
-6.0040116 8.0249996 1.9481598
-5.9359798 8.0388737 1.9424355
-5.9142575 8.1156788 1.9519759
-1.1765321 1.8226496 0.42168787
-1.1492412 1.8051646 0.41596359
-1.1274376 1.7957224 0.41214743
-1.116132 1.8027711 0.41214743
-1.0996686 1.8013697 0.41023934
2.110193 5.7922025 1.1982805
2.122618 5.714416 1.1849239
2.2975132 6.0681782 1.2612474
2.4274642 6.291738 1.3108578
2.4310393 6.1850028 1.2917769
2.4370186 6.0875878 1.2746041
2.467809 6.0539756 1.2707878
2.4982731 6.0202169 1.2669717
2.5436885 6.0224867 1.2707878
2.6473718 6.1597018 1.3032254
2.7056854 6.1879168 1.3127658
2.8442395 6.3950238 1.3604681
2.819638 6.2339239 1.3299387
2.9403973 6.3946276 1.3681005
3.0339911 6.4918957 1.3929056
2.5944099 5.4619694 1.1753834
2.6244097 5.4367204 1.1734753
2.6585176 5.4201236 1.1734753
3.095304 6.2116132 1.3490195
3.4445953 6.8051157 1.4825859
2.8256867 5.4125156 1.186832
2.8504436 5.3773084 1.1830157
2.907433 5.4025126 1.1925561
3.6848865 6.7452483 1.4940344
3.5796304 6.4558311 1.4348836
3.6538205 6.4930959 1.4482403
3.8065016 6.6660714 1.4921263
3.8138626 6.5825672 1.4787697
3.3328362 5.6699071 1.2784202
3.6951799 6.1968775 1.4024462
3.4901869 5.7703681 1.3108578
3.4853101 5.6813865 1.295593
3.4224143 5.5010133 1.2593393
3.3678687 5.3382649 1.2269018
3.0363469 4.7464342 1.0952436
3.076793 4.7437339 1.0990598
3.5649676 5.4214721 1.2612474
3.6044059 5.4071341 1.2631556
3.6544716 5.4089999 1.2688798
3.4439025 5.02987 1.1849239
3.6069067 5.0596733 1.2078209
4.0405135 5.5942678 1.3413873
3.4902008 4.7685905 1.1486701
3.4912674 4.7068391 1.1391296
3.5444908 4.7161026 1.146762
3.687043 4.8421264 1.1830157
3.7233894 4.8266373 1.1849239
3.6992419 4.7335362 1.1677511
3.8139231 4.8181787 1.1944643
3.8314226 4.7791376 1.1906481
0.10766559 0.10044371 0.028621349
0.079416014 0.073161185 0.02098899
0.10165799 0.092477329 0.02671326
0.065723799 0.059037924 0.01717281
0.1321869 0.11724761 0.034345619
0.051691491 0.045272402 0.01335663
0.10394984 0.089893453 0.02671326
0.03732593 0.031870909 0.0095404498
0.090061061 0.075925812 0.02289708
0.090536341 0.075358443 0.02289708
0.12892805 0.10594981 0.032437529
0.1219682 0.098953076 0.030529439
0.068955481 0.055228945 0.01717281
0.10780176 0.085236035 0.02671326
0.077378653 0.060402513 0.0190809
0.093301699 0.071906313 0.02289708
0.12499961 0.095094964 0.030529439
0.07849665 0.058942307 0.0190809
0.11829817 0.087671906 0.028621349
0.079231121 0.05795126 0.0190809
0.11143114 0.080433212 0.02671326
0.11992963 0.085426591 0.028621349
0.11243307 0.079026617 0.02671326
0.088728659 0.061536063 0.02098899
0.089113548 0.060977351 0.02098899
0.11390263 0.076893389 0.02671326
0.10620901 0.070741422 0.02480517
7.1748376 2.1147318 1.4539645
7.0464873 2.0288692 1.4253432
6.7966247 1.8658425 1.3700086
6.6280041 1.7750386 1.3337549
5.3473129 1.3961102 1.0742546
5.2608461 1.3382841 1.0551738
5.2691512 1.3052031 1.0551738
5.2295332 1.2605696 1.0456333
5.1991215 1.2187256 1.0380009
5.0726113 1.1558156 1.0112877
5.031754 1.1137573 1.0017473
4.9522467 1.0637046 0.98457438
4.9011712 1.0205612 0.97312587
4.8304486 0.97451025 0.95786113
4.2947297 0.61677617 0.84337574
4.2498598 0.58336252 0.8338353
4.2047267 0.55064678 0.82429487
4.1691256 0.51947689 0.81666249
4.1918039 0.49557641 0.82047868
4.1948347 0.46922889 0.82047868
4.2269864 0.44595256 0.82620293
4.2394733 0.42035407 0.82811105
4.2518053 0.39461568 0.83001912
4.2835178 0.37068701 0.83574337
4.2857323 0.34414005 0.83574337
4.3073802 0.31877133 0.83955956
4.328886 0.29302704 0.84337574
4.3404393 0.26642358 0.84528381
4.3714318 0.24076618 0.85100812
4.3728585 0.21329506 0.85100812
4.3839197 0.18623212 0.85291618
4.3948131 0.1590386 0.8548243
4.3859138 0.13112882 0.85291618
4.4357185 0.10472734 0.86245662
4.4559188 0.077195041 0.86627281
4.475944 0.049681216 0.87008899
4.4859824 0.021996319 0.87199712
4.5056648 -0.0060943328 0.87581325
4.5251694 -0.034553908 0.87962943
4.5444937 -0.063258819 0.88344562
4.5734491 -0.092406221 0.88916993
4.5825987 -0.12112483 0.891078
4.6013823 -0.15015633 0.89489418
4.6199703 -0.17970204 0.89871037
8.065012 -0.61738211 1.5722661
8.0805387 -0.6696651 1.5760822
8.0663948 -0.71955097 1.5741742
8.0762472 -0.82284695 1.5779904
8.0709181 -0.87357497 1.5779904
10.12896 -1.7418382 1.9977702
10.05994 -1.7944964 1.9863216
9.9810591 -1.8443058 1.972965
9.9018354 -1.8938017 1.9596083
9.8319626 -1.9445517 1.9481598
9.7618456 -1.994499 1.9367113
9.6722803 -2.0395916 1.9214466
5.5478711 -1.2792015 1.1066922
5.4729791 -1.2976972 1.0933355
5.502902 -1.3412079 1.1009679
5.5610228 -1.3924472 1.1143246
7.9956193 -2.0550177 1.6047037
7.9827332 -2.1045177 1.6047037
7.9788876 -2.1569769 1.6066117
7.9746375 -2.2096882 1.6085198
7.9701748 -2.2619536 1.6104279
7.9371543 -2.3058147 1.6066117
7.9602108 -2.3666129 1.6142441
7.9921412 -2.4308639 1.6237845
7.9954567 -2.4868627 1.6276007
8.054512 -2.5608444 1.6428654
5.9471235 -1.9316562 1.2154533
5.9536757 -1.9746468 1.2192695
5.969099 -2.0212989 1.2249937
8.2849827 -2.8636696 1.7039243
8.3408852 -2.9417892 1.719189
8.2852898 -2.9808457 1.7115567
8.2387505 -3.0227013 1.7058324
8.2012072 -3.0675292 1.7020162
8.136096 -3.1010275 1.6924758
8.0801229 -3.137166 1.6848434
8.0329542 -3.1768227 1.6791191
7.967308 -3.2088957 1.6695787
6.3759122 -2.6141806 1.3394791
6.4048891 -2.6725349 1.3490195
7.8156419 -3.3187501 1.6504978
7.7585907 -3.3522179 1.6428654
7.7196054 -3.3925378 1.6390493
7.6625891 -3.4242818 1.6314169
7.6142068 -3.4599679 1.6256926
7.5566726 -3.4912724 1.6180602
7.5079317 -3.5261643 1.612336
7.4590516 -3.5605822 1.6066117
7.4014206 -3.5897965 1.5989794
7.3085923 -3.6008782 1.5837146
7.0401325 -3.5235138 1.5302881
6.9828534 -3.5498846 1.5226557
7.0129619 -3.6202888 1.5341043
7.0425639 -3.6910112 1.5455528
7.0193353 -3.7349961 1.5455528
7.0216393 -3.7930224 1.5512772
7.0923481 -3.8889816 1.5722661
7.1878567 -4.000298 1.5989794
7.230958 -4.0840006 1.6142441
7.3158722 -4.1928067 1.6390493
7.3914723 -4.297461 1.6619463
7.5142956 -4.4949861 1.7020162
7.6033964 -4.6133995 1.7287295
7.6578608 -4.7125287 1.7478104
7.7446866 -4.8333106 1.7745236
7.8388848 -4.9601464 1.8031449
7.9154139 -5.0775213 1.8279501
8.0151606 -5.2125669 1.8584796
8.0068369 -5.2790346 1.8642038
8.0387993 -5.3728762 1.8794686
8.1349106 -5.511373 1.9099981
8.2295942 -5.6512861 1.9405274
8.4034042 -5.8486786 1.9901378
8.4069548 -5.9291487 1.9996783
4.348875 -9.1494341 1.9691488
4.2913017 -9.1765776 1.9691488
4.1648664 -9.2023344 1.9634246
3.7233176 -8.6568785 1.8317664
3.5618436 -8.4269314 1.7783399
3.5012958 -8.4310141 1.7745236
3.4482534 -8.4528465 1.7745236
3.384629 -8.446806 1.7687993
3.3358216 -8.4767494 1.7707075
3.5020485 -9.0651693 1.889009
3.1527166 -8.3159771 1.7287295
3.0906353 -8.3078356 1.7230052
2.9987156 -8.2161694 1.7001082
2.9538743 -8.253252 1.7039243
2.8759623 -8.197547 1.6886595
2.8339734 -8.2433043 1.6943839
2.8103206 -8.3446732 1.7115567
2.7916539 -8.4647121 1.7325456
2.7233343 -8.4353781 1.7230052
2.6140945 -8.274478 1.6867515
2.701169 -8.7409153 1.7783399
2.5160878 -8.3253155 1.6905676
2.4149544 -8.3654299 1.6924758
2.4049582 -8.5316076 1.7230052
2.2971241 -8.3476553 1.6829354
2.2708149 -8.4565325 1.7020162
2.2128961 -8.45158 1.6982
2.0416687 -8.4440823 1.6886595
1.9593623 -8.3325195 1.6638544
1.9441462 -8.507349 1.6962919
1.8143576 -8.4255486 1.675303
1.7498481 -8.3790226 1.6638544
1.6998469 -8.3993244 1.6657625
1.6491567 -8.4194269 1.6676706
1.5998763 -8.4489126 1.6714867
1.5432274 -8.4394855 1.6676706
1.4901704 -8.4490156 1.6676706
1.3803722 -8.437808 1.6619463
1.3367056 -8.5044613 1.6733949
1.2920259 -8.5709314 1.6848434
1.2479634 -8.6468897 1.6982
1.2378664 -8.9754601 1.761167
1.2498574 -9.498806 1.8622957
1.1543702 -9.2141638 1.8050531
1.0677236 -8.9775152 1.7573508
1.0156876 -9.0230656 1.7649832
0.94446003 -8.8926096 1.7382699
0.91197681 -9.1327934 1.7840641
0.85366207 -9.1285696 1.782156
0.79714155 -9.1435318 1.7840641
0.7394321 -9.1385317 1.782156
0.68791467 -9.2114611 1.7955126
0.6255883 -9.1470299 1.782156
0.56445426 -9.0919962 1.7707075
0.05412107 -0.9703027 0.1889009
0.04996378 -1.0098407 0.19653326
0.043617807 -1.0101347 0.19653326
0.036908269 -1.0005792 0.19462517
0.030981507 -1.0106012 0.19653326
0.024479164 -1.0009605 0.19462517
0.018038355 -0.99127936 0.19271708
0.0118099 -0.99137312 0.19271708
0.0056359721 -1.0012438 0.19462517
-0.0006486866 -0.99144322 0.19271708
-0.0069461646 -1.0012356 0.19462517
-0.013236945 -1.0011722 0.19462517
-0.019276364 -0.99125606 0.19271708
-0.025669549 -1.0009307 0.19462517
-0.031930592 -1.0007504 0.19462517
-0.038217831 -1.0005301 0.19462517
-0.044879347 -1.0100795 0.19653326
-0.051633213 -1.0195857 0.19844136
-0.058568243 -1.0290432 0.20034944
-0.065652087 -1.0384516 0.20225753
-0.071494639 -1.0282259 0.20034944
-0.077211313 -1.0179683 0.19844136
-0.084409744 -1.0272464 0.20034944
-0.089997068 -1.0169177 0.19844136
-0.09632384 -1.0163379 0.19844136
-0.10360602 -1.0254881 0.20034944
-0.11106697 -1.0345801 0.20225753
-0.11645609 -1.0241084 0.20034944
-0.12288842 -1.0233566 0.20034944
-0.12931591 -1.0225642 0.20034944
-0.13567705 -1.0217396 0.20034944
-0.14200495 -1.0208794 0.20034944
-0.14980175 -1.029685 0.20225753
-0.15626845 -1.0287235 0.20225753
-0.16119382 -1.0180259 0.20034944
-0.16918312 -1.0266786 0.20225753
-0.1755691 -1.0256059 0.20225753
-0.18192019 -1.0244983 0.20225753
-0.18654895 -1.0136862 0.20034944
-0.19475169 -1.0221368 0.20225753
-0.20306793 -1.030524 0.20416562
-0.21541378 -1.0580846 0.20988989
-0.22199431 -1.0567236 0.20988989
-0.22645998 -1.0457339 0.2079818
-0.23513496 -1.0538775 0.20988989
-0.2373565 -1.0332451 0.20607372
-0.24835949 -1.0508395 0.20988989
-0.25263938 -1.0397196 0.2079818
-0.26154479 -1.0476357 0.20988989
-0.27299702 -1.0649893 0.21370608
-0.27212963 -1.0347893 0.2079818
-0.27853575 -1.0330834 0.2079818
-0.28499299 -1.0313208 0.2079818
-0.29948935 -1.0578449 0.21370608
-0.30606675 -1.0559607 0.21370608
-0.30981258 -1.0446328 0.21179798
-0.31919137 -1.0520678 0.21370608
-3.0755064 -8.9180155 1.8336744
-3.1054103 -8.8244381 1.8184097
-3.154161 -8.786274 1.8145936
-3.2025549 -8.7478466 1.8107773
-3.2471583 -8.6999626 1.8050531
-3.2877965 -8.6426888 1.7974207
-3.323782 -8.5762959 1.7878803
-3.3624396 -8.5190153 1.7802479
-3.4010227 -8.4613819 1.7726156
-3.4392474 -8.4035063 1.7649832
-3.4763794 -8.3456936 1.7573508
-3.5165312 -8.2968798 1.7516265
-3.556704 -8.2476768 1.7459023
-3.5926807 -8.1892099 1.7382699
-3.6320636 -8.1395826 1.7325456
-3.6750216 -8.0987225 1.7287295
-3.7176096 -8.0576458 1.7249132
-3.7598271 -8.0163536 1.7210971
-3.8058968 -7.9837108 1.719189
-3.8474252 -7.9419718 1.7153728
-3.892441 -7.9090672 1.7134647
-3.9282022 -7.8584571 1.7077404
-3.9861734 -7.8512354 1.7115567
-4.0663037 -7.7657399 1.7039243
-4.0965843 -7.7053676 1.6962919
-4.1258097 -7.6451697 1.6886595
-4.168385 -7.6108499 1.6867515
-4.2111459 -7.5760446 1.6848434
-4.2441931 -7.523788 1.6791191
-4.2763052 -7.4716706 1.6733949
-4.3077316 -7.4195633 1.6676706
-4.3391171 -7.3670955 1.6619463
-4.3702154 -7.3144069 1.6562221
-4.4008236 -7.2616186 1.6504978
-4.4412227 -7.2254615 1.6485897
-4.4709554 -7.1724229 1.6428654
-4.5054426 -7.1275945 1.6390493
-4.5338225 -7.0746241 1.633325
-4.5668731 -7.0299339 1.6295087
-4.5999632 -6.9848309 1.6256926
-4.6328583 -6.9394627 1.6218765
-4.6598635 -6.8858275 1.6161522
-4.6974835 -6.8483181 1.6142441
-4.7292132 -6.8025484 1.6104279
-4.7549 -6.7486262 1.6047037
-4.7743921 -6.6866617 1.5970713
-4.7299972 -6.5372386 1.56845
-4.7589812 -6.4918427 1.5646337
-4.7874088 -6.4464693 1.5608176
-4.8158388 -6.4007063 1.5570014
-4.8440566 -6.3547091 1.5531852
-4.871511 -6.3089013 1.549369
-4.9044604 -6.2708635 1.5474609
-4.9314017 -6.2246714 1.5436448
-4.9581275 -6.1782522 1.5398285
-4.9906564 -6.1393604 1.5379205
-5.022893 -6.1003041 1.5360124
-5.0925584 -6.1063175 1.5455528
-5.2385087 -6.201683 1.5779904
-5.2514782 -6.1391244 1.570358
-5.1673017 -5.9654942 1.5341043
-5.1980457 -5.9256725 1.5321962
-5.3851237 -6.0616832 1.5760822
-5.4490032 -6.0572448 1.5837146
-6.509006 -7.0568314 1.866112
-6.7274327 -7.2023091 1.9157223
-6.9546838 -7.3524442 1.9672407
-10.906655 1.3089863 -0.57569551
-10.888188 1.3771846 -0.57517213
-10.869484 1.4437824 -0.5746488
-10.880111 1.5138552 -0.57569551
-10.91983 1.5891372 -0.57831228
-10.978741 1.6682211 -0.58197582
-11.037086 1.7481017 -0.58563936
-11.085004 1.8271627 -0.58877951
-14.368086 2.6474066 -0.76567501
-14.233454 2.7151802 -0.75939471
-14.108342 2.7832925 -0.75363773
-14.031866 2.8599124 -0.75049758
-14.05271 2.9562399 -0.75259101
-14.072894 3.0529492 -0.75468445
-14.423776 3.224088 -0.77457213
-14.403233 3.3146551 -0.77457213
-14.304381 3.3866777 -0.77038527
-14.205194 3.4575973 -0.7661984
-14.066936 3.5177066 -0.75991809
-13.986519 3.5911248 -0.75677794
-13.89632 3.6602173 -0.7531144
-13.805888 3.7280259 -0.74945086
-13.705031 3.7939806 -0.74526399
-13.603727 3.8594034 -0.74107713
-12.40598 3.6868961 -0.67827398
-12.439981 3.7819264 -0.68141413
-12.358757 3.8422227 -0.67827398
-12.505683 3.9742372 -0.68769443
-12.508959 4.0619898 -0.68926454
-12.350492 4.0964875 -0.68193752
-12.542055 4.2476883 -0.69397479
-12.741638 4.4047103 -0.7065354
-12.581863 4.4381766 -0.69920838
-12.601007 4.5332265 -0.70182514
-12.535175 4.5974612 -0.69973171
-12.440667 4.6513739 -0.69606823
-12.401864 4.7258959 -0.69554484
-12.483637 4.8470964 -0.70182514
-12.582943 4.9768624 -0.70915222
-12.662916 5.0997667 -0.71543252
-12.751194 5.2273722 -0.72223616
-13.031563 5.4378605 -0.74003041
-13.125822 5.574286 -0.74735743
-13.209337 5.7090054 -0.75416112
-13.309822 5.8533382 -0.76201153
-4.1876354 1.9364005 -0.24179211
-4.1665187 1.9580628 -0.24126875
-3.522805 2.2018273 -0.21771757
-3.3825648 2.1434343 -0.20986718
-3.4698987 2.2293458 -0.2161475
-17.196508 11.827665 -1.0938215
-17.416779 12.141063 -1.1126624
-17.372772 12.273309 -1.1147559
-9.194315 8.6193237 -0.66047978
-9.1039553 8.6423435 -0.65786296
-9.07827 8.7270603 -0.6599564
-9.0518818 8.8117895 -0.66204983
-9.0318937 8.9035454 -0.66466665
-9.0535183 9.0377235 -0.67042357
-8.9088573 9.4703922 -0.68141413
-8.7812138 9.4530134 -0.67618054
-8.7013922 9.4859257 -0.67461044
-8.6489506 9.5472431 -0.67513382
-8.5896292 9.6006489 -0.67513382
-8.5557985 9.6841764 -0.67722726
-6.7931461 7.9875641 -0.54952753
-6.7556705 8.0453825 -0.55057424
-6.7304792 8.1184244 -0.55266768
-5.3789177 6.6566491 -0.44851914
-5.3618984 6.7215395 -0.45061257
-5.3072019 6.7394066 -0.44956586
-1.2564313 1.6162826 -0.10728871
-1.2705679 1.655836 -0.10938215
-1.2661687 1.6717469 -0.1099055
-1.2377018 1.6556745 -0.10833543
-1.2272749 1.6634181 -0.10833543
-1.2109205 1.6630238 -0.10781207
-1.200448 1.6705991 -0.10781207
-1.1899272 1.678109 -0.10781207
-1.1736352 1.6773697 -0.10728871
-1.1630725 1.6847111 -0.10728871
-1.1637082 1.7084925 -0.10833543
-1.1585199 1.7240596 -0.10885879
-1.1531826 1.739628 -0.10938215
-1.1586246 1.7719138 -0.11095223
-1.1312313 1.7539816 -0.10938215
-1.0933892 1.7189244 -0.10676535
-1.0878745 1.7342198 -0.10728871
-1.0664493 1.7240355 -0.10624199
-1.0607963 1.7392275 -0.10676535
-1.0395545 1.7287424 -0.10571863
-1.0286725 1.7352396 -0.10571863
-4.8668237 9.0956383 -0.5406304
-4.7583656 9.0288572 -0.53487349
-4.6969395 9.0497141 -0.5343501
-4.6445327 9.0879383 -0.53487349
-4.5918264 9.1258631 -0.53539681
-4.5388312 9.1634817 -0.5359202
-4.5074205 9.2456789 -0.53906035
-4.3930864 9.1567678 -0.53225666
-4.3397269 9.1932211 -0.53278005
-4.3281493 9.3199358 -0.53853697
-4.2487569 9.3015299 -0.5359202
-4.1779566 9.3007126 -0.5343501
-4.0992603 9.281106 -0.53173333
-4.0289354 9.2791977 -0.53016323
-3.9666312 9.295145 -0.52963984
-6.0553193 14.440293 -0.82062781
-5.9987001 14.561157 -0.82533801
-5.9305305 14.653714 -0.82847816
-5.9097114 14.866498 -0.838422
-5.7874694 14.828785 -0.83423513
-5.7227578 14.939461 -0.838422
-5.5831051 14.853601 -0.83161831
-5.4482059 14.775952 -0.82533801
-5.3926172 14.913195 -0.83109498
-5.2954679 14.937371 -0.83057159
-5.181848 14.913749 -0.82743144
-5.068727 14.889293 -0.82429129
-4.9592853 14.873478 -0.82167453
-4.850235 14.856879 -0.8190577
-4.7415977 14.839498 -0.81644088
-4.636343 14.830872 -0.81434745
-4.5255523 14.802409 -0.81120729
-4.4210148 14.79228 -0.80911386
-4.311192 14.76225 -0.80597371
-4.2046537 14.741032 -0.80335689
-4.1012392 14.728677 -0.80126345
-3.9981387 14.715608 -0.79917002
-3.8953726 14.701824 -0.79707658
-3.7929378 14.687332 -0.79498315
-3.6908393 14.672134 -0.79288971
-3.5890739 14.656238 -0.79079628
-3.5200627 14.775642 -0.79602987
-3.4519372 14.904485 -0.80178684
-3.3823383 15.033049 -0.80754381
-3.3133821 15.171081 -0.81382412
-3.2407625 15.299064 -0.81958103
-3.1686645 15.436513 -0.82586139
-3.0930276 15.563858 -0.83161831
-3.0159068 15.690861 -0.83737528
-2.9391427 15.827321 -0.84365559
-2.8607738 15.963432 -0.84993589
-2.780818 16.099178 -0.85621625
-2.7008979 16.244398 -0.86301988
-2.6203442 16.389071 -0.86982358
-2.536932 16.523438 -0.87610388
-2.4526868 16.677479 -0.8834309
-2.3644593 16.821323 -0.89023459
-2.2900126 17.063393 -0.90227187
-2.1994462 17.196121 -0.90855217
-2.1025815 17.298775 -0.91326243
-2.0121262 17.470375 -0.92163616
-1.9088036 17.54224 -0.92477632
-1.8036299 17.603558 -0.92739314
-0.31252649 4.0523887 -0.21300733
-0.28847024 4.0741949 -0.21405406
-0.26222196 4.0659618 -0.2135307
-0.23577581 4.0475745 -0.21248397
-0.21017328 4.0389848 -0.21196061
-0.18396787 4.0202699 -0.2109139
-0.1583094 4.0113683 -0.21039054
-0.1334344 4.0222645 -0.2109139
-0.10762142 4.003058 -0.20986718
-0.082468525 4.003655 -0.20986718
-0.057453167 4.0140796 -0.21039054
-0.03223202 4.0143614 -0.21039054
-0.0070074624 4.0144844 -0.21039054
0.018043695 4.0344229 -0.21143726
0.043467067 4.0741768 -0.2135307
1.5913562 19.909092 -1.0467191
1.723282 19.978296 -1.0509059
4.102087 17.982752 -0.96664512
4.3268161 18.433004 -0.99228972
4.4214597 18.318087 -0.98757946
0.80055314 3.2276371 -0.17427874
0.81588721 3.2031889 -0.17323202
0.83852291 3.2076609 -0.17375538
0.83021092 3.0962276 -0.16799842
0.84700173 3.0813212 -0.16747506
0.86634535 3.0759385 -0.16747506
0.87161869 3.022516 -0.16485827
0.88467616 2.9979017 -0.16381153
0.90342975 2.9923036 -0.16381153
0.9222129 2.9865682 -0.16381153
0.93494725 2.9616687 -0.16276482
0.95353734 2.9557359 -0.16276482
0.96583849 2.9307172 -0.1617181
0.98741877 2.9340556 -0.16224146
1.0155683 2.9561269 -0.16381153
1.0308181 2.9402637 -0.16328818
1.0391827 2.90552 -0.1617181
1.5658903 3.8370972 -0.21719421
1.5861373 3.8179605 -0.21667086
1.621762 3.8355129 -0.21824093
1.6458291 3.8252473 -0.21824093
1.6778399 3.8331275 -0.21928765
1.7018909 3.8225098 -0.21928765
1.7299938 3.8208382 -0.21981101
1.7495416 3.8009362 -0.21928765
3.2155621 6.0603452 -0.359548
3.2204254 5.9784784 -0.35588449
3.5214338 6.4400334 -0.38466927
3.5618281 6.4177809 -0.38466927
3.6118832 6.4126768 -0.38571599
3.8007646 6.6499591 -0.40141678
3.8625112 6.660502 -0.40351021
3.9093478 6.6447091 -0.40403357
3.6046607 5.9543476 -0.36478162
3.8039844 6.1953964 -0.38100576
3.7585406 5.8702917 -0.36530498
3.7953503 5.8465605 -0.36530498
3.8649502 5.8726492 -0.36844513
8.0200253 11.390728 -0.73008657
7.8995433 11.072195 -0.7128157
10.275281 12.482658 -0.84731913
10.321533 12.3795 -0.8447023
10.360454 12.268625 -0.84156215
10.417862 12.18052 -0.83999211
10.454958 12.069533 -0.83685195
10.497658 11.96607 -0.83423513
10.532838 11.855083 -0.83109498
10.587078 11.766399 -0.82952487
10.640621 11.677503 -0.82795483
10.693466 11.588398 -0.82638472
10.75243 11.506388 -0.82533801
10.81765 11.431348 -0.82481468
10.854713 11.327104 -0.82219785
10.91176 11.244345 -0.82115114
10.968196 11.161318 -0.82010442
11.024019 11.078025 -0.8190577
11.072142 10.987438 -0.8174876
11.12598 10.904403 -0.81644088
11.178978 10.821366 -0.81539416
11.217641 10.723557 -0.81330073
11.270274 10.639153 -0.81225401
11.322289 10.554511 -0.81120729
11.373686 10.469637 -0.81016058
11.431854 10.391251 -0.80963725
11.482055 10.305877 -0.80859053
11.539108 10.226906 -0.80806714
11.588108 10.141049 -0.80702043
11.651597 10.068039 -0.80702043
11.699431 9.9816694 -0.80597371
11.761916 9.9079628 -0.80597371
11.816259 9.8274794 -0.80545038
11.877774 9.7530422 -0.80545038
11.938819 9.6782198 -0.80545038
11.991596 9.596776 -0.80492699
12.059493 9.5274324 -0.80545038
12.189367 9.5075426 -0.81016058
12.42211 9.5658798 -0.82167453
13.785588 10.479008 -0.90750545
13.811216 10.362219 -0.90488869
13.892102 10.287122 -0.90593541
13.956464 10.199633 -0.90593541
14.020274 10.11174 -0.90593541
14.050986 10.000287 -0.90384197
14.129888 9.9232836 -0.90488869
14.200166 9.8399963 -0.90541202
14.261711 9.7505808 -0.90541202
14.322694 9.66078 -0.90541202
14.390799 9.5770712 -0.90593541
14.474904 9.5041666 -0.90750545
14.542511 9.4187775 -0.90802884
14.635066 9.3487225 -0.91012228
14.735764 9.2831984 -0.91273904
14.861662 9.2325859 -0.91692597
15.354103 8.0064697 -0.90750545
15.768332 8.0968657 -0.92896318
14.79601 7.3641257 -0.86616004
14.707469 7.2051144 -0.85830969
14.275693 6.8827057 -0.83057159
11.422444 5.4188895 -0.66257322
11.365774 5.3047795 -0.65733957
10.500401 4.8207674 -0.60552698
10.248034 4.6279721 -0.58930284
10.148739 4.5076375 -0.58197582
10.195068 4.4519963 -0.58302253
10.259546 4.4036064 -0.58511597
10.296213 4.3429384 -0.58563936
10.323298 4.2781601 -0.58563936
10.211235 4.1567354 -0.57778895
2.823545 1.0878172 -0.15857795
2.8396652 1.0735869 -0.15910131
8.2470198 2.8268025 -0.45689288
8.0563459 2.7049999 -0.44537899
7.9024224 2.5981841 -0.4359585
7.7569871 2.4964707 -0.42706141
7.6201177 2.3996894 -0.41868764
4.0296335 1.0503922 -0.21824093
3.9587216 1.0053873 -0.21405406
3.9067948 0.96611041 -0.2109139
3.9322062 0.94621706 -0.21196061
3.9477975 0.92376697 -0.21248397
3.9534647 0.89920312 -0.21248397
3.9687114 0.87684542 -0.21300733
3.9741237 0.85197884 -0.21300733
3.9989533 0.83105582 -0.21405406
4.013833 0.8081463 -0.21457742
4.0187631 0.78326184 -0.21457742
4.0235887 0.75808322 -0.21457742
4.0380974 0.73457468 -0.21510078
4.0524693 0.71091372 -0.21562414
4.0765495 0.68876475 -0.21667086
4.0906539 0.66473937 -0.21719421
4.1046166 0.64056385 -0.21771757
4.1184368 0.61623907 -0.21824093
4.1321125 0.59176582 -0.21876429
4.145606 0.56741661 -0.21928765
4.1688466 0.5443061 -0.22033437
4.1919932 0.52065468 -0.2213811
4.2150173 0.49664262 -0.22242782
4.2081299 0.46904299 -0.22190446
4.2308569 0.44468111 -0.22295117
4.2534432 0.42005205 -0.22399789
4.2659426 0.3942377 -0.22452125
4.2882104 0.3694202 -0.22556797
4.3003716 0.34363967 -0.22609133
4.312398 0.31744006 -0.22661468
4.3342352 0.29167938 -0.2276614
4.3559179 0.2656568 -0.22870812
4.3674722 0.2388279 -0.22923149
4.3888359 0.2123469 -0.23027821
4.3900833 0.18476698 -0.23027821
4.4210973 0.15825143 -0.23184828
4.4020405 0.12988085 -0.23080157
4.4427042 0.10314674 -0.232895
4.4632344 0.075568624 -0.23394172
4.4835892 0.048029717 -0.23498844
4.5037732 0.020339549 -0.23603515
4.5137987 -0.007878433 -0.23655851
4.5336318 -0.036399521 -0.23760524
4.5532842 -0.065169543 -0.23865196
4.5627689 -0.093982898 -0.23917532
4.5820622 -0.1228862 -0.24022204
4.6011744 -0.15193315 -0.24126875
4.62009 -0.18152371 -0.24231547
4.6388102 -0.21145836 -0.24336219
4.868906 -0.37464124 -0.25592282
4.8963118 -0.40771198 -0.2574929
4.9334393 -0.44203302 -0.25958633
4.9902081 -0.47874388 -0.26272649
4.9970365 -0.51110482 -0.26324984
5.0135822 -0.54464889 -0.26429656
5.0200195 -0.57695192 -0.26481992
5.0560036 -0.61285055 -0.26691338
5.0718789 -0.64702392 -0.2679601
5.0974073 -0.68285632 -0.26953018
5.1128421 -0.71731192 -0.27057689
5.1379414 -0.75332236 -0.27214697
5.1627378 -0.7900095 -0.27371705
5.1872573 -0.82714975 -0.27528712
5.211513 -0.86462915 -0.2768572
5.2453423 -0.90414214 -0.27895063
5.2592797 -0.94025397 -0.27999735
5.2926307 -0.98009485 -0.28209081
5.3256211 -1.0207344 -0.28418425
5.3386941 -1.0580587 -0.28523096
5.3710747 -1.0995926 -0.2873244
5.3933711 -1.1395111 -0.28889447
5.4251351 -1.1818781 -0.29098791
5.4468336 -1.2225025 -0.29255798
5.4780474 -1.265336 -0.29465142
5.5186825 -1.3107913 -0.29726821
5.4521589 -1.3311094 -0.29412806
5.5114918 -1.3823459 -0.2977916
7.7271166 -1.9891979 -0.41816428
7.7629204 -2.0497828 -0.42078108
7.8077693 -2.1140079 -0.42392123
7.8520684 -2.1790462 -0.42706141
7.8960028 -2.2442074 -0.43020156
7.9298902 -2.3070347 -0.43281835
7.9822869 -2.3765895 -0.43648186
8.0245152 -2.4441547 -0.43962201
8.0757408 -2.5153134 -0.44328555
5.9517674 -1.9765725 -0.32866979
5.8730726 -1.9913528 -0.32500628
5.9925647 -2.0739396 -0.33233333
8.0334091 -2.9509437 -0.44851914
7.9398928 -2.9733431 -0.44433227
7.9025917 -3.0155337 -0.44328555
7.9675269 -3.0970006 -0.44799578
7.9572639 -3.1505044 -0.44851914
6.4114094 -2.6316354 -0.36321154
6.4226255 -2.6828561 -0.36478162
6.4148917 -2.7269244 -0.36530498
6.4892879 -2.8068206 -0.37053856
6.5722594 -2.8913503 -0.37629551
6.636261 -2.9687164 -0.38100576
6.6720824 -3.0350201 -0.38414592
6.7163281 -3.1062255 -0.38780943
6.7689781 -3.1823535 -0.39199629
6.8209333 -3.2592652 -0.39618319
6.8903718 -3.3452268 -0.40141678
6.9680328 -3.4364412 -0.40717372
7.0981636 -3.5560451 -0.41607085
7.0845809 -3.6051028 -0.41659421
7.1241317 -3.6811724 -0.42025772
7.127717 -3.7391589 -0.42182779
