# .PCD v0.7 - Point Cloud Data file format
VERSION 0.7
FIELDS x y z
SIZE 4 4 4
TYPE F F F
COUNT 1 1 1
WIDTH 1471
HEIGHT 1
VIEWPOINT 0 0 0 1 0 0 0
POINTS 1471
DATA ascii
-11.843698 -5.5744848 -1.1452265
-11.896569 -5.5083303 -1.1469696
-11.949076 -5.4417315 -1.1487126
-12.010307 -5.3787613 -1.1513274
-12.052982 -5.3072071 -1.1521989
-8.1402607 -3.4628839 -0.77394301
-7.4081731 -3.0966275 -0.70247525
-7.4459138 -3.0575881 -0.70421839
-7.4740524 -3.014878 -0.70508993
-7.5296345 -2.9831898 -0.7085762
-7.5574188 -2.9396777 -0.70944774
-7.5664334 -2.8885822 -0.7085762
-7.5937624 -2.8444786 -0.70944774
-7.6208353 -2.8001456 -0.71031928
-7.6476502 -2.7555864 -0.71119082
-7.683599 -2.7141166 -0.71293396
-7.7099147 -2.6690447 -0.7138055
-7.7454004 -2.6269488 -0.71554863
-7.7712073 -2.5813718 -0.71642017
-7.7967467 -2.535574 -0.71729177
-7.8315096 -2.4925783 -0.71903485
-7.8565278 -2.4462841 -0.71990645
-7.9002018 -2.4060087 -0.72252107
-7.9245048 -2.3598578 -0.72339267
-7.958231 -2.315845 -0.72513574
-7.9822073 -2.2685199 -0.72600734
-8.015502 -2.2236478 -0.72775042
-13.087303 -3.542253 -1.1861897
-13.118933 -3.4624958 -1.1870612
-13.140429 -3.3799992 -1.1870612
-13.180733 -3.3022146 -1.1888043
-13.191542 -3.2169762 -1.1879327
-13.269653 -3.1478207 -1.1931621
-13.279461 -3.0621486 -1.1922905
-13.317882 -2.9830024 -1.1940336
-13.375299 -2.9077337 -1.1975199
-13.403053 -2.8256888 -1.1983914
-13.449823 -2.7474043 -1.2010062
-13.447276 -2.6589744 -1.199263
-13.473501 -2.5763052 -1.2001345
-13.508879 -2.4959548 -1.2018777
-13.543698 -2.4157033 -1.2036208
-9.0128412 -1.5495006 -0.80008972
-9.0617123 -1.4993482 -0.80357593
-9.0020857 -1.4314291 -0.79747504
-8.6760702 -1.3237548 -0.76784205
-8.7039309 -1.2720945 -0.76958519
-8.7512159 -1.2228984 -0.77307141
-8.7784767 -1.1705199 -0.77481455
-8.8054228 -1.117852 -0.77655768
-8.8419437 -1.0660791 -0.7791723
-8.8781595 -1.0138961 -0.78178698
-8.9140158 -0.96178424 -0.78440166
-8.9495373 -0.90955567 -0.78701633
-8.9947157 -0.85738087 -0.79050255
-9.0296926 -0.80350006 -0.79311723
-9.074316 -0.74953628 -0.7966035
-9.1087065 -0.69398105 -0.79921812
-9.1526594 -0.63921362 -0.80270439
-9.1863203 -0.58359063 -0.80531907
-9.219614 -0.52807075 -0.80793375
-9.2625046 -0.4729673 -0.81141996
-12.067553 -0.39083079 -1.0563276
-12.099646 -0.31578368 -1.0589422
-12.151204 -0.24007677 -1.0633
-12.192331 -0.16319916 -1.0667863
-11.774727 -0.083232723 -1.0301808
-11.715246 -0.0092048217 -1.0249515
-12.123507 0.066652671 -1.0606854
-11.435521 0.13472444 -1.0005479
-11.314937 0.20379589 -0.99008924
-11.313457 0.27390012 -0.99008924
-11.36131 0.34612516 -0.99444699
-10.781508 0.39627755 -0.94389665
-10.709136 0.46101531 -0.93779576
-10.636379 0.52485371 -0.93169487
-10.553299 0.58724827 -0.92472243
-10.479801 0.64923012 -0.91862154
-10.485454 0.71574473 -0.91949308
-10.530421 0.78531384 -0.92385083
-10.584904 0.85570431 -0.92908019
-10.62902 0.92559391 -0.933438
-10.68254 0.99756891 -0.93866736
-11.181613 1.1150824 -0.98311675
-11.095135 1.1769127 -0.97614431
-11.018225 1.2388077 -0.97004342
-10.940976 1.2997888 -0.96394253
-10.922709 1.3672668 -0.96307093
-10.963287 1.442363 -0.96742874
-11.003351 1.518023 -0.9717865
-7.3422108 7.0649543 1.9805974
-7.1500363 6.967082 1.9405274
-7.0991311 7.0049763 1.9386194
-7.0758109 7.0702567 1.9443437
-7.0174456 7.1006136 1.9405274
-7.0138316 7.1867137 1.9519759
-6.8799815 7.1387577 1.9271709
-6.8958998 7.2458396 1.9443437
-6.7561197 7.1888828 1.9176303
-6.9378524 7.4758263 1.9825054
-6.6519904 7.2587357 1.9138142
-6.5539932 7.2417665 1.8985494
-6.508997 7.2822366 1.8985494
-6.482801 7.3448915 1.9042737
-6.5010161 7.4594836 1.9233546
-6.4412155 7.4853001 1.9195385
-6.3241396 7.443337 1.8985494
-6.441278 7.6784577 1.9481598
-6.1906276 7.8694496 1.9462517
-6.1232147 7.8847632 1.9405274
-6.1093826 7.9698262 1.9519759
-6.0118051 7.9454293 1.9367113
-5.9676399 7.9909091 1.9386194
-1.1926925 1.7767551 0.41596359
-1.1760861 1.7760291 0.41405553
-1.1541669 1.7669472 0.41023934
-1.1377262 1.7659119 0.40833125
-1.1266078 1.7730259 0.40833125
2.1669991 6.0430527 1.2478908
2.1071537 5.7619624 1.1925561
2.1261687 5.7026205 1.1830157
2.3014383 6.056191 1.2593393
2.4316046 6.279614 1.3089497
2.4277878 6.1546335 1.2860526
2.4188385 6.0208449 1.2612474
2.4343216 5.951015 1.2497989
2.4864004 5.9719996 1.2574313
2.5731323 6.0739822 1.2822365
2.653821 6.1569262 1.3032254
2.7082219 6.1760898 1.3108578
2.8513181 6.3918705 1.3604681
2.555325 5.6316319 1.2020967
2.9358721 6.3642898 1.3623762
3.008584 6.4170809 1.377641
2.5884135 5.4322104 1.1696591
2.6182158 5.4070048 1.1677511
2.652137 5.3904476 1.1677511
3.0985022 6.1990461 1.3471115
3.2973704 6.4945555 1.4158027
2.784759 5.4005742 1.1811076
2.923368 5.582984 1.2249937
2.8385787 5.3391519 1.1753834
2.8953815 5.3644032 1.1849239
3.6789746 6.7149148 1.4883101
3.5684323 6.4171367 1.4272512
3.6569262 6.4800782 1.4463322
3.8048866 6.6443787 1.4883101
3.8071074 6.5524402 1.4730455
3.3297913 5.6489182 1.2746041
3.4609358 5.7879596 1.3108578
3.4870529 5.7493134 1.3070416
3.4819622 5.6604023 1.2917769
3.4291325 5.4968276 1.2593393
3.3691401 5.3258505 1.2249937
3.0365593 4.7346411 1.0933355
3.0604858 4.7075062 1.0914274
3.5544374 5.393147 1.2555232
3.5937066 5.37887 1.2574313
3.6494496 5.3886948 1.2650636
3.4253561 4.9233975 1.1658429
3.5750129 5.0702519 1.2059128
3.5839717 5.0157423 1.1982805
4.0184078 5.5496831 1.3318467
3.4725106 4.7328749 1.1410378
3.4728971 4.6715736 1.1314974
3.5317097 4.6888652 1.1410378
3.6802013 4.8226557 1.1791996
3.7044263 4.7916708 1.1772915
3.6920917 4.7142034 1.1639348
3.8009524 4.7908826 1.18874
3.8248301 4.7592549 1.186832
0.060361993 0.064509876 0.01717281
0.085724659 0.080789894 0.02289708
0.079505339 0.073064104 0.02098899
0.079962842 0.072563119 0.02098899
0.13159177 0.11791517 0.034345619
0.1029179 0.091073088 0.02671326
0.11826309 0.10335277 0.030529439
0.089185119 0.07695283 0.02289708
0.074727945 0.063652605 0.0190809
0.037564065 0.031589884 0.0095404498
0.098180704 0.081518427 0.02480517
0.075912379 0.062235277 0.0190809
0.068666875 0.055587362 0.01717281
0.023004428 0.018385567 0.0057242699
0.10789096 0.085123099 0.02671326
0.10067913 0.07841184 0.02480517
0.070040643 0.05384611 0.01717281
0.13293542 0.10087606 0.032437529
0.094282322 0.070615634 0.02289708
0.094724149 0.070021853 0.02289708
0.1189528 0.086781628 0.028621349
0.11152451 0.080303714 0.02671326
0.12002134 0.085297696 0.028621349
0.10494793 0.072599135 0.02480517
0.097291999 0.066407762 0.02289708
0.073583499 0.048893388 0.01717281
7.168364 2.1019495 1.4520564
7.0681872 2.0244339 1.4291594
6.9104862 1.9328153 1.3948138
6.7992234 1.8563514 1.3700086
6.649447 1.7708354 1.337571
5.3102927 1.3429717 1.0647142
5.2614365 1.2954983 1.0532657
5.2121959 1.2486924 1.0418171
5.1912575 1.2092378 1.0360929
5.1891789 1.1744297 1.0341847
5.0238795 1.1038824 0.99983913
4.9442477 1.0541738 0.98266631
4.9218454 1.0175577 0.97694206
4.8607383 0.97325677 0.96358544
4.3344779 0.61618853 0.85100812
4.2896128 0.58245683 0.84146768
4.2445121 0.54919487 0.83192718
4.1894217 0.51532453 0.82047868
4.1730766 0.48671722 0.81666249
4.1955667 0.46263933 0.82047868
4.2179179 0.43829799 0.82429487
4.2205887 0.41178748 0.82429487
4.2426443 0.38704437 0.82811105
4.2547517 0.36146486 0.83001912
4.2764816 0.33663699 0.8338353
4.2882943 0.31058642 0.83574337
4.309751 0.28493142 0.83955956
4.3310537 0.25901902 0.84337574
4.3522 0.23285009 0.84719193
4.373188 0.20642562 0.85100812
4.3645906 0.17854291 0.84909999
4.3852472 0.15179574 0.85291618
4.4155512 0.12507339 0.85864049
4.426064 0.097543612 0.86054856
4.4462194 0.070041277 0.86436474
4.4662008 0.042557117 0.86818093
4.4860115 0.014950017 0.87199712
4.5056496 -0.013171515 0.87581325
4.5251098 -0.041661695 0.87962943
4.5345736 -0.070244879 0.88153756
4.5634847 -0.099376053 0.88726181
4.5725904 -0.12804854 0.88916993
4.6011405 -0.15738368 0.89489418
4.6196823 -0.18695857 0.89871037
4.6380277 -0.21689817 0.90252656
8.0836048 -0.63157964 1.5760822
8.0794773 -0.68235773 1.5760822
8.0652542 -0.73222131 1.5741742
8.0604944 -0.78288209 1.5741742
8.0695353 -0.88625222 1.5779904
8.0638638 -0.93645263 1.5779904
10.066662 -1.8126379 1.9882298
9.9778757 -1.8614506 1.972965
9.8985157 -1.9110805 1.9596083
9.8381805 -1.9636298 1.9500679
9.7583494 -2.0115333 1.9367113
9.6783075 -2.0585115 1.9233546
5.4993482 -1.3140922 1.0990598
5.4910197 -1.3484696 1.0990598
5.5490656 -1.3997506 1.1124164
7.9825177 -2.0665092 1.6027955
7.9695601 -2.1159289 1.6027955
7.9656391 -2.1683221 1.6047037
7.9707685 -2.2236042 1.6085198
7.9472017 -2.2709436 1.6066117
7.932776 -2.3208323 1.6066117
7.9463916 -2.3785996 1.612336
7.9784336 -2.4421539 1.6218765
8.000473 -2.5037451 1.6295087
8.0687304 -2.5808792 1.6466815
5.9622879 -1.9484875 1.2192695
5.9499278 -1.985911 1.2192695
5.9559155 -2.0295887 1.2230856
8.3352222 -2.9577973 1.719189
8.2980127 -3.0034287 1.7153728
8.2421417 -3.0419118 1.7077404
8.2044907 -3.0867255 1.7039243
8.1484594 -3.1236694 1.6962919
8.0832291 -3.1562436 1.6867515
8.0359621 -3.1958666 1.6810272
7.9702311 -3.2278709 1.6714867
6.3890319 -2.6338995 1.3432953
6.41785 -2.6924214 1.3528358
7.8182836 -3.3376031 1.6524059
7.7701478 -3.3749287 1.6466815
7.7128739 -3.4078133 1.6390493
7.6644487 -3.4441366 1.633325
7.6158724 -3.4799864 1.6276007
7.5671492 -3.5153623 1.6218765
7.5184956 -3.5498133 1.6161522
7.4609556 -3.5793443 1.6085198
7.4031229 -3.6087441 1.6008874
7.2571507 -3.5941954 1.5741742
6.9976616 -3.5206041 1.5226557
7.001626 -3.5779023 1.52838
6.9966507 -3.6304481 1.5321962
7.0174479 -3.6966033 1.5417366
7.0288095 -3.7589481 1.549369
7.0223069 -3.8124039 1.5531852
7.1013818 -3.9133029 1.5760822
7.1965971 -4.0249267 1.6027955
7.2479997 -4.1136727 1.6199683
7.3155813 -4.2130189 1.6409574
7.6019726 -4.6346316 1.7306376
7.6730218 -4.7440438 1.7535347
7.7761302 -4.8755937 1.7840641
7.844749 -4.987555 1.8069612
7.9122629 -5.1005702 1.8298582
8.044713 -5.2571087 1.8680201
8.0038033 -5.3014307 1.866112
8.0682783 -5.4170589 1.889009
8.1801577 -5.5670581 1.9233546
8.250062 -5.690804 1.9481598
8.4152727 -5.8831387 1.995862
3.4165323 -8.4339523 1.7687993
3.3671014 -8.4643736 1.7707075
3.6638062 -9.3814459 1.9577003
3.2188134 -8.3958321 1.7478104
3.1217878 -8.2961798 1.7230052
3.069828 -8.315546 1.7230052
2.9740782 -8.2146807 1.6982
2.915838 -8.2147036 1.6943839
2.867394 -8.2421322 1.6962919
2.8440545 -8.3436079 1.7134647
2.8164434 -8.4358015 1.7287295
2.7450838 -8.3973484 1.717281
2.6563709 -8.3022385 1.6943839
2.6158848 -8.3562365 1.7020162
2.4717629 -8.2566423 1.675303
2.4205565 -8.2717991 1.675303
2.3509505 -8.4244146 1.7001082
2.3057094 -8.4674339 1.7058324
2.2499421 -8.4722662 1.7039243
2.107734 -8.5795336 1.717281
1.9876082 -8.3157349 1.6619463
1.9908688 -8.5670967 1.7096486
2.1402133 -9.4795113 1.889009
1.8095 -8.2558346 1.6428654
1.7922944 -8.4302692 1.675303
1.7333474 -8.4125214 1.6695787
1.6938996 -8.4906321 1.6829354
1.6428882 -8.5106478 1.6848434
1.6009313 -8.5785608 1.6962919
1.4814842 -8.5302601 1.6829354
1.4310958 -8.5587635 1.6867515
1.3648274 -8.4900513 1.6714867
1.3129532 -8.5081606 1.6733949
1.3068608 -8.8366938 1.7363619
1.2573453 -8.8835335 1.7439942
1.3075104 -9.6693726 1.8966414
1.201833 -9.3268747 1.8279501
1.0505736 -9.0487175 1.7707075
0.98084879 -8.9380474 1.7478104
0.94889748 -9.1783752 1.7936045
0.88552105 -9.1255341 1.782156
0.82693899 -9.1113157 1.7783399
0.77212459 -9.1358271 1.782156
0.71878564 -9.1894112 1.7916964
0.66455287 -9.2427006 1.8012369
0.60389662 -9.2075129 1.7936045
0.54138541 -9.1327324 1.7783399
0.48814678 -9.2143745 1.7936045
0.046228111 -0.99036515 0.19271708
0.041985005 -1.0396774 0.20225753
0.036120623 -1.0595418 0.20607372
0.028705975 -1.0303087 0.20034944
0.022321831 -1.0304668 0.20034944
0.015875079 -1.0305862 0.20034944
0.0093994327 -1.0306656 0.20034944
0.0029283159 -1.0110718 0.19653326
-0.0033364126 -1.0110705 0.19653326
-0.0097219078 -1.0110292 0.19653326
-0.016319394 -1.0207618 0.19844136
-0.022480981 -1.010826 0.19653326
-0.029022764 -1.0204797 0.19844136
-0.036086921 -1.0398989 0.20225753
-0.04302213 -1.0494596 0.20416562
-0.049151506 -1.0393633 0.20225753
-0.053054288 -0.9900229 0.19271708
-0.061621182 -1.0288649 0.20034944
-0.069381326 -1.0480471 0.20416562
-0.075192861 -1.0378044 0.20225753
-0.081621729 -1.0373186 0.20225753
-0.088109307 -1.0367876 0.20225753
-0.094621867 -1.0362136 0.20225753
-0.10017662 -1.0258288 0.20034944
-0.10763552 -1.0349427 0.20225753
-0.11407413 -1.0342529 0.20225753
-0.12047996 -1.0335262 0.20225753
-0.12694307 -1.0327523 0.20225753
-0.1334295 -1.0319344 0.20225753
-0.13991067 -1.0310756 0.20225753
-0.14638631 -1.0301762 0.20225753
-0.15429822 -1.0389458 0.20416562
-0.16082303 -1.0379559 0.20416562
-0.16890544 -1.0466157 0.20607372
-0.17547815 -1.0455339 0.20607372
-0.18198135 -1.0444216 0.20607372
-0.18670426 -1.033614 0.20416562
-0.19316663 -1.0324258 0.20416562
-0.19964969 -1.0311917 0.20416562
-0.20805129 -1.0395423 0.20607372
-0.22053903 -1.0670539 0.21179798
-0.22723915 -1.0656472 0.21179798
-0.23393029 -1.0641984 0.21179798
-0.24494754 -1.0818554 0.21561415
-0.24728459 -1.0611748 0.21179798
-0.25388375 -1.0596154 0.21179798
-0.26044431 -1.0580219 0.21179798
-0.26465198 -1.0468551 0.20988989
-0.27615568 -1.0641747 0.21370608
-0.28788725 -1.0813903 0.21752225
-0.28692147 -1.0511507 0.21179798
-0.29352036 -1.0493271 0.21179798
-0.30010766 -1.0474622 0.21179798
-0.30944601 -1.0549753 0.21370608
-3.0585511 -8.9549694 1.8393987
-3.0889077 -8.8614216 1.824134
-3.1412351 -8.8325891 1.8222259
-3.1861012 -8.7851849 1.8165016
-3.2336638 -8.7468615 1.8126854
-3.2710116 -8.6805334 1.8031449
-3.3114119 -8.6231537 1.7955126
-3.3512211 -8.5656118 1.7878803
-3.3868043 -8.4987917 1.7783399
-3.4290633 -8.450057 1.7726156
-3.4670959 -8.3920546 1.7649832
-3.5002313 -8.3250704 1.7554427
-3.5401652 -8.2761478 1.7497184
-3.5801182 -8.2268362 1.7439942
-3.6198177 -8.1772509 1.7382699
-3.6590359 -8.1274929 1.7325456
-3.701858 -8.0864916 1.7287295
-3.7484517 -8.0541725 1.7268214
-3.7905855 -8.0127153 1.7230052
-3.8323491 -7.9710469 1.719189
-3.8823566 -7.9468102 1.719189
-3.9147542 -7.8870893 1.7115567
-3.9819102 -7.897397 1.719189
-4.0314522 -7.8722219 1.719189
-4.0536599 -7.7944832 1.7077404
-4.0883379 -7.7430634 1.7020162
-4.1269622 -7.7002792 1.6982
-4.1656699 -7.6570659 1.6943839
-4.1947179 -7.5963683 1.6867515
-4.237565 -7.5612993 1.6848434
-4.270432 -7.5089259 1.6791191
-4.2974558 -7.4481945 1.6714867
-4.3336043 -7.4044819 1.6676706
-4.3597946 -7.3434639 1.6600382
-4.3957205 -7.2991076 1.6562221
-4.4312615 -7.25459 1.6524059
-4.4664168 -7.2099152 1.6485897
-4.4959641 -7.1567731 1.6428654
-4.5250206 -7.1035452 1.6371411
-4.5589123 -7.0584822 1.633325
-4.5924168 -7.0132737 1.6295087
-4.6255336 -6.9679236 1.6256926
-4.6637425 -6.9305792 1.6237845
-4.6906023 -6.876811 1.6180602
-4.7225533 -6.8310547 1.6142441
-4.7541151 -6.7851686 1.6104279
-4.694355 -6.6110964 1.5760822
-4.7243342 -6.5655346 1.5722661
-4.7539263 -6.5198579 1.56845
-4.7769113 -6.4664602 1.5627257
-4.8110032 -6.4288802 1.5608176
-4.8392653 -6.3830132 1.5570014
-4.8673162 -6.3369117 1.5531852
-4.9010077 -6.2984571 1.5512772
-4.9344082 -6.25983 1.549369
-4.9610195 -6.2136583 1.5455528
-4.9870801 -6.1675344 1.5417366
-5.0131254 -6.121027 1.5379205
-5.1392274 -6.1951809 1.5646337
-5.2538276 -6.2529545 1.5875309
-5.2484794 -6.1674905 1.5741742
-5.1589546 -5.9856791 1.5360124
-5.209372 -5.967937 1.5398285
-5.3832998 -6.0895324 1.5798985
-5.4607406 -6.0994692 1.591347
-6.3556881 -7.0108089 1.8393987
-6.5649552 -7.1520848 1.8871009
-6.7900114 -7.3050051 1.9386194
-7.0174351 -7.4551897 1.9901378
-0.086780868 -0.016558252 0.01717281
-0.11609992 -0.019913146 0.02289708
-10.857973 1.4545439 -0.57412541
-10.907955 1.531069 -0.57726556
-10.977269 1.6104605 -0.58145249
-11.04605 1.6905316 -0.58563936
-11.094419 1.7690935 -0.58877951
-14.023664 2.4172647 -0.74578738
-14.39158 2.5739007 -0.7661984
-14.247477 2.6406124 -0.75939471
-14.152143 2.7150311 -0.75520784
-14.046647 2.7864058 -0.75049758
-14.077777 2.884635 -0.7531144
-14.078916 2.9771593 -0.75416112
-14.245316 3.1059844 -0.76410496
-14.430133 3.2413864 -0.77509552
-14.331647 3.3139868 -0.77090859
-14.223105 3.3831675 -0.7661984
-14.094861 3.4463794 -0.76044142
-14.005132 3.5178382 -0.75677794
-13.924731 3.5908072 -0.75363773
-13.815247 3.6543372 -0.74892753
-13.724871 3.7215731 -0.74526399
-13.6337 3.7896092 -0.74160051
-12.386451 3.6117876 -0.67618054
-12.430821 3.7084494 -0.67984408
-12.388256 3.7803774 -0.67879736
-12.612115 3.9354846 -0.69240469
-12.482745 3.9804502 -0.68664771
-12.362889 4.0267901 -0.68141413
-12.517474 4.1640067 -0.69135797
-12.585621 4.2746935 -0.69659156
-12.690611 4.399477 -0.70391858
-12.634473 4.4691401 -0.70234853
-12.559176 4.5314865 -0.69973171
-12.46485 4.586174 -0.69606823
-12.389039 4.646863 -0.6934514
-12.48086 4.7709718 -0.7002551
-12.57193 4.8955855 -0.70705873
-12.662034 5.0212445 -0.71386242
-12.750725 5.149035 -0.72066611
-13.022911 5.3543663 -0.73793697
-13.127194 5.4939127 -0.74578738
-13.211854 5.6271596 -0.75259101
-17.32534 11.620214 -1.0932981
-17.251991 11.728837 -1.0932981
-17.375305 11.973 -1.1058587
-17.422548 12.167699 -1.1137091
-9.3352489 8.6585426 -0.66728342
-9.230464 8.6683645 -0.66361994
-9.1977196 8.7466316 -0.66518998
-9.1569662 8.8181067 -0.6662367
-9.1299801 8.9033527 -0.66833013
-17.483971 17.483969 -1.2958382
-9.0287828 9.4944191 -0.68664771
-8.9416027 9.5218449 -0.68455428
-8.8001194 9.4899654 -0.67827398
-8.7740412 9.5818939 -0.6808908
-8.7008963 9.6214504 -0.67984408
-8.6876793 9.7273149 -0.68350756
-6.816731 7.9279771 -0.54795748
-6.7732444 7.9782658 -0.54848081
-6.7358146 8.0359707 -0.54952753
-1.2975758 1.60918 -0.10833543
-1.2999494 1.6328708 -0.10938215
-1.2651218 1.6094893 -0.10728871
-1.2550199 1.6173788 -0.10728871
-1.2448325 1.6252327 -0.10728871
-1.2345967 1.6330217 -0.10728871
-1.2243123 1.6407464 -0.10728871
-1.2080576 1.6403651 -0.10676535
-1.1918554 1.6398455 -0.10624199
-1.1931697 1.6635309 -0.10728871
-1.1884627 1.6791465 -0.10781207
-1.1836072 1.6947676 -0.10833543
-1.1729349 1.7021713 -0.10833543
-1.1678318 1.7177656 -0.10885879
-1.1403276 1.7001889 -0.10728871
-1.1186023 1.6906631 -0.10624199
-1.1024991 1.6892955 -0.10571863
-1.0864584 1.6877921 -0.10519527
-1.0758319 1.6945854 -0.10519527
-1.0598644 1.692847 -0.10467191
-4.7928391 8.9766579 -0.53330338
-4.7272453 8.9888124 -0.53225666
-4.6844497 9.0449409 -0.53382677
-4.6269341 9.0744982 -0.53382677
-4.5735083 9.1127157 -0.5343501
-4.5298338 9.1679325 -0.5359202
-4.4248924 9.0970411 -0.53016323
-4.3764725 9.1425819 -0.53120995
-4.294827 9.2693424 -0.53539681
-4.2157927 9.2507105 -0.53278005
-4.141252 9.2405634 -0.53068662
-4.0670009 9.2298479 -0.52859312
-4.0089307 9.2552185 -0.52859312
-6.105978 14.343001 -0.81696427
-6.050426 14.463997 -0.82167453
-5.9821982 14.557149 -0.82481468
-5.9504223 14.742614 -0.83318841
-5.8907857 14.863266 -0.83789867
-5.7900434 14.881371 -0.83685195
-5.667923 14.842824 -0.83266503
-5.4904642 14.653708 -0.82010442
-5.4258404 14.762903 -0.82429129
-5.3600674 14.87186 -0.82847816
-5.2565346 14.876998 -0.82690811
-5.1433544 14.853111 -0.82376796
-5.0338826 14.837852 -0.82115114
-4.9257855 14.821479 -0.81853431
-4.8184028 14.804235 -0.81591755
-4.7104621 14.786537 -0.81330073
-4.6026025 14.768173 -0.81068397
-4.4951677 14.749037 -0.80806714
-4.3909998 14.738708 -0.80597371
-4.2833915 14.718345 -0.80335689
-4.1758904 14.697305 -0.80074012
-4.0707631 14.674958 -0.7981233
-3.9693191 14.661342 -0.79602987
-3.8637404 14.637882 -0.7934131
-3.7629464 14.633185 -0.791843
-3.6609092 14.61787 -0.78974956
-3.5784471 14.679394 -0.791843
-3.511493 14.808473 -0.79759997
-3.4430571 14.937284 -0.80335689
-3.3763015 15.075343 -0.80963725
-3.3061714 15.203314 -0.81539416
-3.2325838 15.331412 -0.82115114
-3.1568313 15.459322 -0.82690811
-3.0825369 15.596479 -0.83318841
-3.0050983 15.723436 -0.83894539
-2.9298196 15.869671 -0.84574902
-2.8493097 15.995914 -0.85150599
-2.7717648 16.141272 -0.85830969
-2.6912482 16.276365 -0.86458999
-2.609664 16.421108 -0.87139368
-2.5244961 16.555649 -0.87767398
-2.4391921 16.699642 -0.88447767
-2.3549309 16.862993 -0.89232802
-2.2779546 17.09523 -0.90384197
-2.1805568 17.188459 -0.90802884
-2.084466 17.300966 -0.91326243
-1.9938309 17.472473 -0.92163616
-1.8904331 17.544228 -0.92477632
-0.30676794 4.0327988 -0.21196061
-0.2835089 4.0645328 -0.2135307
-0.25417054 4.0064363 -0.21039054
-0.22811338 3.9879994 -0.20934382
-0.20289059 3.979363 -0.20882046
-0.17797162 3.9805553 -0.20882046
-0.1529566 3.981595 -0.20882046
-0.12761702 3.9724963 -0.2082971
-0.10213989 3.9532537 -0.20725039
-0.077495225 3.9638019 -0.20777375
-0.052719925 3.974196 -0.2082971
-0.027819179 3.9844348 -0.20882046
-0.002782749 3.9845309 -0.20882046
0.022476802 4.0244141 -0.2109139
1.3632812 19.946028 -1.0477659
1.4796555 19.817566 -1.0414855
1.6135069 19.90731 -1.0467191
1.7489934 19.996111 -1.0519527
4.2440333 18.513716 -0.99542987
4.3919621 18.622856 -1.002757
4.4076943 18.177574 -0.98025244
0.80934089 3.1636338 -0.17113857
0.83173835 3.1681452 -0.17166193
0.82566357 3.0664282 -0.16642834
0.83694321 3.0323007 -0.16485827
0.85054427 3.0077634 -0.16381153
0.86664796 2.9927676 -0.16328818
0.87975901 2.9681141 -0.16224146
0.90128881 2.9720845 -0.16276482
0.91402888 2.9472866 -0.1617181
0.92045754 2.9034081 -0.15962467
0.94483721 2.9165678 -0.16067138
0.95059472 2.8726509 -0.15857795
0.98141229 2.9044645 -0.16067138
1.0094106 2.9265625 -0.16224146
1.0211478 2.9013226 -0.16119474
1.032608 2.8760517 -0.16014802
7.5608315 18.798677 -1.0618966
7.6598744 18.704594 -1.0592797
7.7452908 18.582865 -1.0550928
1.6063132 3.7226615 -0.21248397
1.6336855 3.7216394 -0.21300733
1.6532078 3.7020743 -0.21248397
1.6932778 3.7278368 -0.21457742
1.7165047 3.7171988 -0.21457742
1.7352604 3.6974521 -0.21405406
1.7583773 3.6865146 -0.21405406
3.603663 6.4745045 -0.38833278
3.6688292 6.4952097 -0.39094958
3.7840564 6.6019902 -0.39879999
3.8555849 6.62988 -0.40194014
3.9123886 6.6313267 -0.40351021
3.6015685 5.9328661 -0.3637349
3.612596 5.8676014 -0.36111808
3.7491424 5.8407302 -0.3637349
3.7907052 5.8257589 -0.36425826
3.8601 5.8519268 -0.36739841
3.8912416 5.8192563 -0.36687505
3.9389341 5.8112245 -0.36792177
10.271455 12.446988 -0.84574902
10.317437 12.343894 -0.84313226
10.349626 12.225471 -0.83946872
10.400235 12.129877 -0.83737528
10.49908 11.938238 -0.83318841
10.520746 11.812377 -0.82900155
10.5873 11.739318 -0.82847816
10.646365 11.658746 -0.82743144
10.685256 11.555198 -0.82481468
10.743996 11.473254 -0.82376796
10.802129 11.391029 -0.82272124
10.845819 11.294122 -0.82062781
10.895681 11.204275 -0.8190577
10.958858 11.128479 -0.81853431
11.01446 11.04526 -0.8174876
11.069449 10.961784 -0.81644088
11.116686 10.871071 -0.81487083
11.170404 10.787134 -0.81382412
11.223507 10.702952 -0.8127774
11.261453 10.604837 -0.81068397
11.327863 10.53387 -0.81068397
11.379113 10.448979 -0.80963725
11.429745 10.363861 -0.80859053
11.472318 10.271857 -0.80702043
11.535963 10.200327 -0.80702043
11.583898 10.115519 -0.80597371
11.6401 10.035507 -0.80545038
11.69619 9.9546795 -0.80492699
11.758721 9.8807364 -0.80492699
11.812886 9.8002834 -0.80440366
11.873593 9.7266455 -0.80440366
11.93363 9.6528912 -0.80440366
11.993836 9.5779819 -0.80440366
12.061622 9.5086164 -0.80492699
12.199939 9.4939737 -0.81016058
12.489015 9.5935516 -0.82533801
13.76655 10.438024 -0.90541202
13.81587 10.339354 -0.9043653
13.880562 10.252342 -0.9043653
13.944705 10.164927 -0.9043653
14.015744 10.083858 -0.90488869
14.069811 9.9910431 -0.9043653
14.13274 9.9018269 -0.9043653
14.195532 9.811595 -0.9043653
14.248225 9.7172031 -0.90384197
14.324729 9.6398869 -0.90488869
14.376487 9.5444832 -0.9043653
14.461235 9.4703789 -0.90593541
14.562395 9.4064217 -0.90855217
14.646477 9.3308353 -0.91012228
14.738639 9.2598753 -0.91221571
14.923865 9.2459784 -0.92006612
15.470198 8.0429831 -0.91378576
15.08486 7.7226357 -0.88814116
14.999321 7.5602808 -0.88029075
14.849724 7.368237 -0.86877686
13.998393 6.8365493 -0.81644088
14.770128 7.0988603 -0.85883301
11.420029 5.400661 -0.66204983
11.200214 5.2108512 -0.64739579
10.460881 4.7871566 -0.60291022
10.199344 4.5901866 -0.58616269
10.145794 4.4896421 -0.58145249
10.18267 4.4304566 -0.58197582
10.246651 4.3829913 -0.58406925
10.273893 4.318748 -0.58406925
10.319286 4.261734 -0.58511597
10.17956 4.1285758 -0.57569551
9.9180403 3.9491236 -0.55947137
2.8317459 1.0662875 -0.15857795
2.8195634 1.0417998 -0.15753123
7.9060426 2.5871475 -0.4359585
7.7509551 2.4825912 -0.42653805
7.6044021 2.3830745 -0.41764092
7.4855547 2.2942786 -0.4103139
4.0278988 1.0169713 -0.21771757
3.9566281 0.97257322 -0.2135307
3.8946741 0.93143451 -0.20986718
3.9296298 0.91373038 -0.21143726
3.9352934 0.88902187 -0.21143726
3.950556 0.86641759 -0.21196061
3.9656343 0.8439163 -0.21248397
3.9805672 0.82134783 -0.21300733
3.9954247 0.79836494 -0.2135307
4.0003619 0.77324533 -0.2135307
4.0149579 0.74992871 -0.21405406
4.0294185 0.72645915 -0.21457742
4.0437422 0.70283747 -0.21510078
4.0579276 0.67906433 -0.21562414
4.0818334 0.6567269 -0.21667086
4.0957484 0.63259149 -0.21719421
4.1094809 0.6085763 -0.21771757
4.1230602 0.58450478 -0.21824093
4.1365352 0.56001729 -0.21876429
4.1597805 0.53657085 -0.21981101
4.1729817 0.511639 -0.22033437
4.1959534 0.48771536 -0.2213811
4.2088614 0.46243256 -0.22190446
4.2315502 0.43803501 -0.22295117
4.2441587 0.41240472 -0.22347453
4.2665567 0.38753656 -0.22452125
4.2688837 0.36100057 -0.22452125
4.2909503 0.33610412 -0.22556797
4.3029308 0.30994743 -0.22609133
4.3247232 0.28421509 -0.22713804
4.3363924 0.25762883 -0.2276614
4.3478975 0.23090711 -0.22818476
4.3692131 0.2045185 -0.22923149
4.4003463 0.17827477 -0.23080157
4.4113603 0.15096533 -0.23132493
4.422204 0.12352393 -0.23184828
4.412909 0.09551999 -0.23132493
4.4433775 0.068251237 -0.232895
4.4636874 0.040804569 -0.23394172
4.4938135 0.01323589 -0.23551179
4.5037947 -0.014935274 -0.23603515
4.5235834 -0.043424737 -0.23708187
4.5431914 -0.072163455 -0.2381286
4.5626159 -0.10115027 -0.23917532
4.5718813 -0.12980044 -0.23969868
4.5909495 -0.15881492 -0.2407454
4.6098213 -0.18837267 -0.24179211
4.6384726 -0.21874443 -0.24336219
4.6469784 -0.24841744 -0.24388555
4.8857145 -0.41455927 -0.25696954
4.9128485 -0.44796926 -0.25853962
4.9397545 -0.48173645 -0.26010969
4.9862943 -0.5179221 -0.26272649
5.0027943 -0.55142975 -0.2637732
5.0191073 -0.5848363 -0.26481992
5.0352111 -0.61835694 -0.26586667
5.0609527 -0.65371037 -0.26743674
5.0765367 -0.68817919 -0.26848346
5.1017742 -0.72427315 -0.27005354
5.1366353 -0.76217699 -0.27214697
5.1515346 -0.79715425 -0.27319369
5.1760745 -0.83382154 -0.27476376
5.2101483 -0.872814 -0.2768572
5.234077 -0.91066825 -0.27842727
5.2577343 -0.94885749 -0.27999735
5.2811174 -0.98737979 -0.28156745
5.3042226 -1.0262331 -0.28313753
5.3368397 -1.067374 -0.28523096
5.3593674 -1.106945 -0.28680104
5.3913741 -1.1489224 -0.28889447
5.4133101 -1.1892028 -0.29046455
5.4446917 -1.2320077 -0.29255798
5.4661045 -1.2726305 -0.29412806
5.4969625 -1.3157724 -0.29622149
5.4692216 -1.345394 -0.29517478
5.4800243 -1.384624 -0.29622149
7.7786326 -2.0684619 -0.42182779
7.8137021 -2.1302595 -0.42444459
7.8578711 -2.1954353 -0.42758477
7.9015269 -2.2612495 -0.43072492
7.9350801 -2.3248906 -0.43334171
7.9683003 -2.38852 -0.4359585
8.0201836 -2.4583304 -0.43962201
8.0808687 -2.5323894 -0.44380891
5.9480052 -1.9878656 -0.32866979
5.8881416 -2.0090744 -0.32605299
5.9697099 -2.0788724 -0.33128661
8.027729 -2.9663613 -0.44851914
7.9528604 -2.9956214 -0.44537899
7.9154339 -3.0378563 -0.44433227
7.636035 -2.9850366 -0.4296782
7.9883127 -3.1805515 -0.45061257
7.8941345 -3.2006626 -0.44642571
6.4248075 -2.6515591 -0.36425826
6.4450846 -2.7067823 -0.36635169
6.4280105 -2.7470839 -0.36635169
6.4930453 -2.8232563 -0.37106192
6.5573735 -2.9003527 -0.37577215
6.6209865 -2.9783676 -0.38048241
6.6838741 -3.0572948 -0.38519263
6.7279181 -3.1287067 -0.38885614
6.7715364 -3.2003479 -0.39251965
6.8235941 -3.2768254 -0.39670655
6.8926921 -3.3632786 -0.40194014
6.9608955 -3.4508758 -0.40717372
7.0728626 -3.5619197 -0.41502413
7.0859056 -3.6244798 -0.41711757
7.1341305 -3.705291 -0.42130443
7.1287036 -3.7587371 -0.42235115
7.0962243 -3.7985864 -0.42182779
7.0722175 -3.8430982 -0.42182779
7.1266298 -3.9308665 -0.42653805
7.1889296 -4.0243464 -0.43177164
7.397944 -4.2026176 -0.44590235
7.5011702 -4.3238239 -0.45375273
7.5859203 -4.4364066 -0.46055642
7.6609583 -4.5451274 -0.46683672
7.7266736 -4.6493087 -0.47259367
7.8000135 -4.7595134 -0.478874
7.8804541 -4.8765726 -0.48567766
7.9511623 -4.9896884 -0.49195799
7.9870558 -5.0824385 -0.49614486
8.0388775 -5.1866622 -0.50137848
8.0231886 -5.2474771 -0.50242519
2.9425058 -1.9772812 -0.18579264
2.9217706 -1.9901086 -0.18526928
2.9009905 -2.0027537 -0.18474592
2.8719852 -2.0094914 -0.18369921
2.8430102 -2.0159442 -0.18265249
9.3709831 -7.0949359 -0.61599422
9.4851713 -7.2746119 -0.62646139
9.6055298 -7.4618936 -0.63745195
9.5900106 -7.5465932 -0.63954538
9.6283026 -7.6751723 -0.64530236
9.7275105 -7.8547182 -0.65524614
9.7166157 -7.9472947 -0.65786296
10.081757 -8.3522158 -0.68612438
10.250928 -8.6015491 -0.70130181
10.425545 -8.8591146 -0.71700257
10.612683 -9.1319752 -0.7337501
10.811274 -9.4213133 -0.7515443
11.036385 -9.740159 -0.77143198
11.25046 -10.055541 -0.79079628
7.1443062 -6.6299 -0.51079893
7.1172085 -6.6881804 -0.51184565
7.0895138 -6.7465353 -0.51289237
13.172707 -14.205947 -1.0153176
13.009316 -14.207131 -1.0095606
13.428816 -14.851542 -1.049336
13.887269 -15.553906 -1.0927747
13.762851 -15.610892 -1.0906813
13.657937 -15.689526 -1.090158
7.0431747 -8.194231 -0.56627506
6.8563838 -8.07798 -0.5552845
6.4148941 -7.6534457 -0.52335954
12.662885 -16.313869 -1.0823076
12.590859 -16.43247 -1.0849243
12.469292 -16.487362 -1.0833542
12.359479 -16.557381 -1.0828309
12.37959 -16.803551 -1.0938215
12.198522 -16.7752 -1.0870178
11.942954 -16.639523 -1.0734104
11.181022 -16.657951 -1.0514294
11.048571 -16.686243 -1.0488125
10.641057 -16.748236 -1.0399154
10.47729 -16.721678 -1.0341585
10.17537 -16.696951 -1.024738
10.029479 -16.691854 -1.0205511
9.9752979 -16.840464 -1.0257847
9.15347 -16.620024 -0.99438316
9.0979481 -16.764191 -0.99961674
9.0681362 -16.961735 -1.0079905
8.9381199 -16.974195 -1.0053737
8.946228 -17.251648 -1.0184577
8.7831593 -17.20079 -1.0121773
8.6894989 -17.281836 -1.0137475
8.591114 -17.353243 -1.0147942
8.4604187 -17.361809 -1.0121773
8.3554831 -17.42363 -1.0127007
8.224535 -17.430626 -1.0100839
8.1232634 -17.500074 -1.0111307
8.018445 -17.559328 -1.011654
7.8890376 -17.563124 -1.0090373
7.7668104 -17.58477 -1.0074672
7.6402607 -17.596582 -1.0053737
7.5648241 -17.726906 -1.0100839
7.4726028 -17.820133 -1.0127007
7.3110385 -17.746698 -1.005897
7.1731687 -17.727484 -1.0022335
6.3610096 -16.008904 -0.90279526
6.2167478 -15.936913 -0.89651489
6.0068288 -15.686156 -0.88029075
5.7303381 -15.246334 -0.85359943
5.6485829 -15.319393 -0.85569286
5.5725923 -15.410929 -0.85883301
5.9553552 -17.139963 -0.9509443
5.8571992 -17.205404 -0.95251441
5.7679319 -17.298708 -0.95565456
5.8977656 -18.065584 -0.9959532
5.3403754 -16.713459 -0.91954273
5.2054605 -16.651369 -0.91430914
5.0948949 -16.664648 -0.91326243
4.9969025 -16.715139 -0.91430914
4.9268494 -16.860806 -0.92058945
2.674999 -9.8388491 -0.5343501
2.6080086 -9.8361568 -0.53330338
2.5667949 -9.9295301 -0.53749025
4.5738029 -18.157089 -0.98129916
4.3815293 -17.865309 -0.9640283
4.1996617 -17.601078 -0.94832748
4.0303164 -17.374189 -0.93472016
3.857404 -17.116652 -0.91954273
3.6900239 -16.867395 -0.90488869
3.5300763 -16.636257 -0.89128131
3.3731811 -16.403788 -0.87767398
3.2232485 -16.1896 -0.86511332
3.0866339 -16.023014 -0.85516953
2.9361093 -15.76694 -0.84051543
2.8832643 -16.040564 -0.85412282
2.7483237 -15.861568 -0.84365559
0.13064687 -0.84882599 -0.04500892
0.13551071 -0.91878605 -0.048672438
0.1325867 -0.93938744 -0.049719159
0.12943237 -0.95998442 -0.050765876
0.12341905 -0.96077603 -0.050765876
0.11616981 -0.9516198 -0.050242517
0.10904055 -0.94241083 -0.049719159
0.10311709 -0.94307733 -0.049719159
0.0982126 -0.9536404 -0.050242517
0.092218786 -0.95423865 -0.050242517
0.086283892 -0.95479357 -0.050242517
0.080366522 -0.95530987 -0.050242517
0.073608622 -0.94583815 -0.049719159
0.066952065 -0.93632108 -0.049195796
0.061067693 -0.93672329 -0.049195796
0.36833125 -13.406536 -0.70287186
0.2850475 -13.398577 -0.70234853
0.20039976 -13.350173 -0.69973171
0.11642745 -13.341183 -0.69920838
0.033449445 -13.331662 -0.69868499
-0.049081478 -13.311641 -0.69763827
-0.13229746 -13.211206 -0.69240469
-0.2161296 -13.190125 -0.69135797
-0.29616582 -13.088683 -0.68612438
-0.37495643 -13.00674 -0.68193752
-0.4521853 -12.884375 -0.67565721
-0.050417904 -1.057346 -0.055476114
-0.059213597 -1.0968953 -0.057569552
-0.067907237 -1.1264063 -0.059139628
-0.074319713 -1.1159931 -0.058616269
-0.080531612 -1.1055496 -0.058092911
-0.087380134 -1.1050293 -0.058092911
-0.093447834 -1.0945106 -0.057569552
-0.10123499 -1.1038463 -0.058092911
-0.10719414 -1.0932498 -0.057569552
-0.11302416 -1.0826224 -0.05704619
-0.11975334 -1.0818987 -0.05704619
-0.12529413 -1.0712173 -0.056522831
-0.13199891 -1.0704118 -0.056522831
-0.1374374 -1.0596579 -0.055999473
-0.14678602 -1.0785637 -0.05704619
-0.15355989 -1.0776201 -0.05704619
-0.15885682 -1.0667566 -0.056522831
-0.16555628 -1.0657375 -0.056522831
-0.17384411 -1.0745343 -0.05704619
-0.18390577 -1.0931166 -0.058092911
-0.1889808 -1.0821146 -0.057569552
-0.19212419 -1.0612698 -0.056522831
-0.19876537 -1.060046 -0.056522831
-0.20542186 -1.0587761 -0.056522831
-0.21010637 -1.0476733 -0.055999473
-0.21668492 -1.0463325 -0.055999473
-0.2316009 -1.0840139 -0.058092911
-0.2319639 -1.0532796 -0.056522831
-0.2407863 -1.0615402 -0.05704619
-0.24972156 -1.0697312 -0.057569552
-0.25636795 -1.0681579 -0.057569552
-0.26537213 -1.0762448 -0.058092911
-0.26965424 -1.0648813 -0.057569552
-0.27633974 -1.063166 -0.057569552
-0.28558716 -1.0710579 -0.058092911
-0.29231116 -1.0692425 -0.058092911
-0.30171752 -1.0770007 -0.058616269
-0.31123281 -1.0846827 -0.059139628
-0.31804189 -1.0827059 -0.059139628
-0.32771307 -1.0902498 -0.05966299
-0.33155146 -1.0786455 -0.059139628
-0.35020083 -1.1146792 -0.061233066
-0.35412058 -1.1029564 -0.060709707
-0.36415607 -1.1101986 -0.061233066
-0.37112445 -1.1078886 -0.061233066
-0.38130957 -1.1149839 -0.061756428
-3.4236152 -8.7405281 -0.49195799
-3.4636638 -8.6817436 -0.48986453
-3.5143855 -8.6505575 -0.48934117
-4.419806 -10.686179 -0.60605037
-4.5287781 -10.759738 -0.61180735
-4.6345434 -10.638401 -0.60814381
-4.7619824 -10.746021 -0.61599422
-3.91768 -8.0111332 -0.46736008
-3.9723811 -7.9953032 -0.46788344
-3.9910421 -7.9077797 -0.46421993
-4.0406494 -7.8825474 -0.46421993
-4.0808744 -7.8392878 -0.46317321
-4.1248713 -7.804934 -0.46264985
-4.1589899 -7.7528257 -0.46107978
-4.1883478 -7.6915522 -0.45898634
-4.2172694 -7.6301236 -0.45689288
-4.2553563 -7.5860562 -0.45584616
-4.288116 -7.533133 -0.45427608
-4.3198891 -7.480382 -0.45270601
-4.3510103 -7.4276233 -0.45113593
-4.387229 -7.3830647 -0.45008922
-4.4180655 -7.3296947 -0.44851914
-4.4536142 -7.2847505 -0.44747242
-4.4887729 -7.2396493 -0.44642571
-4.5182252 -7.1859407 -0.44485563
-4.5525494 -7.1405692 -0.44380891
-4.586482 -7.0950508 -0.4427622
-4.6200228 -7.0493884 -0.44171545
-4.6531715 -7.0035853 -0.44066873
-4.6803489 -6.9493618 -0.43909866
-4.7182899 -6.9115696 -0.4385753
-4.7502589 -6.8653631 -0.43752858
-4.6900964 -6.6882076 -0.42810813
-4.7204571 -6.6423268 -0.42706141
-4.7504268 -6.5963292 -0.42601466
-4.7741184 -6.542151 -0.42444459
-4.8028297 -6.4962807 -0.42339787
-4.8310142 -6.4504123 -0.42235115
-4.8652711 -6.4120822 -0.42182779
-4.893291 -6.3655515 -0.42078108
-4.9270544 -6.3268018 -0.42025772
-4.954339 -6.2800388 -0.419211
-4.9808226 -6.23351 -0.41816428
-5.0130682 -6.1947656 -0.41764092
-5.1023998 -6.2250443 -0.42182779
-5.2626114 -6.3388476 -0.43177164
-5.1288047 -6.0992899 -0.41764092
-5.167026 -6.0669446 -0.41764092
-5.3681092 -6.2234058 -0.43072492
-5.4005356 -6.1820335 -0.43020156
-5.4723573 -6.1853757 -0.43281835
-5.7976642 -6.4706855 -0.4553228
-5.8310747 -6.4271164 -0.45479944
-5.8775411 -6.3982177 -0.4553228
-5.9174871 -6.3612909 -0.4553228
-5.9436445 -6.3094473 -0.45427608
-5.9693842 -6.2575264 -0.45322937
-6.0085835 -6.2198963 -0.45322937
-6.0401573 -6.1752777 -0.45270601
-6.261003 -6.3222222 -0.46631336
-6.5762434 -6.5579052 -0.48672438
-6.9161649 -6.8107476 -0.5087055
-7.2738295 -7.0734901 -0.53173333
-7.606245 -7.304327 -0.55266768
-7.9708219 -7.5587416 -0.57569551
-8.2951479 -7.7678952 -0.5955832
-8.6957264 -8.0410614 -0.62070441
-9.2180414 -8.4172277 -0.65419942
-9.5822439 -8.6400108 -0.67618054
-9.7556763 -8.6858826 -0.68455428
-9.8019943 -8.6184635 -0.68403095
-9.8552046 -8.5575666 -0.68403095
-10.007148 -8.5801945 -0.69083458
-9.9465332 -8.4203634 -0.68298423
-10.006906 -8.3641052 -0.68350756
-10.036154 -8.2819967 -0.68193752
-10.103477 -8.23139 -0.68298423
-10.147215 -8.1614876 -0.68246084
-10.245219 -8.1348286 -0.685601
-10.209674 -8.0025291 -0.67984408
-10.204466 -7.8954453 -0.67618054
-6.7192974 -4.6804771 -0.42915484
-6.6004338 -4.5363531 -0.41973436
-6.6370711 -4.5003963 -0.42025772
-6.7067189 -4.4863682 -0.42287451
-6.7014346 -4.4221396 -0.42078108
-6.6788702 -4.34726 -0.41764092
-6.7732816 -4.3483696 -0.42182779
-6.7920322 -4.300384 -0.42130443
-6.8440499 -4.2739391 -0.42287451
-6.8108797 -4.1947923 -0.419211
-6.828474 -4.146883 -0.41868764
-6.9829149 -4.1808453 -0.42653805
-7.0348463 -4.1521158 -0.42810813
-7.0349002 -4.0927672 -0.42653805
-7.0431504 -4.0385504 -0.4254913
-6.9553618 -3.9303491 -0.41868764
-6.9973693 -3.8962862 -0.41973436
-7.0304675 -3.8570471 -0.42025772
-7.195127 -3.8887684 -0.42863148
-7.2723083 -3.8716412 -0.43177164
-7.1726718 -3.7609477 -0.42444459
-7.7236519 -3.2213748 -0.4385753
-7.586647 -3.108418 -0.4296782
-7.5224504 -3.0276294 -0.42496794
-7.5410657 -2.9809616 -0.42496794
-7.6899199 -2.984267 -0.43229499
-7.5592012 -2.8790216 -0.42392123
-7.5397234 -2.8174865 -0.42182779
-7.7166739 -2.8284831 -0.43072492
-7.753088 -2.7867 -0.43177164
-7.911725 -2.7877116 -0.43962201
-7.8535695 -2.7118704 -0.43543515
-7.8893728 -2.6688719 -0.43648186
-7.8017106 -2.5847025 -0.43072492
-7.9222875 -2.5695229 -0.43648186
-7.947794 -2.5227163 -0.43700522
-7.9825621 -2.478652 -0.43805194
-8.0169296 -2.4347754 -0.43909866
-8.0510082 -2.3907406 -0.44014537
-8.0466375 -2.3347185 -0.43909866
-8.0803642 -2.2895589 -0.44014537
-15.46731 -4.2778368 -0.84103882
-15.243204 -4.1129308 -0.82743144
-14.988673 -3.9433897 -0.81225401
-14.771318 -3.7871327 -0.79917002
-14.591356 -3.6434464 -0.78817952
-14.633368 -3.5564115 -0.78922623
-14.704016 -3.4758883 -0.791843
-14.754765 -3.3901367 -0.7934131
-14.805013 -3.3038926 -0.79498315
-14.87428 -3.22137 -0.79759997
-14.933318 -3.1360626 -0.79969341
-15.001658 -3.0521231 -0.80231017
-15.059731 -2.9655268 -0.80440366
-15.117308 -2.8783128 -0.8064971
-15.184018 -2.7933011 -0.80911386
-15.230532 -2.7044041 -0.81068397
-15.296382 -2.6174135 -0.81330073
-8.9167118 -1.4106772 -0.47311702
-8.7970476 -1.3351417 -0.46631336
-8.8843222 -1.2913358 -0.47050023
-8.7735653 -1.2189949 -0.46421993
-8.7612514 -1.1612233 -0.46317321
-9.0457926 -1.1411465 -0.47782728
-9.0924454 -1.0890408 -0.47992072
-9.1189547 -1.0341382 -0.48096743
-8.9365473 -0.95721436 -0.47102359
-9.041666 -0.91184479 -0.47625721
-9.0471973 -0.85521656 -0.47625721
-9.1021309 -0.8027389 -0.478874
-9.1369028 -0.74738115 -0.48044407
-9.1813107 -0.69215977 -0.48253751
-9.1556044 -0.63219661 -0.48096743
-9.1892967 -0.57653153 -0.48253751
-9.2425556 -0.52220368 -0.4851543
-12.107332 -0.38260391 -0.63483512
-12.229295 -0.30955327 -0.64111543
-12.141153 -0.23020674 -0.63640523
-12.202286 -0.15361427 -0.63954538
-12.252942 -0.076992899 -0.64216214
-11.763856 -9.4563393e-07 -0.61651754
-10.440777 0.72093076 -0.54848081
-10.465916 0.78877181 -0.55005091
-10.510575 0.85788906 -0.55266768
-10.554797 0.92736709 -0.5552845
-10.618381 0.9999873 -0.55894798
-10.661569 1.0716811 -0.5615648
-11.002166 1.1757867 -0.57988238
-10.905255 1.2347828 -0.57517213
-10.907197 1.3044608 -0.57569551
-10.849246 1.3667288 -0.57307869
-10.889945 1.4414124 -0.57569551
-10.949914 1.519418 -0.57935905
0.023118548 0.074442416 0.017996084
0.086153992 0.079049394 0.026994126
0.10109047 0.091590934 0.031493146
0.065355398 0.058470402 0.020245595
0.065717369 0.058063269 0.020245595
0.088586576 0.076313406 0.026994126
0.08954633 0.075184919 0.026994126
0.067512721 0.055965602 0.020245595
0.075398989 0.061716795 0.022495106
0.068201937 0.055123601 0.020245595
0.076162271 0.060772348 0.022495106
0.076542608 0.060292609 0.022495106
0.1076879 0.083734684 0.031493146
0.10821189 0.083056413 0.031493146
0.10924704 0.081690066 0.031493146
0.094512798 0.068837836 0.026994126
0.095359653 0.067659833 0.026994126
0.11175097 0.078229807 0.031493146
0.088944018 0.059805229 0.024744615
2.8863018 1.1269183 0.71534437
2.8660297 1.0983009 0.70859581
2.8363173 1.0667551 0.69959778
7.7399435 2.4757135 1.8760917
7.5600672 2.365921 1.8288521
7.4350276 2.2755988 1.7951094
7.0362468 2.0093076 1.6893824
6.9265804 1.9315341 1.6601387
6.8067918 1.8527536 1.6286457
6.6393366 1.7625591 1.585905
6.6408472 1.7183673 1.5836554
5.4704914 1.3789148 1.3024666
5.4128065 1.3282608 1.28672
5.1462021 1.2286087 1.2214842
5.0209408 1.1654075 1.1899911
5.0091538 1.1295505 1.185492
4.9114509 1.0751354 1.1607474
4.8799109 1.0365061 1.1517494
4.7013378 0.93750006 1.1067592
4.6975684 0.90609688 1.1045097
4.6073809 0.85871083 1.0820146
4.3318491 0.61239207 1.0100303
4.2873211 0.57871622 0.99878269
4.2425518 0.54555333 0.98753512
4.1878653 0.51179409 0.97403806
4.1813192 0.48434982 0.97178853
4.2327094 0.46337008 0.9830361
4.2355371 0.43676618 0.9830361
4.2478962 0.41108355 0.98528558
4.2503953 0.38438526 0.98528558
4.2624106 0.3587909 0.98753512
4.2645516 0.33237439 0.98753512
4.2859883 0.30703533 0.99203414
4.3072791 0.28137001 0.99653316
4.3186889 0.25487521 0.99878269
4.3396654 0.22876103 1.0032817
4.3604832 0.20239384 1.0077807
4.3616691 0.17499226 1.0077807
4.3821588 0.14824262 1.0122797
4.3830037 0.12070592 1.0122797
4.4129 0.093785539 1.0190283
4.4328871 0.066348404 1.0235273
4.4624438 0.0390651 1.0302758
4.4723439 0.011440249 1.0325253
4.4918151 -0.016659429 1.0370244
4.5111084 -0.045076586 1.0415233
4.530221 -0.073736832 1.0460224
4.5491505 -0.10263902 1.0505214
4.5679045 -0.13145778 1.0550205
4.5864778 -0.16043898 1.0595194
4.6048532 -0.18998156 1.0640185
4.6327667 -0.22029926 1.070767
7.8832927 -0.67202574 1.8266026
7.8206964 -0.71621281 1.8131055
7.7481604 -0.75869048 1.7973589
7.6947846 -0.80230504 1.7861114
7.631484 -0.84420872 1.7726142
7.3245873 -1.0897664 1.709628
7.3273048 -1.1367408 1.7118775
7.3201208 -1.1821185 1.7118775
7.3125691 -1.2279688 1.7118775
7.2855115 -1.2705426 1.7073785
7.286973 -1.3180279 1.709628
7.2689705 -1.3619925 1.7073785
7.269835 -1.4094923 1.709628
7.2512817 -1.4532273 1.7073785
7.3087983 -1.5125821 1.7231251
7.3467951 -1.5686474 1.7343726
7.3653421 -1.6210597 1.7411212
7.4120269 -1.68023 1.7546182
5.5321064 -1.2902557 1.3114647
5.5145307 -1.3222356 1.3092151
5.4966755 -1.3544368 1.3069656
5.5541782 -1.4056808 1.3227122
7.6389866 -1.9838899 1.8221035
7.7112875 -2.0537512 1.8423491
7.7264643 -2.1097357 1.8490976
7.7693558 -2.1739941 1.8625947
7.8211093 -2.2415588 1.8783413
7.862968 -2.3071156 1.8918383
7.9138103 -2.3755267 1.9075849
5.8755064 -1.8438061 1.4216906
5.900918 -1.8925896 1.4306887
5.9352069 -1.9447986 1.4419363
5.9598303 -1.9944205 1.4509343
5.9748425 -2.0412781 1.4576828
6.0079012 -2.0948186 1.4689304
6.0497012 -2.1521201 1.4824275
6.0818572 -2.2067058 1.493675
6.1044254 -2.2583988 1.502673
6.117466 -2.3070238 1.5094216
6.1121116 -2.3484769 1.5116711
6.1155901 -2.393404 1.51617
6.1276245 -2.4425056 1.5229186
6.2024403 -2.5176046 1.5454137
6.2587233 -2.5858519 1.5634098
6.3144388 -2.6547921 1.5814059
6.3603859 -2.7211382 1.5971525
6.3967671 -2.7843807 1.6106495
6.4326029 -2.8481867 1.6241466
6.4945407 -2.9245543 1.6443921
6.5469098 -2.9977548 1.6623882
6.5809464 -3.0635035 1.6758853
6.6410584 -3.1418283 1.6961309
6.6917186 -3.2166865 1.7141271
6.7414699 -3.2927694 1.7321231
6.799201 -3.3740435 1.7523687
6.8300714 -3.4430132 1.7658658
6.9210529 -3.5435874 1.7951094
6.9594226 -3.6179745 1.810856
7.0230446 -3.7065036 1.833351
7.0426216 -3.7734516 1.8445987
7.1043682 -3.8641834 1.8670937
7.1652493 -3.9558384 1.8895888
7.0722504 -3.962678 1.8715928
7.0218019 -3.9925873 1.8648442
7.0134568 -4.0463662 1.8693433
7.4588003 -4.3659954 1.9953158
3.2487364 -7.7558918 1.9413276
3.188817 -7.7491193 1.934579
3.1473677 -7.7870698 1.9390781
3.1487 -7.9334822 1.9705712
2.9211049 -7.7811394 1.9188324
2.8150423 -7.6438546 1.8805908
2.75372 -7.6247339 1.8715928
2.722019 -7.6878104 1.8828403
2.7471335 -7.9164805 1.934579
2.2993901 -8.0680609 1.9368285
2.1942875 -8.2889328 1.9795692
2.1159673 -8.1986246 1.9548247
2.0104713 -7.9942398 1.9030859
2.0298502 -8.2906065 1.9705712
1.9641731 -8.2463255 1.9570742
1.8947368 -8.1825638 1.9390781
1.8325952 -8.1467762 1.9278305
1.7730571 -8.1200523 1.9188324
1.7341151 -8.1882257 1.9323295
1.7237684 -8.3994007 1.9795692
1.6348821 -8.2284842 1.9368285
1.635236 -8.5064001 1.9998149
1.4154427 -8.5062132 1.9908168
1.3650467 -8.5341816 1.9953158
1.3040059 -8.4944363 1.9840683
1.2491903 -8.4928217 1.9818188
1.1411177 -8.4883547 1.9773197
1.0916147 -8.524333 1.9840683
0.002232804 -1.0523173 0.24294713
-0.0043271706 -1.0620545 0.24519664
-0.011057835 -1.0620058 0.24519664
-0.017823122 -1.0619138 0.24519664
-0.023988588 -1.0423 0.24069762
-0.030446291 -1.0421313 0.24069762
-0.03697636 -1.0419201 0.24069762
-0.043522172 -1.0416671 0.24069762
-0.05006627 -1.0413731 0.24069762
-0.057666209 -1.0604967 0.24519664
-0.063738167 -1.0503876 0.24294713
-0.070336655 -1.0499665 0.24294713
-0.077569671 -1.0592269 0.24519664
-0.083359383 -1.0490128 0.24294713
-0.089931533 -1.0484699 0.24294713
-0.095623776 -1.0381814 0.24069762
-0.10214494 -1.0375601 0.24069762
-0.10967761 -1.0465885 0.24294713
-0.11617723 -1.045887 0.24294713
-0.12265512 -1.0451471 0.24294713
-0.12920226 -1.0443579 0.24294713
-0.13450453 -1.0338632 0.24069762
-0.14231554 -1.0426519 0.24294713
-0.14886387 -1.0417371 0.24294713
-0.15684527 -1.0504181 0.24519664
-0.16344212 -1.0494119 0.24519664
-0.17159243 -1.0579822 0.24744615
-0.17823651 -1.0568832 0.24744615
-0.18311878 -1.0461578 0.24519664
-0.18959734 -1.0450031 0.24519664
-0.19614227 -1.0437944 0.24519664
-0.20455632 -1.052106 0.24744615
-0.20924316 -1.0412472 0.24519664
-0.21776073 -1.0494525 0.24744615
-0.22638984 -1.0575914 0.24969567
-0.23722912 -1.0751778 0.25419468
-0.24613906 -1.0831676 0.25644419
-0.24628361 -1.0531365 0.24969567
-0.25509894 -1.06106 0.25194517
-0.26166844 -1.059459 0.25194517
-0.26590699 -1.0483537 0.24969567
-0.27494356 -1.0560917 0.25194517
-0.28408778 -1.0637571 0.25419468
-0.28819278 -1.0525533 0.25194517
-0.29480043 -1.0507218 0.25194517
-0.30408752 -1.0582135 0.25419468
-0.31073043 -1.056282 0.25419468
-0.31736109 -1.0543088 0.25419468
-0.32677108 -1.0616294 0.25644419
-0.33919054 -1.0781736 0.2609432
-3.9410613 -7.6808414 1.9930663
-3.9757359 -7.6300044 1.9863178
-4.0093908 -7.57932 1.9795692
-4.0424476 -7.5285788 1.9728208
-4.0802207 -7.4859872 1.9683217
-4.1130257 -7.4346251 1.9615731
-4.1453466 -7.3831472 1.9548247
-4.1771836 -7.3315578 1.9480761
-4.2080207 -7.2801585 1.9413276
-4.2431903 -7.2371359 1.9368285
-4.2735171 -7.1852798 1.9300801
-4.3085122 -7.1416006 1.925581
-4.3380423 -7.0894551 1.9188324
-4.3722253 -7.0455003 1.9143335
-4.4060273 -7.0013967 1.9098344
-4.434207 -6.9489331 1.9030859
-4.467195 -6.9045734 1.8985869
-4.4998012 -6.8600745 1.8940878
-4.5320244 -6.8154387 1.8895888
-4.5638652 -6.7706699 1.8850898
-4.5953226 -6.7257705 1.8805908
-4.6263967 -6.6807437 1.8760917
-4.6570864 -6.6355925 1.8715928
-4.6873922 -6.5903196 1.8670937
-4.7230105 -6.5528336 1.8648442
-4.7468491 -6.499423 1.8580956
-4.7813387 -6.4619761 1.8558462
-4.8095961 -6.4166346 1.8513471
-4.8379269 -6.3708491 1.8468481
-4.8719192 -6.332603 1.8445987
