# .PCD v0.7 - Point Cloud Data file format
VERSION 0.7
FIELDS x y z
SIZE 4 4 4
TYPE F F F
COUNT 1 1 1
WIDTH 1477
HEIGHT 1
VIEWPOINT 0 0 0 1 0 0 0
POINTS 1477
DATA ascii
6.9507856 6.3341594 1.8279501
7.0196347 6.3166261 1.8355825
6.9637899 6.1876345 1.8107773
7.0689397 6.202023 1.8279501
7.0558329 6.112493 1.8145936
6.9822049 5.9723291 1.7859721
6.9745951 5.8903389 1.7745236
6.8380651 5.7018118 1.7306376
6.9798551 5.7460804 1.7573508
6.9701152 5.6649642 1.7459023
7.2046366 5.7807822 1.7955126
7.1253939 5.6439753 1.7668912
6.2321758 4.8102603 1.5302881
6.2466593 4.7591105 1.526472
7.0311556 5.2184663 1.7020162
6.7945571 4.976963 1.6371411
7.5947194 5.2750278 1.7974207
7.6277127 5.2272053 1.7974207
8.1889896 5.53655 1.9214466
7.2977486 4.8030181 1.6982
7.3773403 4.7888989 1.7096486
7.0191245 4.493072 1.6199683
7.8854151 4.9783936 1.8126854
7.3411493 4.5714078 1.6810272
7.4117026 4.5506315 1.6905676
7.465735 4.5185723 1.6962919
7.8903017 4.7077641 1.7859721
7.9620318 4.6829782 1.7955126
8.0932064 4.6919398 1.8184097
7.9946799 4.5679479 1.7897884
8.5022221 4.7873349 1.8966414
-3.6972833 -9.4210491 1.9672407
-3.7236133 -9.3155966 1.9500679
-3.7857716 -9.3011084 1.9519759
-3.8591681 -9.3134127 1.9596083
-3.9252388 -9.3070707 1.9634246
-3.9913816 -9.3002653 1.9672407
-4.0366659 -8.937108 1.9061818
-3.9329629 -8.5636692 1.8317664
-3.8953304 -8.3431082 1.7897884
-3.6544588 -7.5773244 1.635233
-3.6933568 -7.5365839 1.6314169
-3.7231374 -7.4780793 1.6237845
-3.7213182 -7.3581815 1.6027955
-3.6638927 -7.1340446 1.5589094
-3.6081748 -6.9197178 1.5169315
-3.5779049 -6.758203 1.486402
-3.5087602 -6.5280738 1.4406079
-3.4462729 -6.3163233 1.3986299
-3.0388601 -5.4873319 1.2192695
-2.9867067 -5.3140984 1.1849239
-2.9422262 -5.1587963 1.1543944
-2.9008315 -5.0127649 1.1257731
-3.0962787 -5.2737894 1.18874
-2.9532499 -4.9592266 1.1219568
-2.8875017 -4.7811799 1.0857031
-2.9019735 -4.7379103 1.0799789
-2.9316852 -4.7195835 1.0799789
-2.9769771 -4.7259874 1.0857031
-3.1228597 -4.8891902 1.1276811
-3.1161664 -4.8117967 1.1143246
-3.1732759 -4.8331509 1.123865
-3.2362149 -4.8621473 1.1353135
-3.1514053 -4.6708336 1.0952436
-3.1696081 -4.6347351 1.0914274
-3.1930742 -4.6066608 1.0895194
-3.2219555 -4.5865073 1.0895194
-3.3930349 -4.7660928 1.1372216
-3.4746025 -4.8163276 1.1543944
-3.5047956 -4.7944012 1.1543944
-3.540693 -4.7801733 1.1563025
-3.5117359 -4.6793203 1.1372216
-3.5588918 -4.6806049 1.1429459
-3.6121919 -4.6892576 1.1505783
-3.6657405 -4.6974244 1.1582106
-3.6951828 -4.6742992 1.1582106
-3.6689816 -4.5822492 1.1410378
-3.6354742 -4.4831843 1.1219568
-3.601145 -4.3844976 1.1028759
-3.5093424 -4.2184043 1.0666223
-3.4788513 -4.1287103 1.0494494
-3.4983518 -4.0993037 1.0475414
-3.5240393 -4.0772424 1.0475414
-3.5625188 -4.0697923 1.0513575
-3.6075552 -4.0693641 1.0570818
-3.646168 -4.0612259 1.0608979
-3.6782169 -4.0454993 1.0628061
-3.3644574 -3.6540182 0.9654935
-3.3737442 -3.6186497 0.96167731
-3.786922 -4.0116949 1.0723466
-3.8255095 -4.0021181 1.0761627
-3.8642335 -3.9921103 1.0799789
-3.8961117 -3.9747622 1.081887
-3.9417551 -3.9711044 1.0876112
-3.9805462 -3.9601059 1.0914274
-4.012352 -3.9418967 1.0933355
-4.0581765 -3.9371145 1.0990598
-4.0970106 -3.9251204 1.1028759
-4.1358533 -3.9127929 1.1066922
-4.1675296 -3.8934309 1.1086003
-4.2135553 -3.8871369 1.1143246
-4.252409 -3.873807 1.1181407
-4.3350492 -3.8995309 1.1334054
-4.6677098 -4.146009 1.2135452
-4.855772 -4.2592883 1.2555232
-4.963685 -4.2998195 1.2765121
-5.0427036 -4.3133488 1.2898688
-5.0997028 -4.3069158 1.2975011
-5.1568198 -4.2999344 1.3051335
-5.1913137 -4.2736874 1.3070416
-5.2561517 -4.2719412 1.3165821
-5.298202 -4.2511182 1.3203982
-5.3478923 -4.2360301 1.3261225
-5.3898683 -4.2144375 1.3299387
-5.4317832 -4.1924849 1.3337549
-5.4892511 -4.1820688 1.3413873
-5.5389562 -4.1651955 1.3471115
-5.588665 -4.1478624 1.3528358
-5.6383734 -4.1300678 1.35856
-5.6960335 -4.1175628 1.3661923
-5.7457662 -4.0987945 1.3719167
-5.7954869 -4.0795631 1.377641
-5.8530111 -4.0658188 1.3852733
-5.902379 -4.0461273 1.3909975
-5.9603424 -4.0307636 1.3986299
-6.0185647 -4.0144997 1.4062623
-6.0765796 -3.9980226 1.4138947
-6.1345167 -3.9811387 1.421527
-6.1922431 -3.9640551 1.4291594
-6.2498846 -3.9465775 1.4367917
-6.3077812 -3.9281592 1.444424
-6.365798 -3.9089954 1.4520564
-6.432219 -3.894341 1.4615968
-6.4902768 -3.8739741 1.4692292
-6.5567913 -3.8580086 1.4787697
-6.6148682 -3.8364344 1.486402
-6.6644092 -3.8094106 1.4921263
-6.7480817 -3.8011858 1.5054829
-6.823329 -3.7872949 1.5169315
-6.8814406 -3.7631876 1.5245638
-6.9395175 -3.7384989 1.5321962
-7.0062251 -3.7178295 1.5417366
-7.0729456 -3.6964684 1.5512772
-7.1396728 -3.6744146 1.5608176
-7.2149372 -3.6565371 1.5722661
-7.2901535 -3.6380637 1.5837146
-7.365633 -3.6183565 1.5951632
-7.4324102 -3.5933692 1.6047037
-7.5082407 -3.5714521 1.6161522
-7.5841875 -3.5485086 1.6276007
-7.6597214 -3.5256612 1.6390493
-7.726131 -3.4983788 1.6485897
-7.8108449 -3.4774609 1.6619463
-7.8867974 -3.4512429 1.6733949
-7.9715419 -3.4285553 1.6867515
-8.0562191 -3.4051533 1.7001082
-8.1316462 -3.3775439 1.7115567
-8.2160378 -3.3530586 1.7249132
-8.3006334 -3.3271613 1.7382699
-8.3944492 -3.3037004 1.7535347
-8.4791384 -3.2756536 1.7668912
-8.5638037 -3.2466719 1.7802479
-8.6576376 -3.2201769 1.7955126
-8.7514744 -3.1926296 1.8107773
-8.8453035 -3.1640294 1.8260421
-8.9391146 -3.1343772 1.8413068
-9.0421839 -3.1068578 1.8584796
-9.1359539 -3.0750341 1.8737442
-9.2390003 -3.0452268 1.8909171
-9.3420296 -3.0142448 1.9080899
-9.4450312 -2.9820874 1.9252627
-9.5479946 -2.9487534 1.9424355
-9.650733 -2.9148204 1.9596083
-9.7627525 -2.882767 1.9786892
-9.875083 -2.8482554 1.9977702
-7.9640756 3.6390986 1.7020162
-7.7897115 3.618757 1.6695787
-8.0952454 3.8227201 1.740178
-7.6639743 3.6781318 1.6524059
-7.7201204 3.7649362 1.6695787
-7.757884 3.8438735 1.6829354
-7.6371279 3.8439972 1.6619463
-7.5166821 3.8427529 1.6409574
-7.483676 3.8853846 1.6390493
-7.4243827 3.9140158 1.6314169
-7.9102616 4.2338929 1.7439942
-7.5554967 4.1058741 1.6714867
-7.8214169 4.3151464 1.7363619
-7.5630331 4.2344694 1.6848434
-7.348875 4.1745815 1.6428654
-7.4671974 4.3038034 1.675303
-7.2620573 4.2465796 1.635233
-7.3112159 4.3371973 1.6524059
-6.9894381 4.2059069 1.5856227
-7.0299063 4.2906499 1.6008874
-7.2865925 4.5103998 1.6657625
-7.4077621 4.6500316 1.7001082
-6.931222 4.4118505 1.5970713
-7.5549383 4.8758245 1.7478104
-6.8916636 4.5093493 1.6008874
-6.8468351 4.541708 1.5970713
-6.8263087 4.590117 1.5989794
-6.7486663 4.5997443 1.5875309
-6.8569312 4.736908 1.6199683
-6.8511581 4.7967858 1.6256926
-6.7968655 4.8226986 1.6199683
-7.0849195 5.0949588 1.6962919
-6.790535 4.9491901 1.633325
-6.6881018 4.9394584 1.6161522
-6.680511 4.9990287 1.6218765
-6.9853306 5.2959132 1.7039243
-6.9752712 5.3576388 1.7096486
-7.4143972 5.7686381 1.8260421
-6.7925487 5.3527126 1.6810272
-6.789618 5.4195957 1.6886595
-6.8317628 5.52387 1.7077404
-7.0247521 5.7532768 1.7649832
-6.9204674 5.7408962 1.7478104
-6.9064589 5.8036232 1.7535347
-6.4795389 9.4454288 -0.6002934
-6.3696856 9.4115238 -0.5955832
-6.2716122 9.3932219 -0.59191966
-6.4761262 9.8327589 -0.61704093
-6.3815775 9.8230085 -0.61390078
-6.2658529 9.7788296 -0.60866714
-6.1776161 9.775795 -0.60605037
-6.0579715 9.7211895 -0.6002934
-5.9654055 9.7080097 -0.59715325
-5.8680658 9.6855135 -0.59348971
-5.7610087 9.645031 -0.58877951
-5.6648226 9.6208019 -0.58511597
-5.4989967 9.4748259 -0.57412541
-5.4096036 9.457181 -0.57098526
-5.3157516 9.4300861 -0.56732178
-5.2224498 9.4021921 -0.56365824
-5.1345091 9.3822565 -0.56051809
-5.0422821 9.3528023 -0.55685455
-4.9506345 9.3225584 -0.55319107
-1.7739497 3.6679568 -0.2135307
-1.7465761 3.6700137 -0.21300733
-1.7277179 3.6899588 -0.2135307
-1.7170333 3.7279522 -0.21510078
-1.6853359 3.7204735 -0.21405406
-1.6497351 3.7036233 -0.21248397
-1.6261897 3.7140217 -0.21248397
-1.6143367 3.751826 -0.21405406
-1.5908968 3.7618251 -0.21405406
-1.5637251 3.7623887 -0.2135307
-1.5401379 3.7721055 -0.2135307
-1.5349892 3.8280528 -0.2161475
-1.5182244 3.8562055 -0.21719421
-3.0675528 8.7448635 -0.48567766
-2.9963133 8.7167463 -0.48306087
-2.9542353 8.7732563 -0.4851543
-2.9209423 8.8580332 -0.48881781
-3.2517607 10.073644 -0.55476111
-3.1643362 10.017696 -0.55057424
-3.0895414 9.9992151 -0.54848081
-3.0266511 10.018431 -0.54848081
-2.6180611 8.8689623 -0.48463094
-2.550441 8.8470793 -0.48253751
-2.4919062 8.8533707 -0.48201415
-2.4309373 8.8495941 -0.48096743
-2.3727036 8.8550463 -0.48044407
-2.0898583 8.0001945 -0.43334171
-2.0494056 8.051878 -0.43543515
-2.0300026 8.1906052 -0.44223884
-2.0042574 8.3099852 -0.44799578
-1.9086757 8.1376877 -0.43805194
-1.8597291 8.159256 -0.4385753
-1.8256929 8.2487822 -0.4427622
-1.786411 8.3186722 -0.44590235
-1.7402121 8.3590631 -0.44747242
-1.6876587 8.3698311 -0.44747242
-1.6312095 8.3606672 -0.44642571
-1.5725496 8.3414145 -0.44485563
-1.5158014 8.3316135 -0.44380891
-1.4580662 8.3114958 -0.44223884
-1.4024855 8.3008003 -0.44119209
-1.3460418 8.279789 -0.43962201
-1.2900898 8.2583704 -0.43805194
-1.2289437 8.2071095 -0.43491179
-1.1766331 8.2147722 -0.43491179
-1.1221107 8.202239 -0.43386507
-1.069259 8.1992254 -0.43334171
-1.0152649 8.1859608 -0.43229499
-0.96147537 8.1723433 -0.43124828
-0.90679693 8.148447 -0.4296782
-0.8534947 8.1341209 -0.42863148
-0.80041265 8.1194468 -0.42758477
-0.74754453 8.1044273 -0.42653805
-0.69490105 8.0890646 -0.4254913
-0.64247596 8.0733614 -0.42444459
-0.59027994 8.0573196 -0.42339787
-0.53830665 8.0409422 -0.42235115
-0.48717129 8.0341969 -0.42182779
-0.43559584 8.0171566 -0.42078108
-0.38425812 7.9997854 -0.41973436
-0.33356807 7.9920645 -0.419211
-0.28264076 7.9740424 -0.41816428
-0.23078474 7.9157686 -0.41502413
-0.18202288 7.9370179 -0.41607085
-0.05530867 3.305001 -0.17323202
-0.03430108 3.2753253 -0.17166193
-0.013594666 3.2455175 -0.17009185
0.0067968261 3.2455389 -0.17009185
0.027608084 3.2953618 -0.17270865
0.048019689 3.2751529 -0.17166193
0.06796959 3.2448342 -0.17009185
0.087750793 3.2143896 -0.16852178
0.10688157 3.1738427 -0.16642834
0.1254876 3.1431792 -0.16485827
0.14495994 3.1423411 -0.16485827
0.16274476 3.1014709 -0.16276482
0.18543316 3.1502163 -0.16538163
0.2046418 3.1390195 -0.16485827
0.2236484 3.1277108 -0.16433489
0.24484549 3.1461563 -0.16538163
0.26377106 3.1346047 -0.16485827
0.28546712 3.1527581 -0.16590498
0.30843732 3.1806946 -0.16747506
0.33135489 3.2085087 -0.16904514
0.35775241 3.2659554 -0.17218529
0.38164321 3.2934113 -0.17375538
1.5584095 10.540798 -0.55842465
1.7121221 11.09325 -0.58825612
1.8335104 11.397623 -0.60500365
1.9135766 11.435083 -0.60762042
2.012748 11.580255 -0.61599422
2.1014156 11.65583 -0.62070441
2.1837771 11.69148 -0.62332124
2.2875166 11.834404 -0.63169497
3.1308417 15.668332 -0.83737528
3.386651 16.411209 -0.87819731
3.4751403 16.321234 -0.87453383
4.5401707 15.486032 -0.84574902
4.6402516 15.466763 -0.84627241
4.7197614 15.380022 -0.84313226
4.819293 15.359591 -0.84365559
4.9218035 15.348027 -0.8447023
5.3570356 16.351206 -0.90174854
5.5990891 16.733913 -0.92477632
5.7460861 16.821257 -0.93158001
5.8582377 16.80368 -0.93262672
5.9670491 16.775949 -0.93315011
5.9811106 15.556973 -0.87348711
6.0896654 15.546982 -0.87505716
6.2057319 15.55479 -0.87767398
6.3709989 15.682026 -0.88709444
8.996253 12.312662 -0.79917002
8.824913 11.918028 -0.77718896
8.821969 11.758307 -0.77038527
8.8956747 11.702644 -0.77038527
8.9690285 11.646521 -0.77038527
9.1403103 11.715915 -0.778759
9.2199354 11.666088 -0.77928239
7.9698129 8.9892483 -0.62960154
8.0061207 8.9167032 -0.62803149
7.775537 7.8300114 -0.57831228
7.8529053 7.8091683 -0.58040577
9.7494287 8.9902153 -0.69502151
9.7614202 8.8884401 -0.69188136
9.7279644 8.746809 -0.685601
9.8051329 8.7054043 -0.6871711
9.8746548 8.6567917 -0.68821782
9.9968061 8.6533995 -0.69292808
10.028205 8.5709524 -0.69135797
9.9063244 8.3596449 -0.67932069
10.027704 8.3547678 -0.68403095
7.1008563 5.7665954 -0.47939736
7.1369481 5.7218657 -0.47939736
6.9456735 5.4971828 -0.46421993
7.003684 5.4718781 -0.46579
7.0853734 5.4643564 -0.46893016
7.1513505 5.4439254 -0.47102359
7.2173491 5.4228802 -0.47311702
7.2833648 5.4012194 -0.47521049
7.3574505 5.38484 -0.47782728
7.4316163 5.3677421 -0.48044407
7.4895921 5.3383307 -0.48201415
12.611824 8.8703165 -0.80806714
12.856006 8.9218521 -0.82010442
12.969488 8.880393 -0.82376796
13.049853 8.8154993 -0.82533801
13.129343 8.7508049 -0.82690811
13.166622 8.6583147 -0.82586139
13.212759 8.5694056 -0.82533801
13.267082 8.4850607 -0.82533801
13.31132 8.3967876 -0.82481468
13.363091 8.3141508 -0.82481468
6.9375448 4.2557063 -0.42653805
6.9303331 4.1907554 -0.42444459
6.9137287 4.1214094 -0.42182779
6.8878288 4.0475316 -0.41868764
6.8699174 3.9791484 -0.41607085
6.8514194 3.9111514 -0.41345406
6.8323407 3.8435445 -0.41083726
6.8214183 3.7811742 -0.4087438
6.8009763 3.7147522 -0.40612701
6.7798934 3.6488798 -0.40351021
6.7673149 3.587647 -0.40141678
6.7543139 3.5265682 -0.39932334
6.7496953 3.4703615 -0.39775327
6.7802763 3.432394 -0.39827663
6.8823738 3.429363 -0.40298685
7.6572533 3.7547719 -0.44694906
7.6625447 3.6982398 -0.44590235
7.0358486 3.3421838 -0.40822044
7.6175489 3.5602186 -0.44066873
7.3857141 3.3954878 -0.42601466
7.5888906 3.4313006 -0.43648186
7.5646749 3.3632658 -0.43386507
7.3934999 3.2316778 -0.42287451
7.4687109 3.2088115 -0.42601466
18.770231 2.3279762 -0.991243
18.148355 -0.49424863 -0.95146769
18.11495 -0.60726404 -0.94989759
18.080843 -0.71987927 -0.94832748
18.405161 -0.84864885 -0.9655984
17.97226 -1.5060139 -0.94518733
17.912714 -1.6144222 -0.94257057
17.991678 -1.7355685 -0.94728076
17.980417 -1.8485788 -0.94728076
11.828478 -3.6977532 -0.64948922
11.852573 -3.7871976 -0.65210599
12.979682 -4.4186444 -0.71857268
12.734701 -4.4247265 -0.7065354
12.687823 -4.4979796 -0.70548868
12.715659 -4.5979853 -0.70862883
12.770844 -4.7088823 -0.71333909
12.71999 -4.8725619 -0.71386242
12.661215 -4.9414949 -0.71229237
16.12521 -9.692832 -0.98600942
11.857209 -7.3317394 -0.73060995
11.430184 -7.1673598 -0.70705873
11.393826 -7.2436495 -0.70758212
11.331939 -7.3032846 -0.7065354
11.327787 -7.4014072 -0.70915222
11.256083 -7.4558911 -0.70758212
11.200724 -7.5209012 -0.70705873
11.153248 -7.5911283 -0.70705873
11.146432 -7.6894093 -0.70967555
11.122451 -7.7764587 -0.71124566
11.122261 -7.8808289 -0.71438581
11.056301 -7.9389071 -0.71333909
10.998128 -8.0023422 -0.7128157
10.979782 -8.0949917 -0.71490914
11.057252 -8.2587194 -0.72328287
11.00587 -8.3270693 -0.72328287
10.945589 -8.3897438 -0.72275954
10.900546 -8.4644756 -0.72328287
10.862845 -8.5451469 -0.72432965
10.89485 -8.6816893 -0.73008657
10.847857 -8.7562437 -0.73060995
10.877668 -8.8937616 -0.73636687
10.798499 -8.9428234 -0.73479682
7.6128106 -6.3856435 -0.52074277
7.5805707 -6.4393191 -0.5212661
7.563241 -6.5056996 -0.52283621
8.7196112 -7.5958867 -0.60605037
8.3497057 -7.3664365 -0.58354592
8.1915541 -7.3189497 -0.57569551
8.1676207 -7.3903747 -0.57726556
8.1436014 -7.4612536 -0.57883567
8.1338205 -7.545527 -0.58145249
8.1077547 -7.6173487 -0.58302253
8.1024694 -7.7101488 -0.58616269
8.046505 -7.7541523 -0.58563936
8.0333614 -7.8394294 -0.58825612
8.0199814 -7.9243212 -0.59087294
7.9919081 -7.9950495 -0.59244299
7.9767699 -8.0804672 -0.59505981
7.9537249 -8.15903 -0.59715325
7.9092317 -8.2160358 -0.59767663
7.8849745 -8.2945194 -0.59977007
7.8674264 -8.3797874 -0.60238683
7.8493037 -8.4649868 -0.60500365
7.8231244 -8.5434275 -0.60709709
7.7893829 -8.6146345 -0.60866714
7.7084985 -8.6336098 -0.6065737
7.6607041 -8.6893644 -0.60709709
8.3403244 -9.5809298 -0.66571337
8.2474146 -9.5952778 -0.66309655
8.1934242 -9.6545229 -0.66361994
7.8119159 -9.3230915 -0.63745195
9.4407892 -11.410434 -0.77614224
9.2877741 -11.368174 -0.76933855
7.6203656 -9.5698223 -0.64111543
7.7205453 -9.82164 -0.65472281
7.5913396 -9.7831697 -0.64896584
7.6693845 -10.013018 -0.66100311
7.6002975 -10.053041 -0.66047978
7.465971 -10.004065 -0.65419942
8.5588408 -11.617952 -0.75625455
8.5211687 -11.719774 -0.75939471
8.4881153 -11.829879 -0.76305825
8.4540138 -11.940029 -0.76672173
8.4245806 -12.058401 -0.77090859
8.3883238 -12.168651 -0.77457213
8.3510122 -12.278918 -0.77823567
8.273221 -12.499473 -0.78556269
8.2436562 -12.626465 -0.79027295
8.1857862 -12.711596 -0.79236639
8.1164637 -12.779637 -0.7934131
8.1261206 -12.974257 -0.80231017
8.0820303 -13.084005 -0.80597371
7.7693009 -12.935405 -0.79079628
7.6369929 -12.898036 -0.78556269
6.9316082 -11.876293 -0.72066611
6.8966875 -11.988861 -0.72485298
6.9000244 -12.170955 -0.73322672
6.9695277 -12.475612 -0.74892753
6.9873147 -12.694127 -0.75939471
6.9407406 -12.799229 -0.76305825
6.8422022 -12.806905 -0.76096481
6.7022538 -12.734172 -0.75416112
6.6315813 -12.793619 -0.75520784
6.5465264 -12.826139 -0.75468445
6.5061636 -12.947326 -0.75939471
6.4645352 -13.068509 -0.76410496
6.5046964 -13.360271 -0.778759
6.4637723 -13.490938 -0.78399259
6.3350558 -15.954741 -0.89965504
6.2042789 -15.920338 -0.89546818
4.7882366 -12.517024 -0.70234853
4.7000613 -12.518404 -0.70077842
5.6383138 -16.245787 -0.90122515
5.5843515 -16.422712 -0.90907556
5.5252318 -16.59012 -0.91640258
4.2382584 -12.997689 -0.71647924
4.1443639 -12.986008 -0.71438581
4.056736 -12.992726 -0.71333909
3.4615149 -12.43965 -0.67670393
3.3440371 -12.316592 -0.66885352
3.2589159 -12.308399 -0.66728342
3.2239363 -12.493014 -0.67618054
3.9710362 -16.228281 -0.87558055
3.8898065 -16.340345 -0.88029075
1.8716336 -13.300526 -0.70391858
1.758781 -13.09428 -0.69240469
1.6701369 -13.055544 -0.68978786
1.5977132 -13.145087 -0.69397479
-1.5840268 -16.039854 -0.8447023
-1.6712064 -15.900475 -0.83789867
-1.6289345 -7.8314071 -0.419211
-1.6781083 -7.8210173 -0.419211
-1.6991836 -7.6835599 -0.41240734
-1.7296867 -7.5948362 -0.40822044
-1.7705361 -7.5546498 -0.40665036
-1.8179681 -7.5433764 -0.40665036
-1.8677291 -7.5414982 -0.40717372
-1.9150766 -7.5296144 -0.40717372
-1.9724377 -7.5560827 -0.40926716
-2.0327897 -7.591773 -0.41188398
-5.5652804 -18.045395 -0.9896729
-5.6935673 -18.057692 -0.99228972
-5.3017144 -14.83975 -0.82586139
-5.3699532 -14.740817 -0.82219785
-5.5602307 -14.691461 -0.82324457
-5.6200886 -14.572378 -0.81853431
-5.7407532 -14.611135 -0.82272124
-5.4577131 -13.638357 -0.76986188
-5.3963304 -13.243124 -0.74945086
-5.1272764 -12.143878 -0.69083458
-4.9433031 -11.505852 -0.65629286
-4.0402117 -8.9356003 -0.51393908
-4.1046185 -8.9281855 -0.5149858
-4.0337863 -8.6308098 -0.49928501
-4.0836501 -8.5962744 -0.49876165
-3.8249834 -7.9229417 -0.46107978
-4.019825 -8.1946192 -0.47835064
-3.8351555 -7.6954942 -0.45061257
-3.9871702 -7.8761683 -0.46264985
-3.9219222 -7.6291885 -0.44956586
-3.6318104 -6.9584723 -0.41136062
-3.5771132 -6.7502937 -0.40037006
-3.5106354 -6.5254145 -0.38833278
-3.4510503 -6.3191743 -0.37734222
-3.0501144 -5.502553 -0.32971653
-2.9915991 -5.3179111 -0.31977269
-2.950691 -5.1689191 -0.31192228
-2.8780003 -4.9688082 -0.30093175
-2.9294009 -4.9850664 -0.30302519
-2.9603398 -4.9667559 -0.30302519
-2.892905 -4.7859383 -0.29308134
-2.9332533 -4.7847586 -0.29412806
-2.9685314 -4.7747149 -0.29465142
-3.0943377 -4.9080253 -0.3040719
-3.1035991 -4.8548307 -0.30197847
-3.1666312 -4.8855143 -0.30511862
-3.2192018 -4.8989038 -0.30721205
-3.2443824 -4.8702693 -0.3066887
-3.163147 -4.6842666 -0.29622149
-3.1925166 -4.6642995 -0.29622149
-3.2160678 -4.6359434 -0.29569814
-3.2508764 -4.6238141 -0.29622149
-3.4595034 -4.8554211 -0.31244564
-3.4899426 -4.8335886 -0.31244564
-3.5202439 -4.8115654 -0.31244564
-3.5623004 -4.805397 -0.31349236
-3.5984204 -4.7909045 -0.31401575
-3.6405463 -4.7840943 -0.31506246
-3.6766307 -4.7690349 -0.31558582
-3.7126696 -4.7537103 -0.31610918
-3.6557188 -4.6206465 -0.30878213
-3.6406646 -4.5432768 -0.30511862
-3.6184011 -4.4586 -0.30093175
-3.5955164 -4.3741403 -0.29674485
-3.5845909 -4.3054156 -0.2936047
-3.5729454 -4.2370028 -0.29046455
-3.5865254 -4.1992822 -0.28941783
-3.6259058 -4.1917701 -0.29046455
-3.6653328 -4.1839285 -0.29151127
-3.7048037 -4.175756 -0.29255798
-3.7376418 -4.1598239 -0.29308134
-3.7771468 -4.1510301 -0.29412806
-3.8099208 -4.1345596 -0.29465142
-3.84918 -4.1253943 -0.29569814
-3.881525 -4.1087246 -0.29622149
-3.9209802 -4.098774 -0.29726821
-3.9605527 -4.0884018 -0.29831496
-4.0001493 -4.0776939 -0.29936168
-4.0397668 -4.0666494 -0.30040839
-4.0794029 -4.0552678 -0.30145511
-4.1190553 -4.0435476 -0.30250183
-4.1587205 -4.0314889 -0.30354854
-4.2056103 -4.0259962 -0.30511862
-4.245337 -4.0132127 -0.30616534
-4.2850685 -4.0000882 -0.30721205
-4.3321452 -3.993391 -0.30878213
-4.3719206 -3.979537 -0.30982885
-4.4116926 -3.9653404 -0.31087556
-4.4589272 -3.9574294 -0.31244564
-4.4984665 -3.9427934 -0.31349236
-4.5379114 -3.927916 -0.3145391
-4.5851893 -3.9188917 -0.31610918
-4.632618 -3.9093261 -0.31767926
-4.6724339 -3.8929262 -0.31872597
-4.7199388 -3.8825238 -0.32029605
-4.7674961 -3.8716772 -0.32186612
-4.8151026 -3.8603857 -0.3234362
-4.8549237 -3.8424504 -0.32448292
-4.9025788 -3.8303149 -0.32605299
-4.9502716 -3.8177314 -0.32762307
-4.9979992 -3.8046992 -0.32919315
-5.0457573 -3.7912171 -0.33076325
-5.0935426 -3.7772844 -0.33233333
-5.1413512 -3.7629004 -0.3339034
-5.1972742 -3.753911 -0.33599684
-5.2451539 -3.7385702 -0.33756691
-5.2848773 -3.7170303 -0.33861363
-5.3407016 -3.7068756 -0.34070706
-5.3882828 -3.690644 -0.34227714
-5.4363489 -3.6732523 -0.34384722
-5.4928784 -3.6606979 -0.34594068
-5.540884 -3.6424494 -0.34751076
-5.597177 -3.6292956 -0.34960419
-5.653285 -3.6159477 -0.35169762
-5.7009177 -3.5968375 -0.3532677
-5.7572427 -3.5821745 -0.35536113
-5.8136845 -3.5668192 -0.35745457
-5.8701591 -3.5508955 -0.359548
-5.9180846 -3.5292869 -0.36111808
-5.9831877 -3.5173376 -0.3637349
-6.0397315 -3.4997017 -0.36582834
-6.0962887 -3.4814935 -0.36792177
-6.1528544 -3.4627118 -0.3700152
-6.2094231 -3.443356 -0.37210864
-6.2659903 -3.4234254 -0.37420207
-6.3401375 -3.4123847 -0.37734222
-6.3879223 -3.3865137 -0.37891233
-6.4533358 -3.3694205 -0.38152912
-6.5187845 -3.3516381 -0.38414592
-6.5751357 -3.3290856 -0.38623935
-6.6403217 -3.3105619 -0.38885614
-6.7057443 -3.2909179 -0.39147294
-6.7892361 -3.2791221 -0.39513648
-6.8459954 -3.2530994 -0.39722991
-6.9118147 -3.2305634 -0.3998467
-6.9772029 -3.2082341 -0.4024635
-7.0424409 -3.1855197 -0.40508029
-7.1080766 -3.1611915 -0.40769708
-7.1829724 -3.1398442 -0.41083726
-7.257678 -3.1181452 -0.41397741
-7.3323259 -3.0957885 -0.41711757
-7.3975525 -3.0692739 -0.41973436
-7.4719124 -3.0459981 -0.42287451
-7.5557337 -3.0251372 -0.42653805
-7.6303558 -2.9995246 -0.4296782
-8.5434599 -3.2966459 -0.47992072
-8.648057 -3.2747288 -0.48463094
-8.743351 -3.2481484 -0.48881781
-8.8386497 -3.2204988 -0.49300471
-8.9245386 -3.1884212 -0.49666822
-9.0292215 -3.1619897 -0.50137848
-9.1244755 -3.1311259 -0.50556535
-9.2291613 -3.102371 -0.51027554
-9.3243561 -3.0693004 -0.51446241
-9.4480124 -3.0443435 -0.52021939
-9.5240993 -3.0029376 -0.52335954
-9.6668348 -2.9812965 -0.53016323
-9.7712326 -2.9470868 -0.53487349
-9.7318344 -2.8695407 -0.53173333
-9.6634274 -2.783041 -0.52702308
-8.9695492 -2.5214381 -0.48829445
-9.0236282 -2.4759936 -0.49038789
-9.1352625 -2.4458625 -0.4956215
-9.0054598 -2.3507814 -0.48777109
-9.0587654 -2.3039985 -0.48986453
-9.1021423 -2.2542398 -0.49143463
-12.705354 -2.0666361 -0.67461044
-12.885777 -2.0132527 -0.68350756
-13.075942 -1.9588776 -0.69292808
-13.266049 -1.901329 -0.70234853
-13.465879 -1.8425045 -0.71229237
-13.665375 -1.7821054 -0.72223616
-13.874511 -1.7207876 -0.73270339
-14.083298 -1.6578337 -0.74317056
-14.311646 -1.5948731 -0.75468445
-14.539846 -1.5282006 -0.7661984
-14.767797 -1.4584019 -0.77771229
-15.005379 -1.3867249 -0.78974956
-15.232685 -1.3112549 -0.80126345
-16.255941 0.23833928 -0.85202932
-16.613573 0.34691808 -0.87087029
-16.990446 0.4601233 -0.89075798
-17.426384 0.58113724 -0.91378576
-17.831507 0.70683098 -0.93524355
-18.185841 0.83534652 -0.95408446
-19.025574 1.3558362 -0.99961674
-8.2297478 0.89839339 -0.43386507
-8.233861 0.95123267 -0.43438843
-8.2277222 1.0029464 -0.43438843
-8.2212572 1.0546248 -0.43438843
-8.174881 1.1009258 -0.43229499
-8.1776905 1.1536653 -0.43281835
-8.1901188 1.2073997 -0.43386507
-8.2120914 1.262676 -0.43543515
-11.413829 5.483294 -0.66361994
-11.100956 5.4190917 -0.64739579
-10.601477 5.2579999 -0.62018108
-10.202578 5.1402864 -0.59872335
-9.7700338 4.9995723 -0.57517213
-9.4991741 4.9365287 -0.56104141
-9.1941776 4.8516364 -0.54481727
-8.9786568 4.8102765 -0.53382677
-8.8953028 4.8385491 -0.53068662
-8.8380718 4.8806381 -0.52911651
-8.0408258 4.5060711 -0.48306087
-7.8738518 4.4768324 -0.47468713
-7.8197174 4.5110726 -0.47311702
-7.7653623 4.5449853 -0.47154695
-7.6421995 4.5376015 -0.46579
-7.3397918 4.4206581 -0.4490425
-7.2266521 4.4146266 -0.44380891
-7.2412162 4.4862447 -0.44642571
-7.2128868 4.531652 -0.44642571
-7.1505809 4.5554214 -0.44433227
-7.3399186 4.7411375 -0.45793959
-7.2180862 4.7269821 -0.45218265
-7.179925 4.7667155 -0.45165929
-7.108408 4.7838583 -0.4490425
-7.160708 4.8847003 -0.45427608
-7.1974664 5.1802402 -0.46474329
-7.2449975 5.2848396 -0.46997687
-7.2516875 5.3600917 -0.47259367
-7.2498374 5.4294963 -0.47468713
-7.0962496 5.3843942 -0.46683672
-7.1018639 5.4593077 -0.46945351
-2.505636 1.951023 -0.16642834
-2.4150872 1.9046706 -0.16119474
-2.4343238 1.9446862 -0.16328818
-2.4065306 1.9473799 -0.16224146
-2.3865244 1.9561309 -0.1617181
-2.3588192 1.95833 -0.16067138
-2.3463395 1.9732653 -0.16067138
-2.3413234 1.9946481 -0.16119474
-2.3135798 1.996322 -0.16014802
-2.3085098 2.017391 -0.16067138
-2.2957892 2.0318553 -0.16067138
-2.2681041 2.0329101 -0.15962467
-2.2848644 2.0739677 -0.1617181
-2.3011959 2.1153164 -0.16381153
-6.6748419 6.6145329 -0.49248135
-6.7106915 6.7341504 -0.4982383
-6.7242813 6.8331261 -0.50242519
-6.7225208 6.9186497 -0.50556535
-6.7128744 6.9973688 -0.50818211
-6.8746581 7.2570462 -0.52388293
-4.6242304 5.0679502 -0.359548
-4.612463 5.11906 -0.36111808
-4.600121 5.1703234 -0.36268818
-4.6005001 5.2366352 -0.36530498
-4.600224 5.3031569 -0.36792177
-4.6057911 5.3774624 -0.37106192
-4.6041532 5.4444222 -0.37367871
-4.6320972 5.6936984 -0.38466927
-4.59623 5.7226915 -0.38466927
-4.5725927 5.7671065 -0.38571599
-4.5485754 5.8114519 -0.38676271
-4.5180788 5.8478179 -0.38728607
-4.4994121 5.8999138 -0.38885614
-4.4742665 5.9440236 -0.38990286
-4.4427848 5.9800358 -0.39042622
-4.4287453 6.0400453 -0.39251965
-4.4082685 6.0920243 -0.39408976
-7.08006 9.9148912 -0.63849866
-6.6437311 9.4285707 -0.60448027
-6.5558629 9.4291267 -0.6018635
-6.451293 9.404254 -0.59767663
-3.6165881 7.8603067 1.9975654
-3.5470419 7.8384905 1.9863178
-3.4779177 7.8161106 1.9750702
-3.4086592 7.7934165 1.9638227
-3.3435538 7.7791653 1.9548247
-3.276077 7.7549615 1.9435771
-3.2130196 7.7391157 1.934579
-3.1497378 7.7230105 1.925581
-3.0830386 7.6974216 1.9143335
-3.0203478 7.6803708 1.9053354
-2.9579978 7.6628361 1.8963374
-2.8959837 7.6448236 1.8873394
-2.8377118 7.635468 1.8805908
-2.783005 7.6348386 1.8760917
-2.7153051 7.5971217 1.8625947
-2.6578507 7.5864463 1.8558462
-2.5943143 7.5569167 1.8445987
-2.5343566 7.5361266 1.8356006
-2.474767 7.5148821 1.8266026
-2.4185305 7.5024624 1.819854
-2.3596206 7.4803405 1.810856
-2.3068264 7.476398 1.8063569
-2.2457366 7.4441018 1.7951094
-2.1901248 7.4301829 1.7883608
-2.1346624 7.4158931 1.7816123
-2.082628 7.4104338 1.7771133
-2.0257189 7.3857856 1.7681153
-1.9742347 7.3795428 1.7636162
-1.922913 7.3729448 1.7591172
-1.8645493 7.3376637 1.7478696
-1.8113899 7.320858 1.7411212
-1.7585117 7.3036766 1.7343726
-1.705925 7.2861195 1.7276241
-1.6579518 7.2871928 1.7253746
-1.6079308 7.2784371 1.7208755
-1.5621655 7.2883968 1.7208755
-1.5084139 7.2599077 1.7118775
-1.4570006 7.2405858 1.7051289
-1.4058937 7.2209048 1.6983805
-1.3545779 7.2009654 1.6916319
-1.3051981 7.1902742 1.6871328
-1.2548344 7.1695604 1.6803844
-1.2065251 7.1580868 1.6758853
-1.1573561 7.1365895 1.6691368
-1.1116149 7.133996 1.6668873
-1.0635009 7.121624 1.6623882
-1.0153575 7.108963 1.6578892
-0.96660066 7.0862556 1.6511407
-0.92080325 7.0825262 1.6488912
-0.87269616 7.0591621 1.6421427
-0.82719231 7.0548282 1.6398932
-0.78069979 7.0405178 1.6353941
-0.73442358 7.0259023 1.6308951
-0.68835819 7.0109839 1.6263961
-0.64340425 7.0054679 1.6241466
-0.59771293 6.9899559 1.6196476
-0.55224574 6.9741464 1.6151485
-0.50699717 6.9580431 1.6106495
-0.46262351 6.9513688 1.6084
-0.41717821 6.9249601 1.6016514
-0.37313643 6.9177151 1.599402
-0.32919851 6.9101906 1.5971525
-0.28537354 6.9023871 1.594903
-0.24097334 6.8748307 1.5881544
-0.19721453 6.8567295 1.5836554
-0.15417713 6.8383403 1.5791564
-0.1114848 6.8196793 1.5746573
-0.068646088 6.8105006 1.5724078
-0.02578114 6.7913103 1.5679088
0.016843559 6.7718511 1.5634098
0.059219103 6.7521248 1.5589107
0.10149626 6.7418771 1.5566612
0.14343868 6.7216229 1.5521623
0.18614529 6.7205758 1.5521623
0.22829069 6.6997776 1.5476632
0.27001655 6.698226 1.5476632
0.31105995 6.6866913 1.5454137
0.3529174 6.6748552 1.5431643
0.39485535 6.662745 1.5409147
0.43554416 6.6406798 1.5364157
0.4765611 6.6280937 1.5341662
0.51743716 6.6152544 1.5319166
0.55899155 6.6118727 1.5319166
0.60010993 6.5984836 1.5296671
0.64496571 6.6236205 1.5364157
0.68922317 6.64855 1.5431643
0.73572719 6.6925788 1.5544118
0.78328073 6.7362289 1.5656593
0.82914847 6.7601881 1.5724078
0.90901542 7.0447526 1.6398932
0.99379712 7.3382244 1.709628
1.0932472 7.7080746 1.7973589
1.1802356 7.9612889 1.8580956
1.2665598 8.1847277 1.912084
0.055913616 0.13503741 0.033742659
5.8967633 6.3185282 1.9953158
5.9095764 6.253027 1.9863178
5.913094 6.1013069 1.9615731
5.9854369 6.098805 1.9728208
5.9549541 5.9919658 1.9503256
5.8749852 5.837678 1.912084
5.9950056 5.8825407 1.9390781
6.0948257 5.9057813 1.9593236
6.1036525 5.8404245 1.9503256
6.1118989 5.7751913 1.9413276
6.1480651 5.7366753 1.9413276
6.0693369 5.5922933 1.9053354
6.1043544 5.5540485 1.9053354
6.1536269 5.5286083 1.9098344
6.2101092 5.5092335 1.9165829
6.3599129 5.5008779 1.9413276
6.3128462 5.3912044 1.9165829
6.0955358 5.0745549 1.8311015
6.2627931 5.1475205 1.8715928
6.3479743 5.1510458 1.8873394
6.3878183 5.1171503 1.8895888
6.3128467 4.9922986 1.8580956
6.6374946 5.1147895 1.934579
6.7557878 5.0719285 1.9503256
6.4665437 4.791544 1.8580956
6.7482033 4.9348702 1.9300801
6.7316704 4.8581605 1.9165829
-3.6948307 -7.7699208 1.9863178
-3.6121495 -7.4745893 1.9165829
-3.525908 -7.1806145 1.8468481
-3.4535182 -6.9229054 1.7861114
-3.3824382 -6.6750898 1.7276241
-3.3079293 -6.4286847 1.6691368
-3.2619741 -6.243978 1.6263961
-3.2873416 -6.1975904 1.6196476
-3.3262172 -6.1768131 1.6196476
-3.33692 -6.1044941 1.6061505
-3.0348523 -5.469954 1.4441857
-2.9878902 -5.3064427 1.4059441
-2.9438305 -5.1522026 1.3699518
-2.8881795 -4.9818726 1.3294607
-3.1170168 -5.2995749 1.4194411
-2.9502039 -4.945395 1.3294607
-2.8849602 -4.7686219 1.28672
-2.8994994 -4.7255344 1.2799715
-2.9291334 -4.7072234 1.2799715
-3.0574467 -4.8452916 1.3227122
-3.1140859 -4.8670239 1.3339597
-3.1180904 -4.8064899 1.3227122
-3.1857076 -4.8437891 1.3384588
-3.2431049 -4.8642125 1.3497063
-3.1535714 -4.6661358 1.300217
-3.1663072 -4.6221137 1.2934686
-3.2008433 -4.6101322 1.2957181
-3.2297463 -4.5899296 1.2957181
-3.4112649 -4.7837434 1.3564548
-3.4640822 -4.7938056 1.3654529
-3.4998903 -4.7798071 1.3677024
-3.541465 -4.7733731 1.3722014
-3.5772417 -4.7588158 1.3744509
-3.6188786 -4.7517486 1.3789499
-3.6546152 -4.7366314 1.3811995
-3.6903045 -4.721252 1.383449
-3.7319932 -4.7132502 1.387948
-3.7672975 -4.697576 1.3901975
-3.8086162 -4.689271 1.3946965
-3.8503079 -4.6803613 1.3991956
-3.8858767 -4.6635623 1.401445
-3.3495173 -3.9688864 1.1989892
-3.3174098 -3.8811023 1.1787435
-3.3034658 -3.8159814 1.1652465
-3.4044592 -3.8830683 1.1922406
-3.4417286 -3.876173 1.1967396
-3.4725304 -3.861717 1.1989892
-3.4704838 -3.8110056 1.1899911
-3.4679379 -3.7604735 1.180993
-3.4513326 -3.6961272 1.167496
-3.4741678 -3.6746716 1.167496
-3.551033 -3.7091336 1.185492
-3.6081786 -3.7217283 1.1967396
-3.6383176 -3.7059371 1.1989892
-3.6615307 -3.6830039 1.1989892
-3.6845994 -3.6599252 1.1989892
-3.7075224 -3.6367021 1.1989892
-3.737298 -3.6201146 1.2012386
-3.7599699 -3.5965612 1.2012386
-3.7895768 -3.5795565 1.2034881
-3.819118 -3.5623214 1.2057376
-3.812758 -3.5118501 1.1967396
-3.8203318 -3.4747124 1.1922406
-3.7985933 -3.4115763 1.1787435
-3.7980838 -3.368247 1.1719949
-3.8409252 -3.3638456 1.1787435
-3.9427602 -3.4100966 1.2034881
-3.971462 -3.3916495 1.2057376
-4.0001421 -3.3729112 1.2079872
-3.9763253 -3.3103065 1.1944901
-3.959409 -3.2543228 1.1832426
-3.9646461 -3.2171021 1.1787435
-5.2927632 -4.2399259 1.5656593
-5.3422265 -4.2247186 1.5724078
-5.3917074 -4.2090564 1.5791564
-5.4334831 -4.1869917 1.5836554
-5.4829488 -4.1704659 1.5904039
-5.5402131 -4.1593332 1.599402
-5.5897236 -4.1418438 1.6061505
-5.6392322 -4.1238956 1.6128991
-5.6966362 -4.1111903 1.6218971
-5.7541018 -4.0979257 1.6308951
-5.8036523 -4.0784979 1.6376437
-5.8609037 -4.0645757 1.6466417
-5.9100976 -4.0446939 1.6533902
-5.9679155 -4.0289636 1.6623882
-6.0259023 -4.0124645 1.6713864
-6.075491 -3.9904728 1.6781348
-6.1331539 -3.9734123 1.6871328
-6.198771 -3.9614694 1.6983805
-6.2479243 -3.938575 1.7051289
-6.322134 -3.9302099 1.718626
-6.3716249 -3.9056857 1.7253746
-6.4210563 -3.8806944 1.7321231
-6.5039062 -3.8751848 1.7478696
-6.5617328 -3.853982 1.7568676
-6.6195488 -3.8322046 1.7658658
-6.6858115 -3.8146808 1.7771133
-6.7436209 -3.7916994 1.7861114
-6.809927 -3.7728631 1.7973589
-6.8762608 -3.7533426 1.8086065
-6.9340348 -3.7285221 1.8176045
-7.0089879 -3.7122438 1.8311015
-7.0753694 -3.6906633 1.8423491
-7.1417546 -3.6683946 1.8535967
-7.2165742 -3.6503451 1.8670937
-7.282661 -3.6272829 1.8783413
-7.3577418 -3.6073096 1.8918383
-7.4329152 -3.5864141 1.9053354
-7.5083671 -3.5641835 1.9188324
-7.5750642 -3.5368903 1.9300801
-7.6500726 -3.5140429 1.9435771
-7.7338538 -3.4946609 1.9593236
-7.8092732 -3.4693127 1.9728208
-7.8847933 -3.4428878 1.9863178
-7.586369 3.8259165 1.9615731
-7.6749182 3.9312568 1.9908168
-7.6593747 4.0455928 1.9998149
-7.4446564 4.1150203 1.9638227
-7.3580055 4.2485743 1.9615731
-7.4464321 4.4253235 1.9998149
-7.401792 4.4619608 1.9953158
-7.2873244 4.6465597 1.9953158
-7.0697842 4.5705862 1.9435771
-6.5492082 4.351696 1.8153549
-6.6025524 4.4471912 1.8378501
-6.8206973 4.7834487 1.9233315
-6.6872616 4.7528272 1.8940878
-6.6253014 4.7724433 1.8850898
-6.4767208 4.7283721 1.8513471
-6.50947 4.8154392 1.8693433
-6.4868836 4.8620863 1.8715928
-6.7455387 9.8497658 -0.20838173
-6.6555328 9.8505287 -0.20750912
-6.599052 9.9004736 -0.20768364
-6.4982667 9.8832588 -0.20646197
-6.376193 9.8316183 -0.2045422
-6.2765827 9.8125257 -0.20332053
-6.1667914 9.7756624 -0.20174982
-6.0524368 9.7293167 -0.20000458
-5.9545884 9.7074947 -0.19878291
-5.8624344 9.6933823 -0.19773576
-5.7502069 9.6441488 -0.19599052
-5.6591024 9.6283674 -0.19494338
-5.493238 9.4820538 -0.19127837
-5.3988514 9.4556007 -0.1900567
-5.3050103 9.4283409 -0.18883504
-5.2117319 9.4002743 -0.18761337
-5.1238046 9.380188 -0.18656622
-5.0363417 9.3593664 -0.18551908
-4.9399738 9.3201532 -0.18412289
-4.8535576 9.2978258 -0.18307574
-1.9244153 3.743705 -0.073474631
-1.8557051 3.6665125 -0.071729392
-1.8415482 3.6959984 -0.072078437
-1.8226929 3.7164729 -0.072252959
-1.7906125 3.7098432 -0.071903914
-1.7629791 3.7119887 -0.071729392
-1.7269224 3.6958177 -0.071205817
-1.7036679 3.7065949 -0.071205817
-1.6721091 3.6990039 -0.070856772
-1.6528969 3.7185731 -0.071031295
-1.6252118 3.7198474 -0.070856772
-1.6054251 3.7393134 -0.071031295
-1.5821455 3.7492228 -0.071031295
-1.5550544 3.749718 -0.070856772
-1.5352769 3.7686574 -0.071031295
-1.5152824 3.7875123 -0.071205817
-1.498765 3.8155711 -0.071554862
-3.0710194 8.7768154 -0.16230738
-2.9898727 8.720273 -0.16091119
-2.9445703 8.7673225 -0.16143475
-2.9144177 8.8616343 -0.16283095
-3.2324827 10.040899 -0.18412289
-3.1603205 10.032401 -0.18359931
-3.0824997 10.004284 -0.1827267
-3.0253513 10.042601 -0.18307574
-3.0912855 10.502853 -0.19110385
-3.0022161 10.445458 -0.18970765
-2.9931414 10.666307 -0.19337267
-2.9128628 10.636685 -0.19250004
-2.8537111 10.683758 -0.19302361
-2.2448447 8.621171 -0.15550093
-2.1537507 8.4897337 -0.15288308
-2.100368 8.5030985 -0.15288308
-2.0422246 8.496685 -0.15253402
-1.9842497 8.4898758 -0.15218498
-1.9220079 8.4631758 -0.15148689
-1.8601848 8.4360285 -0.15078878
-1.8008707 8.4182177 -0.15026522
-1.7398238 8.3902054 -0.14956713
-1.6831331 8.3813658 -0.14921807
-1.622813 8.3525162 -0.14851998
-1.5659726 8.3430138 -0.14817093
-1.5092257 8.3331442 -0.14782187
-1.4515867 8.3129301 -0.14729831
-1.3943549 8.2923059 -0.14677474
-1.3380698 8.2711897 -0.14625116
-1.2837242 8.2595625 -0.14590211
-1.2268449 8.2378769 -0.14537854
-1.1715188 8.225729 -0.1450295
-1.1170274 8.2131243 -0.14468044
-1.0615476 8.1902342 -0.14415687
-1.0076184 8.1768961 -0.14380783
-0.95390302 8.1632032 -0.14345878
-0.90039527 8.1491604 -0.14310972
-0.8471061 8.1347666 -0.14276068
-0.79402906 8.1200266 -0.14241163
-0.74117506 8.1049414 -0.14206259
-0.68768984 8.0795517 -0.14153901
-0.63612801 8.0737448 -0.14136449
-0.58393931 8.0576382 -0.14101544
-0.53198248 8.041194 -0.1406664
-0.48025113 8.0244169 -0.14031735
-0.42929053 8.017292 -0.14014283
-0.37796229 7.9998565 -0.13979377
-0.32687443 7.9820929 -0.13944472
-0.2763668 7.9739966 -0.1392702
-0.22512747 7.9355979 -0.13857211
-0.17586908 7.9368424 -0.13857211
-0.052494336 3.2890801 -0.057418417
-0.031572871 3.2593505 -0.056894843
-0.011060081 3.2494862 -0.05672032
0.0093580261 3.2494915 -0.05672032
0.029499196 3.2193744 -0.056196749
0.049263798 3.1891336 -0.055673175
0.068866119 3.1687689 -0.055324126
0.088735715 3.1582725 -0.055149604
0.10850892 3.1476505 -0.054975078
0.12767136 3.1369247 -0.054800555
0.14710492 3.1360736 -0.054800555
0.1670116 3.1350763 -0.054800555
0.18697993 3.1339488 -0.054800555
0.20735975 3.1426866 -0.054975078
0.22638065 3.1313493 -0.054800555
0.2452673 3.1198974 -0.054626033
0.26655766 3.1382201 -0.054975078
0.28650978 3.1364613 -0.054975078
0.30745748 3.1445236 -0.055149604
0.32803804 3.1524959 -0.055324126
0.34866065 3.160341 -0.055498652
0.37079367 3.1779542 -0.055847701
1.5685987 10.552427 -0.18621717
1.739917 11.214096 -0.19808482
1.8400458 11.38045 -0.20122625
1.9232444 11.437663 -0.20244791
2.020869 11.573095 -0.20506577
2.1042352 11.6192 -0.20611292
2.191947 11.684366 -0.20750912
2.2977071 11.837223 -0.21047601
3.3996294 16.408978 -0.29250231
3.4922125 16.338406 -0.2916297
4.73173 15.375955 -0.28080922
4.8312469 15.355458 -0.28098375
4.9368138 15.353355 -0.28150731
12.585765 16.968779 -0.36876935
12.61423 16.785316 -0.36650053
12.670991 16.642088 -0.36510435
12.695917 16.459227 -0.36283553
12.879115 16.48155 -0.36510435
13.658829 16.183083 -0.36964196
13.77973 16.119743 -0.37016553
7.9799623 8.9864674 -0.20977792
8.0095243 8.9064131 -0.20907983
15.262183 16.758224 -0.39564604
15.177374 16.456207 -0.39075938
15.08938 16.155922 -0.38587269
15.00509 15.864665 -0.38116056
14.910827 15.567892 -0.37627387
14.834318 15.29447 -0.37191078
14.740956 15.008364 -0.36719862
14.679847 14.759487 -0.36335909
14.445425 13.986373 -0.35096788
14.381255 13.750232 -0.34730288
14.474636 13.666465 -0.34747741
14.399332 13.425247 -0.34363788
14.336287 13.199064 -0.34014741
14.233982 12.940579 -0.33578429
14.203405 12.750701 -0.33316642
14.141081 12.535192 -0.32985047
14.076614 12.320974 -0.32653451
13.91638 11.724908 -0.31763378
13.851415 11.522144 -0.31449234
13.792182 11.327011 -0.31152546
7.1140504 5.7680435 -0.15986404
7.1423454 5.7169838 -0.15968952
7.2016602 5.6905909 -0.16021308
8.7223663 6.7159142 -0.192151
8.7325497 6.6367779 -0.19145289
8.7580805 6.5697794 -0.19110385
8.9357948 6.6157618 -0.19407076
8.9448948 6.5358906 -0.19337267
13.083274 9.3098326 -0.28028566
13.018769 9.1412601 -0.27766779
13.001981 9.0080338 -0.27609706
13.305951 9.0954332 -0.28133279
13.064411 8.8103981 -0.27504992
13.135491 8.7402182 -0.27539897
13.206109 8.6696396 -0.27574801
13.235704 8.5693216 -0.27522445
13.281599 8.4794502 -0.27504992
13.334064 8.3967056 -0.27504992
13.37734 8.3086529 -0.2748754
6.9579253 4.2605863 -0.14241163
6.9592457 4.2006745 -0.14188807
7.0628781 4.202805 -0.14345878
13.826207 7.5380983 -0.2748754
13.872647 7.4522882 -0.2748754
6.7387238 3.5116959 -0.13263829
6.7161775 3.4464619 -0.13176566
6.800168 3.4357572 -0.13298734
6.9024539 3.4325101 -0.13455805
7.6785655 3.7576406 -0.14921807
7.6657491 3.6924694 -0.14851998
7.119298 3.3750679 -0.13752496
7.6296387 3.5585694 -0.14694926
7.4519176 3.4188361 -0.14310972
7.5917301 3.4254048 -0.14537854
7.5856848 3.3654728 -0.14485498
7.4417162 3.2457943 -0.14171354
7.5262904 3.2265501 -0.1429352
17.923254 -1.5160834 -0.31396878
17.953203 -1.6322892 -0.3146669
18.022205 -1.7528027 -0.31606308
18.189852 -1.884551 -0.31920451
19.250158 -11.427634 -0.39075938
18.518438 -11.151208 -0.37732103
18.823454 -11.49665 -0.38500008
18.24085 -11.298791 -0.37452865
14.929729 -9.906148 -0.31274712
14.892082 -10.016499 -0.31327069
14.853637 -10.126767 -0.31379426
13.388909 -9.7579908 -0.28918636
13.110171 -9.6815538 -0.28447422
12.542837 -9.505229 -0.27470088
12.292634 -9.437583 -0.27051228
11.803951 -9.3004742 -0.26230967
11.549918 -9.2185278 -0.25794655
11.305163 -9.140049 -0.25375798
11.100536 -9.090538 -0.25044203
7.6247287 -6.4058485 -0.17382596
7.5924377 -6.4595289 -0.17400049
8.6582193 -7.4592457 -0.199481
8.4982538 -7.414804 -0.19686314
8.3391113 -7.3687444 -0.19424528
8.1883373 -7.3276491 -0.19180195
8.164361 -7.3990955 -0.19232552
8.147747 -7.4766674 -0.19302361
8.1305647 -7.5542302 -0.19372171
8.1188507 -7.6399541 -0.19459432
8.0917282 -7.7122149 -0.19511791
8.057415 -7.7768793 -0.19546695
8.0298443 -7.8483181 -0.19599052
8.0094042 -7.9261374 -0.19668862
7.9954553 -8.0109968 -0.19756123
7.9661069 -8.0823517 -0.19808482
7.9430618 -8.1609039 -0.19878291
7.905488 -8.2250652 -0.19913195
7.8880682 -8.3108349 -0.20000458
7.8636851 -8.3888121 -0.20070267
7.84552 -8.4740591 -0.20157529
7.8192005 -8.552619 -0.20227338
7.7988086 -8.6386871 -0.20314601
7.7709894 -8.7173719 -0.2038441
7.8085504 -8.8710985 -0.20628744
7.7985706 -8.9728107 -0.20750912
7.7876186 -9.0747471 -0.20873077
7.7627649 -9.1616402 -0.2096034
7.7307096 -9.2409096 -0.21030149
7.6986761 -9.3195477 -0.21099959
7.6723862 -9.4058065 -0.21187221
7.6445956 -9.4926815 -0.21274483
7.6221337 -9.5874853 -0.21379198
7.592608 -9.6745138 -0.21466459
7.5684114 -9.769453 -0.21571174
7.5372467 -9.8565264 -0.21658435
7.5052853 -9.9435911 -0.21745698
7.4493976 -9.9980001 -0.2176315
8.5484219 -11.622648 -0.25183821
8.5105982 -11.724585 -0.25288537
8.47752 -11.834723 -0.25410703
8.4433918 -11.944908 -0.25532871
8.4139328 -12.06333 -0.25672489
8.3719807 -12.165377 -0.25777203
7.2900476 -10.737052 -0.22653224
7.2391343 -10.807566 -0.2270558
8.2437811 -12.648345 -0.26353133
8.1695528 -12.708302 -0.26370585
7.0340996 -11.567074 -0.23630558
6.9973993 -11.670993 -0.23752725
6.9748044 -11.800803 -0.23927249
6.9407892 -11.913506 -0.24066868
6.9106073 -12.034917 -0.2422394
6.8742476 -12.147715 -0.24363559
6.8416114 -12.269259 -0.24520631
6.8029027 -12.382108 -0.24660251
6.7678037 -12.503745 -0.24817322
6.7324085 -12.624912 -0.24974394
6.6959038 -12.746047 -0.25131464
6.6112313 -12.778914 -0.25114012
6.539886 -12.838019 -0.25148916
6.5039172 -12.968231 -0.25323442
6.5373869 -13.241942 -0.25777203
6.5064931 -13.390673 -0.25986633
6.4696732 -13.530514 -0.2617861
6.4281387 -13.660878 -0.26353133
6.3853846 -13.791175 -0.26527658
6.3401966 -13.921947 -0.26702181
6.2934642 -14.05276 -0.26876706
6.2493663 -14.192683 -0.27068681
6.183898 -14.286723 -0.27173397
6.1292357 -14.408101 -0.27330467
7.3149414 -17.499798 -0.33107215
7.1719956 -17.461624 -0.32950142
6.4051871 -15.873837 -0.29878518
6.3226967 -15.960658 -0.29965782
6.1955295 -15.935381 -0.29843614
6.060678 -15.880181 -0.29669091
5.9376211 -15.851885 -0.29546922
5.8104906 -15.813735 -0.29407305
5.6737332 -15.74646 -0.29215327
5.6845789 -16.092909 -0.29791257
5.6291447 -16.260584 -0.30035591
5.575037 -16.437664 -0.30297378
5.5220766 -16.624187 -0.30576617
5.4638982 -16.80118 -0.30838403
5.4097762 -16.997147 -0.31135091
5.3177361 -17.078533 -0.31222355
5.230711 -17.178562 -0.31344521
5.1781945 -17.392771 -0.31676117
3.6260531 -12.461172 -0.22653224
3.531426 -12.425964 -0.22548509
3.4479363 -12.428638 -0.22513604
3.3593283 -12.411452 -0.22443794
3.2812788 -12.432314 -0.22443794
3.2080815 -12.472053 -0.224787
3.1393738 -12.530758 -0.22548509
3.0558412 -12.530807 -0.22513604
4.5878849 -19.340252 -0.34695384
4.5246887 -19.622009 -0.35149145
4.449389 -19.864698 -0.355331
1.9239388 -13.147957 -0.23194247
1.8274354 -13.060765 -0.23019724
1.7321043 -12.972884 -0.228452
1.6480376 -12.963674 -0.22810295
1.5689495 -12.993626 -0.228452
-0.89515793 -13.147554 -0.23002271
-0.97600281 -13.131774 -0.22984819
-3.1312385 -19.152773 -0.3387512
-3.2699435 -19.24115 -0.34067097
-1.6084659 -7.7026534 -0.13735044
-1.6526207 -7.6728468 -0.1370014
-1.6856314 -7.5939851 -0.13577972
-1.7333122 -7.5832443 -0.13577972
-1.7763466 -7.5527382 -0.13543068
-1.8261167 -7.551146 -0.1356052
-1.866292 -7.5104132 -0.13508162
-1.9233328 -7.537291 -0.13577972
-1.9757187 -7.5444021 -0.13612877
-2.036051 -7.5801206 -0.1370014
-2.0809834 -7.5575385 -0.13682686
-5.4267068 -13.530059 -0.25445607
-5.3982038 -13.218006 -0.24922036
-4.0356593 -8.9068918 -0.17068453
-4.1501131 -9.0084953 -0.17312787
-4.0497327 -8.6472187 -0.16667047
-4.0824976 -8.5764637 -0.16579786
-3.8141079 -7.884593 -0.15288308
-4.1943579 -8.5334587 -0.16597238
-3.8414168 -7.6929183 -0.15009069
-4.1067748 -8.0966463 -0.15846784
-3.6670887 -7.1199031 -0.13979377
-3.6184695 -6.9198413 -0.13630329
-3.5633404 -6.7115579 -0.13263829
-3.4915838 -6.4778037 -0.12844971
-3.4314327 -6.2715387 -0.1247847
-3.0338898 -5.4631596 -0.10907754
-2.9797928 -5.2872028 -0.1059361
-2.9335356 -5.1295061 -0.10314372
-3.0610514 -5.2752848 -0.10645968
-2.9267485 -4.9716096 -0.10070039
-2.9678011 -4.9705176 -0.10104943
-2.8897865 -4.7724261 -0.097384423
-2.9248958 -4.7627268 -0.097558953
-2.9600487 -4.7527423 -0.097733475
-3.1019707 -4.9115777 -0.10139848
-3.1058095 -4.8498907 -0.10052586
-3.1362209 -4.8302808 -0.10052586
-3.2269797 -4.9023471 -0.10244562
-3.1966708 -4.7904897 -0.10052586
-3.1594839 -4.6709285 -0.098431572
-3.1887698 -4.6509848 -0.098431572
-3.2179298 -4.6308575 -0.098431572
-3.2469625 -4.6105471 -0.098431572
-3.4501154 -4.8342071 -0.10366729
-3.4862809 -4.8205357 -0.10384182
-3.5224102 -4.8066001 -0.10401634
-3.558502 -4.7924008 -0.10419086
-3.600565 -4.7859278 -0.10453992
-3.6366258 -4.771162 -0.10471444
-3.6726427 -4.7561321 -0.10488896
-3.7147748 -4.748713 -0.10523801
-3.6513906 -4.6077342 -0.10262015
-3.6361108 -4.5303993 -0.10139848
-3.613658 -4.4457145 -0.10000229
-3.5969856 -4.3689284 -0.098780617
-3.5731375 -4.284811 -0.097384423
-3.5548279 -4.2088065 -0.096162759
-3.5942013 -4.2015834 -0.096511804
-3.6401708 -4.2015877 -0.097035378
-3.6730926 -4.1861486 -0.097209901
-3.7059639 -4.1704617 -0.097384423
-3.7387826 -4.1545262 -0.097558953
-3.7782822 -4.1457324 -0.097907998
-3.8110371 -4.1292586 -0.09808252
-3.8434196 -4.1128302 -0.09825705
-3.8825727 -4.1034627 -0.098606095
-3.9289849 -4.1006889 -0.099129669
-3.9685974 -4.0902734 -0.099478714
-4.0012264 -4.0723896 -0.099653237
-4.0408392 -4.0613446 -0.10000229
-4.0733738 -4.0429187 -0.10017681
-4.1201172 -4.0382414 -0.10070039
-4.1597776 -4.0261817 -0.10104943
-4.1994486 -4.0137825 -0.10139848
-4.2391276 -4.0010428 -0.10174753
-4.2788115 -3.987963 -0.10209657
-4.3184977 -3.9745417 -0.10244562
-4.3655829 -3.9675033 -0.1029692
-4.4053082 -3.9533513 -0.10331824
-4.4525104 -3.9454873 -0.10384182
-4.4919615 -3.9309447 -0.10419086
-4.5389261 -3.9226499 -0.10471444
-4.5786514 -3.9070852 -0.10506348
-4.6260486 -3.8975663 -0.10558706
-4.6735067 -3.8876057 -0.10611063
-4.7210207 -3.8772016 -0.1066342
-4.7608213 -3.8600559 -0.10698325
-4.8083982 -3.8488111 -0.10750682
-4.848176 -3.8309209 -0.10785587
-4.895802 -3.8188319 -0.10837944
-4.9434662 -3.8062949 -0.10890301
-4.9911652 -3.7933092 -0.10942659
-5.0388956 -3.7798734 -0.10995016
-5.0946889 -3.7719364 -0.11064825
