# .PCD v0.7 - Point Cloud Data file format
VERSION 0.7
FIELDS x y z
SIZE 4 4 4
TYPE F F F
COUNT 1 1 1
WIDTH 1490
HEIGHT 1
VIEWPOINT 0 0 0 1 0 0 0
POINTS 1490
DATA ascii
-6.9627514 -4.1952314 -0.99810988
-6.9548402 -4.1311231 -0.99323511
-6.9549627 -4.0723 -0.98957902
-6.9460273 -4.0086737 -0.98470426
-6.9365659 -3.9453249 -0.97982949
-6.9265862 -3.8822503 -0.97495472
-6.9942842 -3.8626463 -0.98104823
-7.0794463 -3.8518274 -0.98957902
-7.1647444 -3.8400934 -0.99810988
-1.4340864 -0.63460153 -0.19255356
-1.4289438 -0.6216194 -0.19133486
-1.4236952 -0.60872638 -0.19011617
-1.3817387 -0.58054608 -0.18402271
-1.3761847 -0.56806546 -0.18280402
-1.3797266 -0.55940783 -0.18280402
-1.3647715 -0.54338437 -0.18036662
-1.3589143 -0.53118545 -0.17914793
-1.3622252 -0.52263629 -0.17914793
-1.3561929 -0.51057023 -0.17792924
-1.3314419 -0.49172276 -0.17427316
-1.3531694 -0.49010786 -0.17671055
-1.3562013 -0.48165488 -0.17671055
-1.3404124 -0.46671575 -0.17427316
-1.3432984 -0.45834285 -0.17427316
-1.3555653 -0.45304012 -0.17549185
-1.3489519 -0.44142669 -0.17427316
-1.3516988 -0.43294266 -0.17427316
-1.3449211 -0.4214727 -0.17305447
-1.3475426 -0.41301438 -0.17305447
-1.3406034 -0.40169019 -0.17183577
-1.3526262 -0.39604849 -0.17305447
-1.3455452 -0.38481238 -0.17183577
-1.3479364 -0.37635088 -0.17183577
-1.3502746 -0.36787379 -0.17183577
-1.3621519 -0.36193171 -0.17305447
-1.3547906 -0.35087746 -0.17183577
-1.3569684 -0.34235817 -0.17183577
-1.3590927 -0.33382574 -0.17183577
-1.3708171 -0.32758635 -0.17305447
-1.3728482 -0.31896719 -0.17305447
-1.3845072 -0.31252018 -0.17427316
-1.3961388 -0.30593988 -0.17549185
-1.3980335 -0.29716131 -0.17549185
-7.7491155 2.2862003 -0.99201643
-7.4877439 2.2596145 -0.96033043
-7.4071107 2.2858009 -0.95179957
-7.392602 2.3322978 -0.95179957
-7.387249 2.3817444 -0.95301825
-7.3815651 2.4312196 -0.95423692
-7.3754435 2.4810355 -0.95545566
-7.368875 2.5311968 -0.95667434
-7.3621931 2.5807281 -0.95789301
-7.3554072 2.6296365 -0.95911169
-7.3481822 2.6788769 -0.96033043
-7.3405085 2.7284536 -0.9615491
-7.341784 2.7815526 -0.96398652
-7.3241615 2.8276291 -0.96398652
-7.3339615 2.8844888 -0.96764255
-7.3156924 2.9305141 -0.96764255
-7.3063264 2.9801686 -0.96886128
-7.2966228 3.029825 -0.97007996
-7.2957277 3.0833366 -0.97251737
-7.294446 3.1369603 -0.97495472
-7.2835469 3.1870251 -0.9761734
-7.2902999 3.2454684 -0.97982949
-7.2788067 3.2953019 -0.98104823
-7.2672639 3.344492 -0.9822669
-7.2643847 3.3978629 -0.98470426
-7.2611189 3.451334 -0.98714167
-7.2512169 3.4264741 1.2702478
-7.2384491 3.4762409 1.2718122
-7.5892696 3.7035851 1.3375146
-7.5304546 3.733645 1.3312572
-7.2774949 3.6653736 1.2905843
-7.3950119 3.7829962 1.3156139
-7.3623309 3.8248341 1.3140495
-10.110511 7.3741469 1.9820247
-9.944191 7.3503408 1.9585595
-9.889987 7.4066477 1.9569951
-9.6393156 7.3125787 1.9163221
-9.4916515 7.2943945 1.8959857
-9.3443203 7.2750072 1.8756492
-9.1976061 7.2540646 1.8553127
-9.0515327 7.2315636 1.8349762
-8.9214611 7.2199483 1.8177685
-8.9446688 7.3322115 1.8318475
-8.9198589 7.501245 1.8459266
-8.9022541 7.5831976 1.8521841
-8.9135895 7.6913733 1.8646988
-8.924283 7.7995663 1.8772136
-8.8677073 7.8489366 1.8756492
-8.0239134 7.1925025 1.7067
-7.9054341 7.1763873 1.6910565
-7.7874775 7.15907 1.6754131
-7.6772823 7.1472864 1.661334
-7.5678911 7.1340361 1.6472549
-7.6664405 7.3171778 1.6785418
-7.4643474 7.2139077 1.6441262
-7.242404 7.0879545 1.6050175
-7.1275716 7.063796 1.5893742
-7.0272775 7.0524664 1.5768594
-6.9270611 7.0405006 1.5643446
-6.8338962 7.0348935 1.5533942
-6.6593847 6.9425225 1.5236716
-6.6428032 7.0129085 1.529929
-6.4501719 6.8958192 1.4955134
-6.3665094 6.8926759 1.4861274
-6.2964506 6.9033537 1.47987
-6.2265139 6.9134212 1.4736127
-6.1373472 6.9004412 1.4626622
-6.0553651 6.8938117 1.4532762
-5.9600844 6.8720961 1.4407614
-5.8776445 6.8649077 1.4313754
-5.8086243 6.8717551 1.425118
-5.7273636 6.8626165 1.4157319
-5.6652875 6.8756008 1.4110389
-5.5783477 6.8574257 1.4000884
-5.5104113 6.8615379 1.393831
-5.4426484 6.8650651 1.3875737
-5.3750558 6.8680158 1.3813163
-5.2955689 6.8547544 1.3719302
-5.2224479 6.8486238 1.3641086
-5.1199198 6.8023868 1.3484651
-5.047627 6.7947803 1.3406433
-4.975637 6.7865324 1.3328216
-4.8981571 6.7696509 1.3234355
-4.8268309 6.7601008 1.3156139
-4.7671924 6.7660742 1.3109208
-4.6963983 6.7553444 1.303099
-4.6315112 6.7521405 1.2968417
-4.5613194 6.7402072 1.2890199
-4.4856439 6.7196679 1.2796339
-4.4264531 6.7233577 1.2749408
-4.3838649 6.751204 1.2749408
-4.3307076 6.7619796 1.2718122
-4.2723103 6.7640057 1.2671192
-4.2297287 6.7907147 1.2671192
-4.1542945 6.8602266 1.2702478
-4.1111064 6.8861942 1.2702478
-4.0577412 6.8948636 1.2671192
-4.0143375 6.9202242 1.2671192
-3.9756818 6.9538836 1.2686834
-3.9222126 6.9615169 1.2655548
-3.9119551 7.0464702 1.2765052
-3.8723416 7.079577 1.2780696
-3.8230999 7.0950718 1.2765052
-3.7599213 7.0840569 1.2702478
-3.7473676 7.1688123 1.2811983
-3.6886876 7.1658716 1.2765052
-3.6569879 7.2153358 1.2811983
-3.5939398 7.2028203 1.2749408
-3.539906 7.2075281 1.2718122
-3.4902501 7.220736 1.2702478
-3.4236021 7.1979251 1.2624261
-3.3741207 7.2103491 1.2608618
-3.3370123 7.2493501 1.2639904
-3.3158367 7.3241615 1.2733765
-3.2938557 7.3989887 1.2827626
-3.2314591 7.3833466 1.2765052
-3.1811035 7.3944306 1.2749408
-3.1268861 7.3960786 1.2718122
-3.072778 7.397336 1.2686834
-3.0150423 7.3890629 1.2639904
-2.9538622 7.3711877 1.2577331
-2.8966389 7.3620291 1.2530401
-2.84321 7.3616562 1.2499113
-2.786396 7.3516684 1.2452183
-2.7298241 7.3412571 1.2405252
-2.6802578 7.3489857 1.238961
-2.620729 7.3284802 1.2327036
-2.5713618 7.3354816 1.2311392
-2.5123885 7.3141279 1.2248819
-2.4537814 7.2923255 1.2186245
-2.4079161 7.3075986 1.2186245
-2.3528559 7.294384 1.2139314
-2.2950881 7.2713475 1.207674
-2.246444 7.2761865 1.2061098
-2.1949754 7.271246 1.202981
-2.1436541 7.2659483 1.1998523
-2.0924902 7.2602921 1.1967236
-2.0384476 7.2448735 1.1920305
-1.9896401 7.2481875 1.1904663
-1.9386705 7.241539 1.1873375
-1.8881459 7.2344627 1.1842089
-1.8377832 7.2270398 1.1810802
-1.7875923 7.2192688 1.1779515
-1.7398816 7.2207565 1.1763872
-1.6899735 7.2123127 1.1732584
-1.6402365 7.2035284 1.1701298
-1.5906806 7.1944036 1.1670011
-1.543372 7.1945992 1.1654367
-1.4941169 7.184814 1.1623081
-1.446992 7.1843781 1.1607437
-1.3980464 7.1739388 1.1576151
-1.3511136 7.1728754 1.1560507
-1.3024859 7.1617875 1.152922
-1.2472227 7.1114597 1.143536
-1.2090976 7.1581116 1.1497933
-1.1640964 7.1655674 1.1497933
-1.1144854 7.1434631 1.1451002
-1.0663099 7.1308403 1.1419716
-1.0180663 7.1179338 1.1388429
-0.97206002 7.1143937 1.1372786
-0.92668366 7.110486 1.1357142
-0.88104486 7.1063328 1.1341499
-0.83522558 7.1019187 1.1325855
-0.78805351 7.0874324 1.1294569
-0.74185991 7.0824857 1.1278925
-0.69610822 7.0772042 1.1263281
-0.65072417 7.0716028 1.1247637
-0.60543424 7.065711 1.1231995
-0.56024784 7.0595293 1.1216351
-0.51550865 7.0530343 1.1200707
-0.47113875 7.0462379 1.1185064
-0.42712528 7.0490432 1.1185064
-0.38229308 7.0417252 1.116942
-0.33756596 7.0341225 1.1153777
-0.29295325 7.0262365 1.1138134
-0.24809979 7.0081968 1.1106846
-0.20377576 6.9997449 1.1091204
-0.16632521 7.2872419 1.1544863
-0.12576354 7.6041603 1.2045454
-0.087095559 8.4936733 1.3453363
-0.03451344 8.6915884 1.3766233
0.020122992 8.7015114 1.3781877
0.07470832 8.6913366 1.3766233
0.12902389 8.6709442 1.3734946
0.18726414 8.8477058 1.4016528
0.24312289 8.8562279 1.4032171
0.29942918 8.8742685 1.4063458
0.38994908 9.7406816 1.5440081
0.47719735 10.300419 1.6331757
0.59069937 11.22436 1.7802242
0.6716705 11.397903 1.8083824
0.81407118 6.6468611 1.0606257
0.85581827 6.6416149 1.0606257
6.0162048 9.5526476 1.7880459
6.0920548 9.5396309 1.7927389
6.184082 9.55091 1.802125
6.2602301 9.5366364 1.806818
6.3309698 9.5135593 1.8099468
6.4237609 9.5227213 1.8193328
6.5001912 9.5066319 1.8240259
6.5766721 9.4899559 1.8287189
6.6645532 9.4888592 1.8365406
6.6896768 9.3985176 1.8271545
6.771708 9.3883419 1.8334119
6.3969383 6.2006893 1.4110389
6.3572869 6.0852475 1.393831
6.3953962 6.0451837 1.393831
5.8317585 5.3752704 1.2561687
5.8873301 5.3584671 1.2608618
5.9135356 5.3147688 1.2592974
6.0059114 5.3299551 1.2718122
6.163672 5.1312785 1.2702478
6.1957908 5.0924501 1.2702478
6.3350382 5.1405487 1.2921487
6.251339 5.0083232 1.2686834
6.5868411 5.0119267 1.3109208
6.6734853 5.011961 1.3218712
10.29659 -7.2157764 1.9914107
10.130259 -7.1945434 1.9679456
9.9565887 -7.1657391 1.942916
9.9356651 -7.2451277 1.9476091
9.7237549 -7.1833062 1.9147578
9.5759096 -7.1669536 1.8944213
9.4283781 -7.1493983 1.8740848
9.3754387 -7.2024798 1.8725206
9.3611774 -7.2855096 1.8787779
9.3384848 -7.3625288 1.8834709
9.3306293 -7.4518771 1.8912927
9.3066597 -7.5289917 1.8959857
9.2897291 -7.612359 1.902243
9.2800932 -7.701663 1.9100648
9.2624426 -7.7844315 1.9163221
9.2587776 -7.8805323 1.9257082
9.2464848 -7.9707952 1.93353
9.1069374 -7.9507861 1.9147578
9.0568008 -8.0078497 1.9147578
9.2270508 -8.2622585 1.9616882
9.2115383 -8.3532448 1.9695098
9.1956587 -8.4439096 1.9773316
9.1865673 -8.5410738 1.9867177
9.168582 -8.6325788 1.9945394
2.3355393 -11.841424 1.9116291
2.3147511 -12.137223 1.9569951
2.0705676 -12.091081 1.942916
1.9015672 -11.998821 1.9241439
1.795414 -11.805406 1.8912927
1.705543 -11.708942 1.8740848
1.7055002 -12.247682 1.9585595
1.640219 -12.346273 1.9726386
1.3436098 -11.815619 1.8834709
1.2661811 -11.794367 1.8787779
1.067113 -12.081779 1.9210151
0.98956597 -12.068557 1.9178865
0.90924609 -12.015444 1.9085004
0.82963294 -11.961801 1.8991144
0.60203451 -11.906187 1.8881639
0.52573794 -11.899914 1.8865997
0.45146257 -11.912847 1.8881639
0.3870306 -12.211573 1.9350944
0.31503496 -12.381604 1.9616882
-0.30808607 -12.431179 1.9695098
-0.38907775 -12.557369 1.9898463
-0.46626699 -12.505322 1.9820247
-2.3901606 -9.8477736 1.6050175
-2.4495988 -9.822978 1.6034533
-2.5039196 -9.7786884 1.5987602
-2.4623976 -9.3711061 1.5346221
-2.3927259 -8.8786173 1.4564048
-2.2916205 -8.097065 1.3328216
-2.309458 -7.9686685 1.3140495
-2.263978 -7.6320529 1.2608618
-1.9418684 -6.3984714 1.0590613
-1.9173211 -6.1787119 1.0246457
-2.1018608 -6.6280408 1.1012986
-1.9483749 -6.0134411 1.0011805
-1.9333634 -5.8416767 0.97458673
-1.9668672 -5.8200569 0.97302234
-2.0033967 -5.8075838 0.97302234
-2.1087165 -5.9905286 1.0058736
-2.1296246 -5.9306822 0.99805188
-2.1872237 -5.9728317 1.0074379
-2.2350724 -5.9867306 1.012131
-2.1988795 -5.7787147 0.97927976
-2.2315741 -5.7555757 0.97771537
-2.2640648 -5.7322545 0.97615105
-2.3000369 -5.7179155 0.97615105
-2.4444783 -5.968411 1.021517
-2.4857297 -5.9620509 1.0230814
-2.5269992 -5.9554071 1.0246457
-2.5682831 -5.9484801 1.0262101
-2.61326 -5.9504399 1.0293387
-2.6178577 -5.8619866 1.016824
-2.6625826 -5.8635101 1.0199527
-2.7035115 -5.8556323 1.021517
-2.7108753 -5.7759423 1.0105666
-2.7003355 -5.6607356 0.99335885
-2.6284044 -5.4213371 0.95425022
-2.6279647 -5.3336043 0.94173545
-2.6657875 -5.3258486 0.94329983
-2.7076852 -5.326839 0.94642848
-2.7454293 -5.3186021 0.94799286
-2.7833781 -5.3099952 0.94955719
-2.8213272 -5.3011208 0.95112151
-2.8592727 -5.2919798 0.95268589
-2.9019659 -5.2912297 0.95581454
-2.9399579 -5.2815218 0.95737892
-2.9828005 -5.2801447 0.96050757
-3.0208294 -5.2698679 0.96207196
-3.0687783 -5.2763972 0.96676499
-3.1119084 -5.274024 0.96989369
-3.1548715 -5.2714715 0.97302234
-3.1925964 -5.2602668 0.97458673
-3.235997 -5.2568903 0.97771537
-3.2798824 -5.2529244 0.98084408
-3.3233325 -5.248939 0.98397279
-3.3664603 -5.2448711 0.98710144
-3.4101799 -5.2401352 0.99023014
-3.4543729 -5.2347918 0.99335885
-3.4983783 -5.22927 0.9964875
-3.5422523 -5.2235346 0.99961621
-3.5861921 -5.2174544 1.0027449
-3.6245489 -5.2029228 1.0043093
-3.6799543 -5.2123213 1.0105666
-3.7241256 -5.2051616 1.0136954
-3.7680974 -5.1978374 1.016824
-3.8060763 -5.1823516 1.0183884
-3.856307 -5.182065 1.0230814
-3.8951881 -5.1652794 1.0246457
-3.9454978 -5.1642919 1.0293387
-3.9895084 -5.1553693 1.0324675
-4.0277195 -5.1381273 1.0340317
-4.0783501 -5.1359234 1.0387248
-4.1167302 -5.1178932 1.0402892
-4.161283 -5.1072402 1.0434178
-4.2121506 -5.1038465 1.0481108
-4.2631392 -5.1000142 1.0528039
-4.3142457 -5.0957417 1.057497
-4.3654656 -5.0910277 1.0621901
-4.4103193 -5.078413 1.0653187
-4.4551868 -5.0654349 1.0684474
-4.5066342 -5.0594683 1.0731404
-4.5581813 -5.0530543 1.0778334
-4.6029167 -5.0391245 1.0809622
-4.6541691 -5.0322623 1.0856552
-4.6990066 -5.017518 1.0887839
-4.7508292 -5.0093942 1.0934769
-4.8027349 -5.0008159 1.0981699
-4.8547196 -4.9917827 1.102863
-4.9137096 -4.9893293 1.1091204
-4.9728594 -4.9863315 1.1153777
-5.1444588 -5.0939775 1.1466646
-5.3952818 -5.2756166 1.1951593
-5.648582 -5.4542961 1.243654
-5.7470737 -5.4800415 1.2577331
-5.8389182 -5.4979906 1.2702478
-5.909514 -5.4948235 1.2780696
-5.9730229 -5.4843049 1.2843269
-6.0366325 -5.4732037 1.2905843
-6.1076956 -5.4681072 1.298406
-6.1715302 -5.455792 1.3046634
-6.2500658 -5.4561844 1.3140495
-6.313674 -5.4431524 1.3203069
-6.3701062 -5.4228244 1.3249999
-6.4418573 -5.4144678 1.3328216
-6.5213537 -5.4117303 1.3422077
-6.5857882 -5.3956866 1.3484651
-6.6582208 -5.3849311 1.3562868
-6.7309856 -5.3732152 1.3641086
-6.8036056 -5.361125 1.3719302
-6.8917284 -5.3607202 1.3828807
-6.9566107 -5.341373 1.389138
-7.0372639 -5.3333521 1.398524
-7.1178284 -5.3248763 1.4079101
-7.1904097 -5.3100104 1.4157319
-7.2793026 -5.3057261 1.4266824
-7.3606029 -5.2944908 1.4360684
-7.4420485 -5.2824402 1.4454545
-7.5155416 -5.2639074 1.4532762
-7.6053448 -5.2558889 1.4642266
-7.6871815 -5.2413845 1.4736127
-7.777329 -5.2315702 1.484563
-7.8676543 -5.2208285 1.4955134
-7.9581499 -5.209157 1.5064639
-8.0405092 -5.1911955 1.5158499
-8.1396179 -5.1830134 1.5283647
-8.2305737 -5.1685367 1.5393151
-8.3300638 -5.15832 1.5518298
-8.4297476 -5.1470556 1.5643446
-8.5211544 -5.1296468 1.5752951
-8.6211662 -5.1163316 1.5878098
-8.7213449 -5.1019602 1.6003245
-8.821681 -5.0865307 1.6128393
-8.9307518 -5.0749197 1.6269184
-9.0314035 -5.057312 1.6394331
-9.1408329 -5.0434093 1.6535122
-9.2504396 -5.0283294 1.6675913
-9.3602161 -5.0120697 1.6816704
-9.4614134 -4.9900198 1.6941853
-9.5887508 -4.9810224 1.711393
-9.6985645 -4.9620047 1.7254721
-9.8175707 -4.9457788 1.7411156
-9.9369373 -4.9278769 1.756759
-10.056463 -4.908669 1.7724024
-10.18504 -4.8924284 1.7896103
-10.305115 -4.8700385 1.8052537
-10.443409 -4.854249 1.8240259
-10.590661 -4.8415208 1.8443623
-10.728972 -4.8234816 1.8631345
-10.858438 -4.7999005 1.8803422
-10.997085 -4.7788177 1.8991144
-11.154057 -4.7639389 1.9210151
-11.293057 -4.7396297 1.9397874
-11.45045 -4.7212896 1.9616882
-11.617208 -4.7048645 1.9851533
-1.4860559 -0.53757811 0.25029513
-1.4800698 -0.52500147 0.24873079
-1.4739653 -0.512577 0.24716645
-1.4490906 -0.49380487 0.24247342
-1.4521646 -0.48469025 0.24247342
-1.445793 -0.4724884 0.24090907
-1.4299185 -0.45737684 0.23778038
-1.4233379 -0.4454335 0.23621604
-1.4166641 -0.43359107 0.2346517
-1.4098982 -0.42185017 0.23308735
-1.4030409 -0.41021153 0.23152301
-1.3960934 -0.39867583 0.22995865
-1.3890567 -0.38724375 0.22839431
-1.3914623 -0.37850845 0.22839431
-1.3938131 -0.36975819 0.22839431
-1.3865464 -0.35852081 0.22682998
-1.3791939 -0.34738976 0.22526562
-1.3813494 -0.33871686 0.22526562
-1.373843 -0.32773942 0.22370128
-1.3566322 -0.31463757 0.22057259
-1.3778529 -0.31044975 0.22370128
-1.3701277 -0.29967561 0.22213693
-1.3719834 -0.29106134 0.22213693
-1.3737851 -0.28243482 0.22213693
-1.3755326 -0.27379793 0.22213693
-1.3772258 -0.26514947 0.22213693
-1.3788645 -0.25649127 0.22213693
-8.9127417 1.9160153 1.4438901
-8.8426695 1.9591563 1.434504
-8.0502014 1.8367201 1.3077921
-8.009656 1.8804899 1.303099
-8.1032934 1.9562774 1.3203069
-8.0524979 1.9976382 1.3140495
-8.0492573 2.0510287 1.3156139
-8.1793585 2.1397586 1.339079
-7.9940658 2.1449466 1.3109208
-8.2948952 2.280853 1.3625442
-8.3279085 2.3464093 1.3703659
-8.9485884 2.5829291 1.4751769
-9.083765 2.6837823 1.5002065
-7.2989516 2.2057259 1.207674
-7.7191167 2.3854082 1.2796339
-7.8452482 2.4784901 1.303099
-8.3558741 2.6976681 1.3907024
-7.2413082 2.3881752 1.207674
-7.4226031 2.5001917 1.2405252
-7.0609503 2.4285665 1.1826445
-7.6047516 2.6690609 1.2765052
-7.6345634 2.7327724 1.2843269
-8.0070295 2.9226346 1.3500295
-7.7478356 2.8833187 1.3093565
-8.0527849 3.0545468 1.3641086
-8.4756422 3.2760034 1.4391971
-7.6921124 3.0288434 1.3093565
-7.5812588 3.0403488 1.293713
-8.0466318 3.285821 1.3766233
-8.1808729 3.4007638 1.4032171
-8.4413271 3.5714037 1.4517118
-7.9923429 3.4408073 1.3781877
-8.2960854 3.6340151 1.434504
-7.3435473 3.2726789 1.2733765
-7.385849 3.347214 1.2843269
-7.2393775 3.3350558 1.2624261
-7.272244 3.4049764 1.2718122
-7.2510066 3.4499705 1.2718122
-7.3663416 3.4844131 -0.71293396
-7.416131 3.5651555 -0.71990645
-7.4025345 3.6160564 -0.72077799
-7.3618221 3.6536369 -0.71903485
-7.4365692 3.7491531 -0.72862202
-7.4128666 3.7958024 -0.72862202
-7.4330616 3.8652859 -0.73297977
-7.364583 3.8886533 -0.72862202
-7.9631453 4.269464 -0.79050255
-7.9357839 4.3201084 -0.79050255
-7.9170594 4.3749623 -0.79137415
-7.4202213 4.1614799 -0.74431002
-6.8051829 3.8729572 -0.68504411
-7.143044 4.1248693 -0.72164953
-7.4868269 4.3858008 -0.75912648
-2.9576938 1.80844 -0.30330199
-2.9462128 1.8270844 -0.30330199
-2.8503456 1.7925258 -0.29458642
-2.8474257 1.8157566 -0.29545796
-2.8359613 1.8336108 -0.29545796
-2.8661435 1.878545 -0.29981574
-2.9208314 1.9403671 -0.30678821
-5.2137513 3.7554336 -0.56215453
-5.2300768 3.8177691 -0.56651235
-5.2456918 3.8806343 -0.5708701
-5.2531781 3.9373004 -0.57435632
-5.2842212 4.0119414 -0.58045721
-5.5275216 4.2513876 -0.6100902
-5.4614105 4.2554178 -0.60573238
-5.321919 4.2552776 -0.59614527
-5.3105593 4.3011732 -0.59788841
-5.2911325 4.3407726 -0.59875995
-5.2714148 4.3803 -0.59963149
-5.2666554 4.4325771 -0.60224617
-5.2384567 4.465867 -0.60224617
-5.2249789 4.5121717 -0.6039893
-5.2188711 4.5647578 -0.60660398
-5.2124596 4.6172738 -0.60921866
-5.2055902 4.6698918 -0.61183327
-8.0723019 7.6154356 -0.97091496
-7.8304605 7.4795222 -0.94738293
-7.7334337 7.4798388 -0.94128203
-7.6364675 7.4794855 -0.93518108
-7.5398092 7.4782143 -0.92908019
-7.513762 7.546617 -0.93169487
-7.8778319 8.013217 -0.98311675
-7.7572412 7.9917555 -0.97440118
-7.6859317 8.0190144 -0.9717865
-7.5737662 8.0020294 -0.96394253
-7.4553137 7.9766808 -0.9552269
-3.607935 3.909194 -0.46541166
-3.6369829 3.9906902 -0.47238412
-3.6584854 4.0652966 -0.47848502
-3.6860349 4.1475749 -0.48545748
-3.6996937 4.2152572 -0.49068683
-3.6926165 4.2610841 -0.49330148
-3.691299 4.3148017 -0.49678773
-6.5758681 7.7856216 -0.89160323
-6.4949217 7.7885294 -0.88724542
-6.3951998 7.7676597 -0.88027298
-6.3085694 7.7613044 -0.87504363
-6.2097998 7.7386332 -0.8680712
-6.130127 7.738452 -0.86371338
-6.032289 7.7140379 -0.85674095
-5.9471807 7.7044706 -0.8515116
-5.8684649 7.7020679 -0.84715378
-5.7780447 7.6830544 -0.84105289
-5.6999674 7.679213 -0.83669513
-5.6221719 7.6746922 -0.83233732
-5.5388188 7.661428 -0.82710797
-5.4616451 7.6555281 -0.82275021
-5.3790274 7.6408195 -0.81752086
-5.3024983 7.6335559 -0.81316304
-5.2262697 7.6256366 -0.80880529
-5.1503558 7.6170597 -0.80444747
-5.1019773 7.6495485 -0.80444747
-5.0531445 7.6818943 -0.80444747
-4.9991031 7.7052989 -0.80357593
-5.0203953 7.8456392 -0.81490618
-4.955049 7.8517561 -0.8122915
-4.879302 7.8404436 -0.80793375
-4.8455715 7.89642 -0.81054837
-4.8164911 7.9608016 -0.81403464
-4.8072004 8.0593529 -0.82100707
-4.7918148 8.1495094 -0.82710797
-4.2937474 7.5170608 -0.75738341
-4.2366567 7.5265298 -0.75564027
-4.1264696 7.4397478 -0.74431002
-4.6668696 8.801177 -0.87155741
-4.6022577 8.812664 -0.86981428
-4.524014 8.7971125 -0.86545652
-4.4551525 8.7986994 -0.86284184
-4.3642249 8.7551947 -0.85586935
-4.453939 9.0775747 -0.8846308
-3.7600329 7.7866707 -0.75651181
-3.6811082 7.7471561 -0.75041091
-3.5986068 7.6979365 -0.74343848
-3.5418465 7.7022924 -0.74169534
-3.074667 6.7985573 -0.65279651
-3.1695209 7.1272244 -0.68242943
-2.9530773 6.7545075 -0.64495248
-2.9145143 6.7820807 -0.64582402
-2.8602152 6.7727284 -0.6432094
-2.8176064 6.790565 -0.6432094
-2.7673628 6.7896852 -0.64146626
-2.7098415 6.7699437 -0.63798004
-2.6526747 6.7497506 -0.63449377
-2.631727 6.8220501 -0.63972312
-2.6240792 6.9316187 -0.64843869
-2.6116922 7.0320168 -0.65628272
-2.656106 7.2916551 -0.67894322
-2.6035395 7.2894363 -0.67720014
-2.5543938 7.2962494 -0.67632854
-2.4955714 7.2744627 -0.67284232
-2.4434669 7.2711139 -0.67109919
-2.3883934 7.2579341 -0.66848451
-2.3335781 7.2443514 -0.66586989
-2.285022 7.2493691 -0.66499829
-2.2335598 7.2445431 -0.66325521
-2.1822488 7.239357 -0.66151208
-2.1282723 7.2242584 -0.6588974
-2.0773308 7.2183409 -0.65715426
-2.0261524 7.2121801 -0.65541118
-1.9748977 7.2057266 -0.65366805
-1.9242027 7.1988082 -0.65192497
-1.8739115 7.1914754 -0.65018183
-1.8237848 7.1837969 -0.64843869
-1.7738326 7.1757717 -0.64669561
-1.7263794 7.1770902 -0.64582402
-1.6767147 7.168395 -0.64408094
-1.6272237 7.1593609 -0.6423378
-1.5800632 7.1597152 -0.64146626
-1.5308733 7.1500196 -0.63972312
-1.4818715 7.1399889 -0.63798004
-1.4330524 7.1296258 -0.63623691
-1.3882295 7.1384888 -0.63623691
-1.3396676 7.1274896 -0.63449377
-1.2859666 7.0867567 -0.63013601
-1.2414122 7.094697 -0.63013601
-1.2001232 7.1220036 -0.63187915
-1.155349 7.1294036 -0.63187915
-1.1074694 7.1168351 -0.63013601
-0.95801836 6.4241486 -0.56825542
-0.89738375 6.2920513 -0.55605364
-0.85931271 6.3074174 -0.55692518
-0.82278222 6.3323789 -0.55866832
-0.82839358 6.703207 -0.59091592
-0.74335361 6.3421931 -0.55866832
-0.69875568 6.3071713 -0.5551821
-0.67924035 6.5096579 -0.57261324
-0.64102614 6.5435615 -0.57522792
-0.61807984 6.7458677 -0.59265906
-0.56721461 6.6503592 -0.58394349
-0.55521989 7.0311708 -0.61706263
-0.51213741 7.0444283 -0.61793423
-0.46715826 7.0275865 -0.61619109
-0.42202669 7.0104814 -0.61444795
-0.37743616 7.003047 -0.61357641
-0.33295199 6.9953294 -0.61270487
-0.28858346 6.98733 -0.61183327
-0.24571905 7.0188727 -0.61444795
-0.2099088 7.3090553 -0.63972312
-0.17068093 7.6090136 -0.66586989
-0.13702364 8.4864731 -0.74256694
-0.032973532 9.2147417 -0.80619061
0.024711633 9.1350718 -0.79921812
0.09096998 10.12093 -0.88550234
0.16551663 10.837335 -0.94825447
0.23446475 10.875919 -0.95174068
0.30861807 11.083351 -0.97004342
0.37892994 11.101106 -0.9717865
0.13681486 3.3842976 -0.29632953
0.15575156 3.3336158 -0.29197174
0.21399046 3.260504 -0.28587082
0.22660905 3.1497962 -0.27628371
6.5915799 8.8907576 -0.96830028
6.6057177 8.7931948 -0.96219939
6.642736 8.7277346 -0.95958471
6.5392833 8.48071 -0.93692422
6.5065846 8.329546 -0.92472243
6.5155196 8.2338171 -0.91862154
6.579587 8.2082624 -0.92036462
6.5807953 8.1048908 -0.91339219
6.530344 7.9402776 -0.89944726
6.5418487 7.8531647 -0.89421791
6.6360302 7.8652039 -0.9003188
6.7565069 7.906661 -0.90990591
6.8256097 7.8866506 -0.91252059
6.855329 7.8211341 -0.90990591
6.3297358 6.2082815 -0.77568609
6.297061 6.0990806 -0.76697052
6.3208594 6.0456233 -0.76522744
6.4094162 6.0536714 -0.77132833
6.3591828 4.5855436 -0.68591571
6.3716359 4.533946 -0.68417257
6.4978313 4.5625186 -0.69463128
6.3301716 4.0986009 -0.65976894
7.0950456 4.5299501 -0.73646599
7.1569896 4.5066695 -0.73995227
7.1932373 4.4674954 -0.74082381
6.2442679 3.8237755 -0.64059472
6.2429142 3.7684751 -0.63798004
6.3436394 3.7748182 -0.64582402
6.4101958 3.7600873 -0.65018183
6.5954251 3.7581511 -0.66412675
6.6362805 3.7263923 -0.66586989
6.7962914 3.7046893 -0.67720014
7.1002865 3.8127265 -0.70508993
6.9301686 3.6659486 -0.68591571
7.0322599 3.6643713 -0.69375968
9.6433802 4.2780156 -0.9229793
9.7338495 4.2455359 -0.92908019
9.8427372 4.2196202 -0.93692422
9.5204153 4.0102038 -0.90380502
9.65623 3.9951766 -0.91426373
9.6258965 3.911607 -0.90903437
9.5762644 3.8215117 -0.90206194
9.6835651 3.7939739 -0.90990591
9.7351065 3.7437828 -0.91252059
9.5533886 3.6051626 -0.89334637
9.7346706 3.6038623 -0.90816283
4.9299335 1.6854907 -0.45582452
4.949873 1.6576453 -0.45669609
4.9601903 1.6265118 -0.45669609
4.9608269 1.5922697 -0.45582452
4.969348 1.39074 -0.45146674
4.9683781 1.3568649 -0.45059517
5.688447 -0.95447135 -0.50463176
5.692152 -0.99190331 -0.5055033
5.6662011 -1.0241047 -0.50376016
5.6694465 -1.0615195 -0.50463176
5.6626649 -1.0971206 -0.50463176
5.6654277 -1.1346346 -0.5055033
5.6386757 -1.1661738 -0.50376016
5.6507225 -1.2057371 -0.5055033
5.6235762 -1.2369376 -0.50376016
5.6351252 -1.2766492 -0.5055033
5.5493789 -1.2939334 -0.49853083
4.5099826 -1.1416192 -0.40701732
4.4352908 -1.1521555 -0.4009164
4.5435815 -1.2103868 -0.41137511
4.4974875 -1.2282643 -0.40788886
4.5088682 -1.2618675 -0.409632
4.481698 -1.2846824 -0.40788886
4.4257436 -1.2987905 -0.40353107
4.3984137 -1.3208421 -0.40178797
4.3995504 -1.351377 -0.40265954
4.3909726 -1.3789934 -0.40265954
4.3917069 -1.4095998 -0.40353107
5.4902353 -1.954445 -0.50986111
5.4965749 -1.9957014 -0.51160419
5.4839272 -2.0301979 -0.51160419
5.4710631 -2.0646141 -0.51160419
5.4765787 -2.1061003 -0.51334733
5.4539623 -2.1368349 -0.51247573
5.5978417 -2.2335246 -0.52729225
8.7533741 -5.8168273 -0.91949308
8.6670799 -5.8383179 -0.91426373
8.6466799 -5.9038939 -0.91600686
8.2435427 -7.7678118 -0.99096078
7.992106 -7.6275887 -0.96655715
7.4561954 -7.5755687 -0.92995179
7.3598471 -7.5722623 -0.92385083
6.130064 -6.7997704 -0.80096126
6.0736008 -6.8236003 -0.79921812
6.0365834 -6.869637 -0.80008972
6.3394794 -7.306087 -0.84628224
5.9959154 -6.9972534 -0.80619061
5.8941507 -6.9661489 -0.79834658
5.8630385 -7.0183358 -0.80008972
-1.6961023 -11.168797 -0.9883461
-1.5949153 -10.075582 -0.89247477
-1.6592594 -10.075281 -0.89334637
-1.7149335 -10.02553 -0.88986009
-1.7740815 -9.994998 -0.88811702
-1.835044 -9.973856 -0.88724542
-1.8939468 -9.9425573 -0.88550234
-1.9583056 -9.9402351 -0.88637388
-2.0187361 -9.9179735 -0.88550234
-2.0748677 -9.8758459 -0.88288766
-2.1305499 -9.8334064 -0.88027298
-2.1901219 -9.8101025 -0.87940145
-2.2427907 -9.7573137 -0.87591523
-2.3040531 -9.7430286 -0.87591523
-2.3722849 -9.7573996 -0.87852985
-2.4287169 -9.7229719 -0.87678677
-2.455111 -9.5724249 -0.86458498
-2.4873173 -9.4508381 -0.85499781
-2.3986788 -8.8868103 -0.80531907
-2.3668091 -8.5547218 -0.77655768
-2.2982647 -8.1083851 -0.73733759
-2.3241746 -8.0076809 -0.72949356
-2.2779872 -7.6682377 -0.69986057
-1.9495403 -6.4146819 -0.58655816
-1.9185102 -6.1740966 -0.56564075
-2.1466711 -6.7602606 -0.6205489
-1.9613888 -6.0455074 -0.55605364
-1.9397936 -5.8533964 -0.53949404
-1.97334 -5.8316565 -0.5386225
-2.0164468 -5.8379745 -0.54036558
-2.1193166 -6.0130992 -0.55779672
-2.1267223 -5.9152942 -0.54995275
-2.1878519 -5.9672866 -0.55605364
-2.2532055 -6.0280733 -0.56302607
-2.202374 -5.781065 -0.54123718
-2.2350488 -5.7578263 -0.54036558
-2.2675188 -5.7344055 -0.53949404
-2.3072257 -5.7292857 -0.54036558
-2.4565561 -5.9911933 -0.56651235
-2.4979882 -5.9848332 -0.56738389
-2.5355425 -5.9690199 -0.56738389
-2.5769491 -5.9621153 -0.56825542
-2.6180439 -5.9550686 -0.56912696
-2.6589558 -5.9478278 -0.56999856
-2.7002041 -5.9401603 -0.5708701
-2.7416532 -5.9321203 -0.57174164
-2.7068579 -5.7614975 -0.55692518
-2.7000785 -5.65448 -0.54820961
-2.692364 -5.5476322 -0.53949404
-2.6791785 -5.4320898 -0.52990693
-2.6863637 -5.3617687 -0.52467757
-2.7330852 -5.3716578 -0.52729225
-2.7803268 -5.3810205 -0.52990693
-2.8187101 -5.3722663 -0.53077847
-2.8524079 -5.3544507 -0.53077847
-2.8907332 -5.3451858 -0.53165001
-2.9338486 -5.3443823 -0.53339314
-2.972219 -5.3345456 -0.53426468
-1.9318714 -3.4166582 -0.34339362
-1.9533006 -3.4044526 -0.34339362
-2.0147471 -3.4609878 -0.35036609
-3.4807351 -5.2701759 -0.55256742
-3.5416641 -5.2894754 -0.55692518
-3.6749189 -5.2708116 -0.56215453
-3.72521 -5.2720251 -0.56476921
-3.769861 -5.2647138 -0.56651235
-3.8142796 -5.2572575 -0.56825542
-3.8585794 -5.249578 -0.56999856
-3.9094512 -5.249115 -0.57261324
-3.9548137 -5.240006 -0.57435632
-4.0056982 -5.2388821 -0.57697099
-4.0563798 -5.2375913 -0.57958567
-4.101337 -5.2278094 -0.58132881
-4.1464992 -5.217535 -0.58307189
-4.1979408 -5.2146587 -0.58568656
-4.2495093 -5.2113409 -0.58830124
-4.294857 -5.1998992 -0.59004438
-4.3466201 -5.1957335 -0.59265906
-4.3920598 -5.1835217 -0.59440213
-4.444005 -5.178503 -0.59701681
-4.4960594 -5.1730351 -0.59963149
-4.5482197 -5.1671166 -0.60224617
-4.6004825 -5.1607461 -0.60486084
-4.6528444 -5.1539221 -0.60747552
-4.6982985 -5.1395473 -0.60921866
-4.7571192 -5.1395826 -0.61270487
-4.8095884 -5.1315536 -0.61531955
-4.8623095 -5.1229095 -0.61793423
-4.9220147 -5.1209869 -0.62142044
-4.9749379 -5.1113768 -0.62403512
-5.0349274 -5.1083975 -0.62752134
-5.0809994 -5.0907631 -0.62926447
-5.1412115 -5.0867643 -0.63275069
-5.2015729 -5.0822086 -0.63623691
-5.2620788 -5.0770941 -0.63972312
-5.3155122 -5.0645471 -0.6423378
-5.3762498 -5.0583544 -0.64582402
-5.437119 -5.0515971 -0.64931029
-5.4981141 -5.0442739 -0.65279651
-5.5592303 -5.0363827 -0.65628272
-5.6204624 -5.0279226 -0.65976894
-5.6818075 -5.0188899 -0.66325521
-5.7429867 -5.0095968 -0.66674143
-5.8041053 -4.9999256 -0.67022765
-5.8655972 -4.989367 -0.67371386
-5.9273443 -4.9780407 -0.67720014
-6.0045166 -4.9788523 -0.68242943
-6.0665145 -4.9662681 -0.68591571
-6.1288595 -4.9527678 -0.68940192
-6.1992264 -4.9446826 -0.69375968
-6.2694683 -4.9362435 -0.69811749
-6.3318224 -4.921207 -0.70160371
-6.4021373 -4.9116449 -0.70596153
-6.4805226 -4.9074063 -0.71119082
-6.5428791 -4.8908043 -0.7146771
-6.6131358 -4.8797464 -0.71903485
-6.6837707 -4.8676395 -0.72339267
-6.7627592 -4.8604317 -0.72862202
-6.8256679 -4.8408961 -0.73210824
-6.9049206 -4.8321848 -0.73733759
-7.1482821 -4.9358749 -0.75999808
-7.2038531 -4.9076905 -0.76261276
-7.1849384 -4.828989 -0.75738341
-7.2068348 -4.7782445 -0.75651181
-7.2367148 -4.7328687 -0.75651181
-7.249567 -4.6765056 -0.75476873
-7.2115664 -4.5880837 -0.74779624
-7.2571287 -4.5532708 -0.74953938
-7.2008781 -4.4551697 -0.74082381
-7.1947107 -4.3890853 -0.73733759
-7.1709251 -4.3129859 -0.73210824
-7.1807451 -4.2576833 -0.7303651
-7.2503586 -4.2376156 -0.73472291
-7.1732559 -4.1323047 -0.7242642
-7.1644258 -4.0674791 -0.72077799
-7.2159224 -4.0369749 -0.72339267
-7.276042 -4.0107927 -0.72687888
-7.3536248 -3.9935224 -0.73210824
-7.4049234 -3.9613369 -0.73472291
-7.5178008 -3.9611704 -0.74343848
-7.5688539 -3.928035 -0.74605316
-7.6462679 -3.9082682 -0.75128251
-7.741735 -3.8962271 -0.75825495
-7.8464017 -3.8873096 -0.76609898
-7.8706713 -3.8379326 -0.76609898
-7.9036117 -3.7927141 -0.76697052
-7.9274893 -3.7425489 -0.76697052
-7.9873118 -3.7087526 -0.77045673
-8.0830708 -3.6913376 -0.77742922
-8.1788044 -3.6731277 -0.78440166
-8.2837391 -3.6578829 -0.79224569
-1.3615812 -0.59104365 -0.12986206
-1.4019194 -0.59811389 -0.13334829
-1.3964626 -0.58544201 -0.13247673
-1.390902 -0.57286251 -0.13160516
-1.3760042 -0.55664027 -0.12986206
-1.3794745 -0.54798359 -0.12986206
-1.3457657 -0.52482736 -0.12637582
-1.3769479 -0.52704465 -0.1289905
-1.3615804 -0.51137751 -0.12724738
-1.3554188 -0.49936849 -0.12637582
-1.3585297 -0.49084231 -0.12637582
-1.3709507 -0.48569781 -0.12724738
-1.3362917 -0.46412054 -0.12376115
-1.3863202 -0.47180697 -0.12811893
-1.3703558 -0.45678669 -0.12637582
-1.3447878 -0.43889508 -0.12376115
-1.3475189 -0.43043691 -0.12376115
-1.3501968 -0.42196172 -0.12376115
-1.3432945 -0.41055816 -0.12288959
-1.3458476 -0.40210992 -0.12288959
-1.3770357 -0.40202126 -0.12550427
-1.3603743 -0.38789785 -0.12376115
-1.3531877 -0.37667131 -0.12288959
-1.3651413 -0.37077266 -0.12376115
-1.3578141 -0.35963735 -0.12288959
-1.3600469 -0.35109925 -0.12288959
-1.3718872 -0.34497634 -0.12376115
-1.3740276 -0.33634976 -0.12376115
-1.3761138 -0.32771024 -0.12376115
-1.3587353 -0.31456333 -0.12201804
-1.3315272 -0.29946277 -0.11940336
-1.2652537 -0.27621707 -0.11330246
-1.2767099 -0.27032572 -0.11417402
-1.288142 -0.26430055 -0.11504558
-1.2800061 -0.25426117 -0.11417402
-1.2815784 -0.24621333 -0.11417402
-1.2733054 -0.23633847 -0.11330246
-1.2747653 -0.22833309 -0.11330246
-1.2761747 -0.22031938 -0.11330246
-1.2971765 -0.21563354 -0.11504558
-9.212471 -0.47605544 -0.80706215
-9.175437 -0.41715539 -0.80357593
-9.5184679 -0.31326783 -0.83320886
-9.5003309 -0.25292286 -0.83146578
-9.5415726 -0.19403854 -0.834952
-10.760401 2.6738908 -0.97004342
-10.193046 2.6016061 -0.92036462
-9.6751604 2.5351865 -0.87504363
-9.2069292 2.474201 -0.83408046
-8.7112017 2.3989537 -0.79050255
-8.494565 2.3970137 -0.77219987
-8.2781496 2.3929863 -0.75389719
-7.9000053 2.337369 -0.72077799
-7.809092 2.3631895 -0.7138055
-7.7846518 2.4090083 -0.71293396
-7.6838808 2.4308281 -0.70508993
-7.6305394 2.4668038 -0.70160371
-7.5959711 2.5084493 -0.69986057
-7.7120738 2.6011126 -0.71206242
-7.6011558 2.6177535 -0.70334685
-7.8383775 2.7544668 -0.72687888
-7.5210676 2.6954327 -0.69898903
-7.4666462 2.7287118 -0.69550282
-7.4306846 2.7686138 -0.69375968
-7.4410806 2.8258595 -0.69637436
-7.9341617 3.0702906 -0.74431002
-7.5625358 2.981251 -0.71119082
-7.6268578 3.0621116 -0.71903485
-7.4783707 3.0571985 -0.70683306
-7.5417905 3.1385717 -0.7146771
-7.4668822 3.1625865 -0.70944774
-7.5017557 3.2330945 -0.7146771
-7.5176077 3.2965765 -0.71816331
-7.5055528 3.3484573 -0.71903485
-7.4390788 3.3748102 -0.7146771
-7.4361181 3.4291821 -0.71642017
-7.3786464 3.4582801 -0.71293396
-7.4020472 3.5253499 -0.71729177
-7.5056896 3.5539334 1.6142441
-8.0227804 3.860673 1.7306376
-7.5927153 3.7126501 1.6428654
-7.5604458 3.7559175 1.6409574
-7.4665899 3.7679648 1.6256926
-7.4252954 3.8058512 1.6218765
-7.6885791 4.0019932 1.6848434
-7.5504584 3.9905953 1.6600382
-7.5163445 4.0337663 1.6581302
-7.4732566 4.0721717 1.6543139
-7.2414942 7.0982108 1.9710569
-7.1201186 7.0674992 1.9500679
-7.0132608 7.0494676 1.9328951
-6.9202552 7.0447879 1.9195385
-6.8137298 7.025311 1.9023657
-6.6334677 6.9263806 1.8642038
-6.5291109 6.9037371 1.847031
-6.2779064 6.7222223 1.7878803
-6.1756506 6.6965914 1.7707075
-6.1004081 6.6989708 1.761167
-6.0188136 6.6933746 1.7497184
-5.9314198 6.6793189 1.7363619
-5.8575583 6.6790414 1.7268214
-5.7702775 6.6639581 1.7134647
-5.6958179 6.6632724 1.7039243
-5.6030068 6.6390696 1.6886595
-5.5171933 6.6213546 1.675303
-5.431829 6.6028228 1.6619463
-5.3531022 6.591104 1.6504978
-5.2624607 6.5633392 1.635233
-5.1845627 6.5500941 1.6237845
-5.1070437 6.5361285 1.612336
-5.0358982 6.5292249 1.6027955
-4.9650459 6.5216837 1.593255
-4.8885875 6.5056667 1.5818065
-4.8183789 6.4968305 1.5722661
-4.7484717 6.4873724 1.5627257
-4.6846266 6.485249 1.5550933
-4.6095972 6.4665966 1.5436448
-4.5406394 6.455286 1.5341043
-4.4776006 6.4514322 1.526472
-4.4203401 6.4551392 1.5207477
-4.3687019 6.4665184 1.5169315
-4.3221564 6.4859285 1.5150234
-4.2753606 6.505127 1.5131153
-4.2288847 6.5237403 1.5112072
-4.1772346 6.5336423 1.5073911
-4.1256309 6.5431519 1.5035748
-4.0688858 6.5439367 1.4978505
-4.0071678 6.5358977 1.4902183
-3.9710989 6.5693479 1.4921263
-3.9297459 6.5941682 1.4921263
-3.8633738 6.5764112 1.4825859
-3.8121407 6.5835648 1.4787697
-3.7561018 6.581811 1.4730455
-3.7050514 6.5881681 1.4692292
-3.6445506 6.5769739 1.4615968
-3.5796368 6.556663 1.4520564
-3.5244191 6.5530906 1.4463322
-3.4693916 6.5490818 1.4406079
-3.4190912 6.5533462 1.4367917
-3.3688781 6.5572357 1.4329755
-3.309886 6.5432372 1.4253432
-3.2555828 6.5375423 1.4196188
-3.1971586 6.5226121 1.4119866
-3.1518495 6.5337296 1.4100784
-3.1023145 6.5356693 1.4062623
-3.0902655 6.617291 1.4196188
-3.1182847 6.7882199 1.4520564
-3.103864 6.8702979 1.4654131
-3.0765746 6.925549 1.4730455
-3.0369301 6.9537377 1.4749535
-2.9893048 6.9636626 1.4730455
-2.9454937 6.9823065 1.4730455
-2.9015629 7.0006766 1.4730455
-2.8501182 7.0005851 1.4692292
-2.8060744 7.0183554 1.4692292
-2.7439888 6.99016 1.4596888
-2.6929536 6.9889436 1.4558727
-2.6385744 6.9781799 1.4501483
-2.5810192 6.9578075 1.442516
-2.5338969 6.9646621 1.4406079
-2.4867868 6.9712005 1.4386998
-2.4429386 6.9866867 1.4386998
-2.3989902 7.0018988 1.4386998
-2.3549507 7.0168333 1.4386998
-2.3108144 7.0314922 1.4386998
-2.2635846 7.0365272 1.4367917
-2.2104845 7.022521 1.4310675
-2.1692076 7.0456524 1.4329755
-2.1305566 7.0779419 1.4367917
-2.0860445 7.091188 1.4367917
-2.0495799 7.1324592 1.442516
-2.0042968 7.1453161 1.442516
-1.9535569 7.1390028 1.4386998
-1.9160601 7.1796417 1.444424
-1.8659667 7.1725392 1.4406079
-1.8232772 7.1936364 1.442516
-1.7733369 7.1858902 1.4386998
-1.7258617 7.187345 1.4367917
-1.6784346 7.1884885 1.4348836
-1.6310651 7.1893191 1.4329755
-1.5816361 7.180253 1.4291594
-1.5344408 7.180449 1.4272512
-1.4873016 7.1803365 1.4253432
-1.4382979 7.17029 1.421527
-1.3913454 7.1695495 1.4196188
-1.3462725 7.1781497 1.4196188
-1.2976449 7.1671486 1.4158027
-1.2424601 7.1171398 1.4043542
-1.1960882 7.1151261 1.4024462
-1.1513611 7.1225004 1.4024462
-1.1095958 7.1489944 1.4062623
-1.0613389 7.1364698 1.4024462
-1.013092 7.1236491 1.3986299
-0.965904 7.1103883 1.3948138
-0.92056793 7.1065021 1.3929056
-0.87489343 7.1023788 1.3909975
-0.82797116 7.0882363 1.3871814
-0.78192008 7.0835881 1.3852733
-0.73576522 7.0786614 1.3833652
-0.69012684 7.0733938 1.3814571
-0.64477628 7.0678148 1.379549
-0.59952694 7.0619454 1.377641
-0.55514193 7.0655732 1.377641
-0.5104562 7.0591002 1.3757328
-0.46606043 7.0523324 1.3738247
-0.42076182 7.0355124 1.3700086
-0.37602198 7.0282154 1.3681005
-0.33185709 7.0304389 1.3681005
-0.28727409 7.0225773 1.3661923
-0.24280678 7.0144334 1.3642843
-0.19761558 6.9765711 1.3566519
-0.15637408 7.0954418 1.379549
-0.11426121 7.253325 1.4100784
-0.068315342 7.2146363 1.4024462
-0.023325335 7.3229017 1.4234351
0.022744913 7.342536 1.4272512
0.068972796 7.3520641 1.4291594
0.11578055 7.3907456 1.4367917
0.17492548 7.9688931 1.549369
0.23967715 8.4876919 1.6504978
0.31434181 9.1040754 1.7707075
0.39235675 9.6119413 1.8699281
0.74653059 6.3861723 1.2497989
0.81786656 6.6346612 1.2994093
0.85322607 6.5807176 1.2898688
5.6311646 7.110496 1.7630751
5.6327314 7.0213761 1.7497184
5.9762878 7.2607837 1.8279501
6.0029335 7.2004709 1.8222259
6.3077111 7.4701166 1.9004576
6.1184607 7.1543107 1.8298582
6.1311574 7.0786262 1.8203177
5.9523234 6.7001405 1.7420861
6.0140004 6.6845012 1.7478104
6.1418276 6.7409115 1.7726156
6.2173433 6.7382607 1.782156
6.4405088 6.8927193 1.8336744
6.3420067 6.7023826 1.7936045
6.3839936 6.6624026 1.7936045
6.3710418 6.5658007 1.7783399
6.3984098 6.5116372 1.7745236
6.4461207 6.4782648 1.7764317
6.3821859 6.3339138 1.7478104
6.3517489 6.2249804 1.7287295
6.3822837 6.023304 1.7058324
6.6785264 6.2240138 1.7745236
6.6886086 6.1553397 1.7668912
7.4214087 6.0900512 1.866112
6.8569679 5.555141 1.7153728
7.4203343 5.9354458 1.847031
7.225863 5.7068348 1.7897884
7.114336 5.5468402 1.7535347
6.5737801 4.9938407 1.6047037
6.6678572 4.999548 1.6199683
6.691545 4.9513135 1.6180602
6.7705193 4.943316 1.6295087
6.8414006 4.929184 1.6390493
7.3922544 5.2558293 1.7630751
7.6420994 5.3614984 1.8145936
7.8774137 5.4530549 1.8622957
-2.3506598 -9.651947 1.930987
-2.2873595 -9.1418056 1.8317664
-2.1697865 -8.026268 1.6161522
-2.2227952 -8.0219364 1.6180602
-2.2543902 -7.9417095 1.6047037
-2.2878053 -7.8708315 1.593255
-1.967738 -6.614347 1.3413873
-1.9320873 -6.3482971 1.2898688
-1.9073937 -6.1299443 1.2478908
-2.0910904 -6.5763912 1.3413873
-1.9532434 -6.0123596 1.22881
-1.9291496 -5.8136339 1.1906481
-1.9624895 -5.7921009 1.18874
-2.0020518 -5.7889328 1.1906481
-2.1102512 -5.9798889 1.2326261
-2.1311584 -5.9203315 1.2230856
-2.1919937 -5.9713292 1.2364423
-2.2466719 -6.003407 1.2459828
-2.2038884 -5.7782211 1.2020967
-2.2294829 -5.7368107 1.1963724
-2.2654843 -5.7226896 1.1963724
-2.3050666 -5.7174463 1.1982805
-2.4490457 -5.9661984 1.253615
-2.4864821 -5.9506936 1.253615
-2.5276637 -5.9439869 1.2555232
-2.5688589 -5.9369969 1.2574313
-2.6136646 -5.9388647 1.2612474
-2.6544218 -5.9315162 1.2631556
-2.6914759 -5.9147944 1.2631556
-2.5307431 -5.4701343 1.1715672
-2.5232866 -5.3652959 1.1524863
-2.607748 -5.4556141 1.1753834
-2.6508799 -5.4566221 1.1791996
-2.6986244 -5.4660296 1.1849239
-2.6931317 -5.3700838 1.1677511
-2.6461666 -5.1958442 1.1334054
-2.5929387 -5.0135245 1.0971518
-2.5513618 -4.8580828 1.0666223
-2.5448864 -4.7726617 1.0513575
-2.5794952 -4.7652111 1.0532657
-2.618839 -4.7661157 1.0570818
-2.9642868 -5.3154001 1.1830157
-3.0072954 -5.313756 1.186832
-3.0406232 -5.2947559 1.186832
-3.0837147 -5.29251 1.1906481
-3.0769472 -5.2054272 1.1753834
-3.089092 -5.1525011 1.1677511
-3.0903604 -5.0829358 1.1563025
-3.1790779 -5.1552253 1.1772915
-3.2482941 -5.1931248 1.1906481
-3.2964623 -5.1975889 1.1963724
-3.3073685 -5.1440363 1.18874
-3.291543 -5.049037 1.1715672
-3.6430137 -5.5111089 1.2841445
-3.8689814 -5.7734199 1.3509277
-3.9217277 -5.7733569 1.3566519
-3.9690585 -5.7647724 1.3604681
-4.0164361 -5.7558208 1.3642843
-4.0581894 -5.7384858 1.3661923
-4.1056013 -5.7288318 1.3700086
-4.1584764 -5.7270002 1.3757328
-4.2055135 -5.7169399 1.379549
-4.2532687 -5.7060061 1.3833652
-4.3072824 -5.7022934 1.3890895
-4.3607364 -5.6986465 1.3948138
-4.407989 -5.6870351 1.3986299
-4.4556036 -5.6747899 1.4024462
-4.5095024 -5.6697307 1.4081703
-4.5635128 -5.664217 1.4138947
-4.6176314 -5.658247 1.4196188
-4.6656003 -5.6442542 1.4234351
-4.7261782 -5.6449347 1.4310675
-4.7742505 -5.6301012 1.4348836
-4.8287177 -5.6223335 1.4406079
-4.8832755 -5.6141024 1.4463322
-4.9444084 -5.6127725 1.4539645
-4.9991813 -5.60357 1.4596888
-5.0540328 -5.5938997 1.4654131
-5.1086254 -5.5840669 1.4711373
-5.1698079 -5.5811133 1.4787697
-5.231483 -5.5773015 1.486402
-5.2867045 -5.5656729 1.4921263
-5.3419852 -5.5535698 1.4978505
-5.4041715 -5.5480227 1.5054829
-5.4664974 -5.5419121 1.5131153
-5.5220218 -5.5282907 1.5188396
-5.5845709 -5.5210915 1.526472
-5.6472464 -5.5133233 1.5341043
-5.7100434 -5.5049844 1.5417366
-5.7658482 -5.4893045 1.5474609
-5.8431358 -5.4933109 1.5589094
-5.913506 -5.4898825 1.56845
-5.9695907 -5.4725189 1.5741742
-6.0329671 -5.4612536 1.5818065
-6.1037555 -5.4559493 1.591347
-6.1673522 -5.4434757 1.5989794
-6.2381086 -5.4372387 1.6085198
-6.3014369 -5.4240985 1.6161522
-6.3801231 -5.4227157 1.6276007
-6.4441466 -5.4077616 1.635233
-6.5157919 -5.398479 1.6447735
-6.5951715 -5.3947234 1.6562221
-6.6598077 -5.3774486 1.6638544
-6.7399888 -5.3716211 1.675303
-6.812326 -5.3593297 1.6848434
-6.8846297 -5.3465257 1.6943839
-6.9648309 -5.338995 1.7058324
-7.0373793 -5.3247433 1.7153728
-7.1175685 -5.3160896 1.7268214
-7.1977763 -5.3068385 1.7382699
-7.2784572 -5.2963619 1.7497184
-7.3594303 -5.2848821 1.761167
-7.4405456 -5.2725906 1.7726156
-7.5217957 -5.2594872 1.7840641
-7.6031728 -5.2455697 1.7955126
-7.6927843 -5.2363591 1.8088692
-7.7744293 -5.2207561 1.8203177
-7.8643632 -5.209753 1.8336744
-7.954464 -5.197825 1.847031
-8.0447226 -5.1849685 1.8603877
-8.1351309 -5.1711817 1.8737442
-8.2339993 -5.1616759 1.889009
-8.3247166 -5.1459689 1.9023657
-8.4239416 -5.1344328 1.9176303
-8.5233479 -5.1218514 1.9328951
-8.6229258 -5.108222 1.9481598
-8.7226658 -5.0935421 1.9634246
-8.8225594 -5.0778089 1.9786892
-8.9225969 -5.0610194 1.9939539
-1.4768271 -0.44061235 0.29957011
-1.4984144 -0.43681911 0.3033863
-1.4728062 -0.41933164 0.29766202
-1.4659542 -0.40744084 0.29575393
-1.4684852 -0.398222 0.29575393
-1.4519782 -0.3839682 0.29193777
-1.454362 -0.37483764 0.29193777
-1.4566884 -0.36569265 0.29193777
-1.4589574 -0.35653281 0.29193777
-1.4802691 -0.35189918 0.29575393
-1.5302718 -0.35364321 0.30529439
-1.5516195 -0.34832117 0.30911058
-1.5537773 -0.33856562 0.30911058
-1.5654782 -0.33082551 0.31101865
-1.5482924 -0.31704482 0.30720249
-1.5791407 -0.31303626 0.31292674
-1.5810763 -0.30310851 0.31292674
-8.5609198 1.7911984 1.7001082
-7.925796 1.7103579 1.5760822
-7.8190708 1.7388163 1.5570014
-7.8462658 1.7966726 1.5646337
-8.2743359 1.9494911 1.6524059
-7.8421502 1.8997496 1.56845
-7.811007 1.9442456 1.5646337
-7.9601941 2.0350862 1.5970713
-7.956563 2.0882452 1.5989794
-8.6542759 2.3292787 1.7420861
-8.0624371 2.2236514 1.6256926
-8.6244555 2.4373765 1.7420861
-7.5715547 2.1919937 1.5321962
-7.5106468 2.225333 1.5226557
-7.4215593 2.2490516 1.5073911
-7.6323776 2.3651695 1.5531852
-7.4114909 2.3478618 1.5112072
-7.1537757 2.3157775 1.4615968
-7.1390834 2.360682 1.4615968
-7.2076678 2.4341862 1.4787697
-7.2569757 2.5024519 1.4921263
-7.0652556 2.4858599 1.4558727
-7.2529855 2.6025259 1.4978505
-7.3103113 2.6748323 1.5131153
-7.3761349 2.7515914 1.5302881
-7.4871573 2.8467214 1.5570014
-7.4874291 2.9008026 1.5608176
-7.396009 2.9189587 1.5455528
-7.3133206 2.9930763 1.5360124
-7.3577991 3.0653958 1.549369
-7.7360411 3.2801704 1.633325
-7.679225 3.3131597 1.6256926
-7.3434653 3.2236969 1.5589094
-7.4034476 3.3064377 1.5760822
-7.418386 3.3688872 1.5837146
-7.2547698 3.3489599 1.5531852
-7.5093718 3.5230966 1.612336
-8.0013266 3.8145685 1.7230052
-7.6162248 3.6099322 -0.44171545
-7.557404 3.6403818 -0.43962201
-7.4536572 3.6482801 -0.43491179
-7.4037609 3.6817031 -0.43334171
-7.4963603 3.7866812 -0.44014537
-7.5168447 3.8565018 -0.4427622
-7.5190353 3.917496 -0.44433227
-8.8006935 4.6557951 -0.52178949
-8.8149462 4.7351999 -0.52440625
-7.9078937 4.3130922 -0.47207031
-7.906754 4.3773742 -0.47364038
-7.6004953 4.2704353 -0.45689288
-7.58219 4.3230505 -0.45741624
-2.9347987 1.7468024 -0.17898896
-2.9065912 1.7550112 -0.17794225
-2.9038682 1.7787074 -0.1784656
-2.8925962 1.7969801 -0.1784656
-2.9741914 1.8736722 -0.18422256
-2.9707763 1.8976977 -0.18474592
-2.9587936 1.9163269 -0.18474592
-2.938473 1.9292067 -0.18422256
-2.9430907 1.9584413 -0.18526928
-2.9307711 1.9768298 -0.18526928
-5.1506486 3.7161305 -0.33285668
-5.1672597 3.7782254 -0.33547348
-5.1751785 3.8348501 -0.33756691
-5.199069 3.9030373 -0.34070706
-5.2145305 3.9654002 -0.34332386
-5.2212448 4.0223489 -0.34541729
-5.2926002 4.2386556 -0.35536113
-5.2658648 4.2718248 -0.35536113
-5.2389193 4.3048282 -0.35536113
-5.2117691 4.3376584 -0.35536113
-5.1920462 4.3767571 -0.35588449
-5.1793447 4.4225998 -0.35693121
-5.1661701 4.4685721 -0.35797793
-5.1529174 4.5142159 -0.35902464
-5.1543312 4.5730147 -0.36111808
-5.1403542 4.6186571 -0.36216483
-5.1333904 4.6710277 -0.3637349
-8.783186 8.093544 -0.625938
-8.6664515 8.0872498 -0.6212278
-8.5361528 8.0655375 -0.61547083
-8.4138546 8.0492401 -0.61023724
-7.8540354 7.6084299 -0.57307869
-7.7775583 7.6296568 -0.57098526
-7.6869597 7.6361442 -0.56784511
-7.5825038 7.6276355 -0.56365824
-7.4779654 7.6186037 -0.55947137
-7.7698193 8.017478 -0.58511597
-7.6638813 8.0085859 -0.5809291
-7.5653963 8.0057755 -0.57726556
-7.4740686 8.0093431 -0.57412541
-7.3220873 7.945991 -0.56627506
-7.2451353 7.9622931 -0.56418163
-7.1549158 7.9630909 -0.56104141
-7.0522437 7.9476647 -0.55685455
-6.9567924 7.9386344 -0.55319107
-6.795351 7.854104 -0.54429394
-6.6738334 7.8137078 -0.53853697
-6.5793729 7.8021894 -0.53487349
-6.4854913 7.7896547 -0.53120995
-6.3920326 7.7762465 -0.52754641
-6.3052888 7.769732 -0.52440625
-6.2188849 7.7624321 -0.5212661
-6.1266241 7.7465262 -0.51760262
-6.0102329 7.6982799 -0.51184565
-5.9434552 7.712163 -0.51027554
-5.8706989 7.7175608 -0.50818211
-5.7861147 7.7063813 -0.50504196
-5.7078538 7.7024655 -0.50242519
-5.6239724 7.6898146 -0.49928501
-5.5404806 7.6764131 -0.49614486
-5.4631701 7.6704044 -0.49352807
-5.3804169 7.6555557 -0.49038789
-5.3037539 7.648181 -0.48777109
-5.2274013 7.6401439 -0.4851543
-5.1513562 7.6314535 -0.48253751
-5.1028051 7.6640029 -0.48253751
-5.0429168 7.6796584 -0.48149079
-4.9889698 7.7029181 -0.48096743
-5.0211096 7.8603511 -0.48881781
-4.9503331 7.857945 -0.48672438
-4.8797817 7.8549643 -0.48463094
-4.8094678 7.8514061 -0.48253751
-4.8116665 7.9669533 -0.48777109
-4.7870607 8.0399294 -0.49038789
-4.7869973 8.1559744 -0.4956215
-4.3406048 7.5030117 -0.45427608
-4.2933745 7.5301375 -0.45427608
-4.2313037 7.5308452 -0.45270601
-4.1113472 7.4262323 -0.44485563
-4.6339774 8.7557478 -0.51917267
-4.5604067 8.7492695 -0.51707923
-4.4779854 8.7244434 -0.51393908
-4.4050612 8.7167568 -0.51184565
-3.825336 7.6892276 -0.45008922
-3.754987 7.6682687 -0.44747242
-3.6980631 7.673717 -0.44642571
-3.6412156 7.6787558 -0.44537899
-3.584455 7.6833816 -0.44433227
-3.2616866 7.2271934 -0.41554749
-3.2445652 7.3114405 -0.419211
