# .PCD v0.7 - Point Cloud Data file format
VERSION 0.7
FIELDS x y z
SIZE 4 4 4
TYPE F F F
COUNT 1 1 1
WIDTH 1469
HEIGHT 1
VIEWPOINT 0 0 0 1 0 0 0
POINTS 1469
DATA ascii
4.6044703 -0.21089938 0.080455594
4.6230245 -0.24086629 0.080804639
4.6314025 -0.27046639 0.080979161
4.8895683 -0.43917796 0.08569131
4.9066176 -0.47180521 0.086040363
4.9632344 -0.50874209 0.087087505
4.9798198 -0.54208082 0.087436557
4.986248 -0.57450348 0.087611079
5.0023909 -0.60823518 0.087960124
5.028223 -0.64346141 0.088483699
5.0439034 -0.6776765 0.088832751
5.0792117 -0.71448624 0.089530841
5.1043601 -0.75033242 0.090054415
5.1193104 -0.78542161 0.090403467
5.1438894 -0.82233459 0.090927035
5.1779976 -0.86165202 0.091625132
5.2019701 -0.89967567 0.092148706
5.2258201 -0.93718427 0.092672274
5.2493992 -0.97505075 0.093195848
5.2824435 -1.0155649 0.093893945
5.2955718 -1.052634 0.09424299
5.3280301 -1.0939296 0.094941087
5.360177 -1.1356745 0.095639184
5.3822398 -1.1757324 0.096162759
5.4137645 -1.2183073 0.096860856
5.4254837 -1.2568115 0.097209901
5.4563851 -1.3001453 0.097907998
5.4869537 -1.3439174 0.098606095
5.4493203 -1.3710177 0.09808252
5.5084877 -1.4222521 0.099304192
7.7419143 -2.0502 0.13979377
7.815721 -2.1223853 0.14136449
7.8503933 -2.1848547 0.14223711
7.9422798 -2.2642908 0.14415687
7.9566898 -2.3225536 0.14468044
8.1143827 -2.4240148 0.14782187
8.0989914 -2.4749508 0.14782187
6.0004354 -1.9164257 0.10995016
5.9977808 -1.9571912 0.11012468
5.947423 -1.982192 0.10942659
5.9348512 -2.0195215 0.10942659
6.1865067 -2.1486199 0.11431326
5.9843993 -2.1206558 0.11082278
5.98036 -2.1616137 0.1109973
5.9385157 -2.1887732 0.11047373
8.2177553 -3.0876231 0.15323213
8.1515064 -3.1213186 0.1523595
8.1038065 -3.1615279 0.15183593
8.0376024 -3.1932199 0.15096331
7.9991083 -3.2355037 0.15061426
7.9231496 -3.2628555 0.14956713
6.371788 -2.6709316 0.12059613
6.4008636 -2.7305295 0.12146875
6.5028143 -2.8224447 0.12373756
6.5489783 -2.8915162 0.12495923
6.6036658 -2.965338 0.12635542
6.6397395 -3.0311103 0.12740256
6.6843023 -3.1016865 0.12862423
6.746069 -3.1820126 0.13019495
6.7890553 -3.2545905 0.13141662
6.84937 -3.3365915 0.13298734
6.8999586 -3.4150424 0.13438353
6.9587617 -3.4987504 0.13595425
7.0167818 -3.5833306 0.13752496
7.0740108 -3.6687765 0.13909568
7.1393075 -3.7597015 0.14084092
7.0982399 -3.7944367 0.14049187
7.0482082 -3.8240774 0.13996829
7.0941072 -3.9068732 0.14136449
7.1566963 -4.0001516 0.14310972
7.227087 -4.0993023 0.1450295
7.4784665 -4.3042717 0.15061426
7.5544996 -4.4123373 0.15270856
7.6381059 -4.5265574 0.15497737
7.7213192 -4.6407547 0.15724617
7.7948437 -4.7509918 0.15934047
7.8668957 -4.8629613 0.16143475
7.9547873 -4.9866424 0.1638781
8.007679 -5.0901623 0.16562334
8.0763884 -5.2053747 0.16771762
8.0351524 -5.2505479 0.1675431
9.2273111 -6.1126356 0.19319813
9.172121 -6.1593432 0.19284908
9.1249743 -6.2112255 0.19267456
9.0693083 -6.2570806 0.19232552
8.9970388 -6.2910228 0.19162741
8.9328604 -6.3300858 0.19110385
8.8685818 -6.3685427 0.19058028
8.7804413 -6.3880763 0.18953313
9.1108894 -6.7152863 0.19756123
9.2447596 -6.9040179 0.20140077
9.3606653 -7.0826244 0.20489125
9.4905548 -7.2751226 0.20873077
9.6262846 -7.4756598 0.21274483
9.5869808 -7.5421791 0.21291935
9.6410522 -7.6832743 0.21518816
9.8026438 -7.913269 0.21990031
9.9617167 -8.1455908 0.22461247
10.13365 -8.3929729 0.22967367
10.310568 -8.6491976 0.23490939
10.485387 -8.9071093 0.2401451
10.680085 -9.1871328 0.2459044
10.870931 -9.4707937 0.25166368
11.096109 -9.7902832 0.25829563
11.310236 -10.106303 0.26475301
11.543059 -10.445518 0.27173397
11.779427 -10.794802 0.27888945
12.033834 -11.167861 0.28656852
12.298578 -11.558226 0.29459661
12.58785 -11.979918 0.30332282
12.886691 -12.419565 0.31239808
13.201957 -12.884377 0.3219969
13.547433 -13.388765 0.33246833
13.915343 -13.926279 0.34363788
14.340219 -14.532979 0.35637814
14.025415 -14.393563 0.35079336
13.852767 -14.393737 0.34869906
13.756351 -14.472119 0.34852454
13.651463 -14.543687 0.3481755
13.525828 -14.59251 0.34730288
16.126835 -19.254801 0.43840444
16.007221 -19.354355 0.43840444
15.918512 -19.49197 0.43927705
2.8950593 -10.682987 0.19319813
2.6652129 -10.082084 0.18202859
2.5394492 -9.8565731 0.1776655
3.3140614 -18.553471 0.32897785
3.1568143 -18.337425 0.32478929
3.038233 -18.32704 0.32426572
2.8599868 -17.940702 0.31711021
2.6700969 -17.45426 0.30820948
2.5589266 -17.4608 0.30803496
2.4228022 -17.288401 0.304719
2.0064554 -16.586536 0.2916297
1.8930932 -16.519348 0.29023352
0.096277364 -0.9449634 0.016579786
0.090338111 -0.94554967 0.016579786
0.087948784 -0.98593432 0.017277882
0.084229611 -1.0163604 0.017801454
0.077841997 -1.0168695 0.017801454
0.070055887 -0.99739039 0.017452406
0.063236155 -0.98782724 0.017277882
0.058257379 -1.0081644 0.01762693
0.052346885 -1.0185003 0.017801454
0.04541352 -1.0088245 0.01762693
0.038687155 -0.99909896 0.017452406
0.032732986 -1.0093155 0.01762693
0.025868068 -0.98951113 0.017277882
0.019457296 -0.97965753 0.017103357
0.013933298 -1.0197495 0.017801454
0.0075345598 -1.0098181 0.01762693
0.00117779 -0.99984699 0.017452406
-0.0051097521 -0.99983466 0.017452406
-0.01159389 -1.0097796 0.01762693
-0.018015167 -1.0096855 0.01762693
-0.024270903 -1.0095545 0.01762693
-0.030531084 -1.0093845 0.01762693
-0.037237406 -1.0191646 0.017801454
-0.044068083 -1.0288998 0.017975979
-0.05053195 -1.0286026 0.017975979
-0.056440484 -1.0182817 0.017801454
-0.062837392 -1.0179069 0.017801454
-0.069231816 -1.0174921 0.017801454
-0.075623512 -1.0170369 0.017801454
-0.082012221 -1.0165417 0.017801454
-0.088397689 -1.0160064 0.017801454
-0.09477967 -1.0154309 0.017801454
-0.10115791 -1.0148153 0.017801454
-0.10752648 -1.0141603 0.017801454
-0.11380822 -1.0134746 0.017801454
-0.120091 -1.0127493 0.017801454
-0.12769161 -1.0218961 0.017975979
-0.13280779 -1.0111604 0.017801454
-0.13915817 -1.010306 0.017801454
-0.14692983 -1.0193079 0.017975979
-0.15184274 -1.0084776 0.017801454
-0.16127767 -1.0272585 0.018150503
-0.1677289 -1.026225 0.018150503
-0.17584828 -1.035008 0.018325027
-0.18234791 -1.0338827 0.018325027
-0.1942358 -1.0622227 0.018848598
-0.20276631 -1.0708053 0.019023122
-0.20949034 -1.0695101 0.019023122
-0.21422257 -1.058373 0.018848598
-0.22495842 -1.0765803 0.019197647
-0.22961177 -1.0653715 0.019023122
-0.23630112 -1.0639079 0.019023122
-0.24743953 -1.0818957 0.019372171
-0.25423235 -1.0803196 0.019372171
-0.25866368 -1.068983 0.019197647
-0.26536918 -1.0673381 0.019197647
-0.26950458 -1.0559856 0.019023122
-0.27858621 -1.0639648 0.019197647
-0.29314107 -1.0911367 0.019721219
-0.30007431 -1.0892504 0.019721219
-0.30681732 -1.0873703 0.019721219
-0.31355464 -1.0854467 0.019721219
-0.32036847 -1.0834552 0.019721219
-0.32716969 -1.0814209 0.019721219
-0.33691332 -1.0888956 0.019895744
-0.35279438 -1.1153561 0.020419315
-0.35672021 -1.1036036 0.02024479
-3.6408932 -9.9640207 0.18517002
-3.7069173 -9.9503174 0.18534455
-3.7374198 -9.8427038 0.18377383
-3.3914399 -8.7653418 0.16405262
-3.4310207 -8.7069521 0.16335452
-3.4775035 -8.6669483 0.16300547
-3.7360899 -9.144742 0.17242977
-4.284936 -10.302766 0.19476885
-4.4158425 -10.432168 0.19773576
-4.5129442 -10.47768 0.19913195
-4.5827012 -10.458276 0.19930647
-4.7134471 -10.575395 0.20209886
-4.8623533 -10.727705 0.20558934
-4.9464002 -10.733265 0.20628744
-5.0646424 -10.810623 0.20838173
-5.1969452 -10.913998 0.21099959
-3.8935342 -8.0460949 0.15602452
-3.9396007 -8.0124998 0.15584999
-5.580452 -11.17189 0.21798055
-5.6776805 -11.190105 0.2190277
-5.8119974 -11.278641 0.22147103
-5.9800987 -11.427937 0.22513604
-6.1221538 -11.52258 0.22775391
-6.2703781 -11.624685 0.23054628
-6.3336873 -11.56752 0.23019724
-6.6296597 -11.929517 0.23822534
-6.7486892 -11.966005 0.23979606
-6.9081006 -12.070929 0.24276297
-7.0580597 -12.157598 0.24538083
-7.3565512 -12.492682 0.25305989
-5.5736108 -9.330368 0.18970765
-5.6321249 -9.2951641 0.18970765
-5.784646 -9.4129257 0.19284908
-5.7855024 -9.2830544 0.19092932
-5.8330321 -9.2296162 0.19058028
-5.9070916 -9.2180395 0.19110385
-5.9703407 -9.189126 0.19127837
-6.0169597 -9.1347322 0.19092932
-6.1075501 -9.1466379 0.19197647
-4.763823 -7.0380383 0.14834546
-4.7746196 -6.9580822 0.14729831
-4.8187718 -6.9275784 0.14729831
-4.6830354 -6.6442418 0.14188807
-4.7299595 -6.6232095 0.14206259
-4.7656188 -6.5852594 0.14188807
-4.7950759 -6.5390606 0.14153901
-4.8301044 -6.5007777 0.14136449
-4.8528142 -6.4463367 0.14084092
-4.8810945 -6.3998184 0.14049187
-4.9028697 -6.3452878 0.13996829
-4.9364781 -6.3064842 0.13979377
-4.9635811 -6.2596741 0.13944472
-4.9902906 -6.2127733 0.13909568
-5.1049504 -6.274364 0.14118996
-5.2650895 -6.3887672 0.14450592
-5.1257272 -6.1406374 0.13961925
-5.151298 -6.09304 0.1392702
-5.3130388 -6.2048521 0.14258616
-5.3781228 -6.2015615 0.14328426
-5.4499722 -6.2052093 0.14415687
-5.7745919 -6.4920864 0.15166141
-5.8286166 -6.4705658 0.15201046
-5.8753328 -6.4417162 0.15218498
-5.9016004 -6.3904662 0.15183593
-5.9279776 -6.338654 0.15148689
-5.9608121 -6.294023 0.15131237
-5.99332 -6.2492299 0.15113784
-6.0255003 -6.204277 0.15096331
-6.3798513 -6.4870853 0.15881689
-6.5051503 -6.5318856 0.16091119
-6.8158569 -6.7584038 0.1675431
-7.1653762 -7.0162411 0.17504764
-7.5183926 -7.2699413 0.18255217
-7.8820987 -7.5263758 0.19023123
-8.1692915 -7.7030616 0.19599052
-8.5468168 -7.958189 0.2038441
-8.9278574 -8.2088642 0.21169768
-9.3345795 -8.4752169 0.22007485
-19.601374 -6.8287954 0.36231196
-19.662819 -6.7119622 0.362661
-19.685638 -6.581944 0.36231196
-15.950278 -4.1347685 0.28761566
-15.258282 -3.854476 0.27470088
-15.272817 -3.7548118 0.27452636
-15.432548 -3.6900783 0.27696967
-15.36778 -3.5726597 0.27539897
-15.419182 -3.4826436 0.27592254
-15.538424 -3.4071045 0.27766779
-16.315954 -3.0439625 0.28970996
-16.245941 -2.9268541 0.28813922
-19.454857 -0.29118276 0.33962381
-19.26634 -0.16719218 0.33630785
-19.09704 -0.044065412 0.33334094
-18.926962 0.076796792 0.33037406
-18.796131 0.19437724 0.32810524
-18.744556 0.31153652 0.32723263
-18.56234 0.42356747 0.3240912
-18.369465 0.53316033 0.32077521
-18.245846 0.64432871 0.31868094
-18.071609 0.75188679 0.31571403
-17.826839 0.85394192 0.31152546
-17.211308 1.2600508 0.30122852
-17.053658 1.3548737 0.29861066
-14.683838 1.2594923 0.25724846
-14.675635 1.3517243 0.25724846
-16.637026 1.637869 0.29180422
-16.497135 1.7288182 0.2895354
-16.446198 1.8280243 0.28883731
-16.384737 1.925483 0.2879647
-15.554749 2.325366 0.27452636
-5.5149493 0.80503744 -1.28672
-5.480885 0.83526748 -1.2799715
-5.4466691 0.8650434 -1.2732229
-5.4219775 0.89559889 -1.268724
-5.3970981 0.92599666 -1.2642249
-5.3623109 0.95523506 -1.2574763
-5.3465462 0.98754805 -1.2552269
-5.3115249 1.0156304 -1.2484783
-5.2859216 1.045202 -1.2439793
-5.2601576 1.074492 -1.2394803
-5.2342339 1.1035025 -1.2349813
-5.2081547 1.1322271 -1.2304822
-5.1914296 1.1628001 -1.2282327
-5.1650324 1.1910156 -1.2237337
-5.129005 1.2166992 -1.2169852
-5.111793 1.2465917 -1.2147356
-5.0849557 1.2739507 -1.2102367
-5.0579786 1.3010192 -1.2057376
-5.0402827 1.3302884 -1.2034881
-5.0130143 1.3568383 -1.1989892
-4.9949861 1.385759 -1.1967396
-4.9860563 1.4175528 -1.1967396
-5.0143776 1.4600737 -1.2057376
-5.0332489 1.4994609 -1.2124861
-5.0611277 1.5420314 -1.2214842
-5.0792475 1.5824945 -1.2282327
-5.1156249 1.629162 -1.2394803
-5.1423502 1.6733308 -1.2484783
-5.1594734 1.7148288 -1.2552269
-5.1762781 1.756605 -1.2619754
-5.1927595 1.7986624 -1.268724
-5.2272906 1.847487 -1.2799715
-5.2430773 1.8902094 -1.28672
-3.1454349 1.2922812 -0.78507918
-3.1462281 1.3158126 -0.78732866
-3.1467464 1.3396465 -0.7895782
-3.1292226 1.3557578 -0.78732866
-3.129559 1.3793213 -0.7895782
-3.1208303 1.3989584 -0.7895782
-3.1208453 1.42258 -0.79182768
-3.1030207 1.4380298 -0.7895782
-3.1028659 1.4613804 -0.79182768
-3.0937357 1.4806108 -0.79182768
-3.084372 1.5000192 -0.79182768
-3.0836053 1.5237192 -0.79407722
-3.0738354 1.5433333 -0.79407722
-3.0639582 1.5628504 -0.79407722
-3.0627303 1.5865518 -0.7963267
-3.052701 1.6057649 -0.7963267
-3.0511465 1.6295031 -0.79857624
-3.0494132 1.6532867 -0.80082572
-3.0389657 1.6724132 -0.80082572
-3.028398 1.6914736 -0.80082572
-3.0261877 1.7152721 -0.80307525
-3.0237966 1.7391108 -0.80532473
-3.0043945 1.7531638 -0.80307525
-2.9849348 1.7670435 -0.80082572
-2.1522563 1.6286255 -0.62311441
-2.1342485 1.6361876 -0.62086493
-2.1162302 1.6435889 -0.61861539
-2.0982044 1.6508276 -0.61636585
-2.0725691 1.6518099 -0.61186683
-2.0471308 1.6523801 -0.60736781
-2.0217478 1.6527206 -0.6028688
-2.003819 1.6591762 -0.60061932
-1.9858707 1.6654943 -0.59836978
-1.9603686 1.6654946 -0.59387076
-1.9423518 1.6715723 -0.59162128
-1.9244659 1.6773407 -0.58937174
-1.8992795 1.6765027 -0.58487272
-1.8814445 1.6819087 -0.58262324
-1.8636159 1.6871581 -0.5803737
-1.8529788 1.6988337 -0.5803737
-1.8494084 1.7170728 -0.58262324
-1.8456824 1.7353328 -0.58487272
-1.8417989 1.7536147 -0.58712226
-1.8377591 1.7719148 -0.58937174
-1.8335608 1.7902343 -0.59162128
-1.8292056 1.8085697 -0.59387076
-1.8246912 1.8269217 -0.5961203
-1.8268611 1.8522243 -0.60061932
-1.8219852 1.8706467 -0.6028688
-1.8169507 1.8890797 -0.60511833
-1.8184654 1.9145889 -0.60961735
-1.8064003 1.9259763 -0.60961735
-1.8075047 1.951586 -0.61411637
-1.8083591 1.9772841 -0.61861539
-1.8024299 1.995839 -0.62086493
-1.7963396 2.0143962 -0.62311441
-1.7965252 2.0402691 -0.62761343
-1.790064 2.0588694 -0.62986296
-1.2749052 1.5629102 -0.46564868
-1.258949 1.5633005 -0.46339917
-1.243021 1.5635663 -0.46114966
-1.2270199 1.5637879 -0.45890015
-1.2230337 1.5792497 -0.46114966
-1.1954705 1.563576 -0.45440114
-1.185726 1.5709785 -0.45440114
-1.1756936 1.5785006 -0.45440114
-1.1598785 1.5780814 -0.45215163
-1.1500783 1.5852377 -0.45215163
-1.1402 1.5923576 -0.45215163
-1.1300333 1.5995886 -0.45215163
-1.1198376 1.6067429 -0.45215163
-1.1097206 1.613747 -0.45215163
-1.1050292 1.628751 -0.45440114
-1.6842755 2.6586049 -0.72659189
-1.6830251 2.6939261 -0.73334044
-1.6813982 2.7293348 -0.74008894
-1.6743028 2.7565193 -0.74458796
-1.666718 2.7838497 -0.74908698
-1.6687877 2.8279595 -0.75808501
-1.6607852 2.8552334 -0.76258409
-1.6573499 2.8909719 -0.76933259
-1.6487392 2.9182947 -0.77383161
-1.6445882 2.9541368 -0.78058016
-1.6353669 2.9814973 -0.78507918
-1.630497 3.0174308 -0.79182768
-1.6206629 3.0448179 -0.7963267
-1.6195951 3.0894601 -0.80532473
-1.6135614 3.1255491 -0.81207329
-1.7495384 3.6671631 -0.93804586
-1.7306037 3.6869032 -0.9402954
-0.36193168 3.8904247 -0.90205371
-0.33495662 3.8635001 -0.89530516
-0.30833226 3.8363912 -0.88855666
-0.16931424 3.9815753 -0.92004979
-0.14358951 3.9630859 -0.91555077
0.79739553 3.0042169 -0.71759385
0.81113809 2.9803441 -0.71309483
0.82723022 2.9658034 -0.71084529
0.85120195 2.9792848 -0.71534437
0.86169779 2.9458222 -0.70859581
0.88018972 2.9403501 -0.70859581
0.87297142 2.8509111 -0.6883502
0.88504422 2.8267727 -0.68385118
0.90281862 2.8211462 -0.68385118
0.92077214 2.8153377 -0.68385118
0.92939454 2.7817006 -0.67710268
0.93112546 2.7296963 -0.66585511
0.94825822 2.7237921 -0.66585511
1.7103351 3.5562956 -0.91105175
1.7195046 3.5193663 -0.90430325
1.7239889 3.4737144 -0.89530516
1.7457807 3.4628136 -0.89530516
2.8724401 4.8329358 -1.2979676
2.8876572 4.7897587 -1.291219
2.9176948 4.7715206 -1.291219
2.9373469 4.7365332 -1.28672
2.9566751 4.7014871 -1.282221
2.9809182 4.6746016 -1.2799715
2.9996498 4.6394148 -1.2754724
3.0233989 4.6123271 -1.2732229
3.0469263 4.5851245 -1.2709734
3.0702314 4.5578084 -1.268724
3.0878193 4.5223341 -1.2642249
3.1106279 4.4948316 -1.2619754
3.1332133 4.4672213 -1.2597259
3.1612196 4.4474463 -1.2597259
3.2404039 4.4986172 -1.2799715
3.8802676 0.90836751 -0.92004979
3.8668199 0.87998396 -0.91555077
3.853179 0.85176051 -0.91105175
3.8870358 0.8336634 -0.91780031
3.8921971 0.80922413 -0.91780031
3.8972049 0.78475285 -0.91780031
3.9211864 0.76397735 -0.92229933
3.925909 0.73932487 -0.92229933
4.1994448 0.57413274 -0.97853708
4.0870252 0.53262573 -0.95154297
4.0999608 0.50813425 -0.95379245
4.1030726 0.48236349 -0.95379245
4.1253905 0.45872739 -0.95829147
4.1475725 0.4348298 -0.96279049
4.1696162 0.41067147 -0.96728951
4.1818171 0.38535911 -0.96953905
4.1938634 0.35990962 -0.97178853
4.2057552 0.33432394 -0.97403806
4.2272081 0.30931407 -0.97853708
4.2485094 0.28409472 -0.9830361
4.2599139 0.25835562 -0.98528558
4.2808938 0.23296948 -0.9897846
4.2920055 0.2065357 -0.99203414
4.3126888 0.18037865 -0.99653316
4.3332124 0.15396979 -1.0010322
4.3438349 0.12697789 -1.0032817
4.3445559 0.099302888 -1.0032817
4.3548412 0.071880139 -1.0055312
4.3941755 0.045298189 -1.0145292
4.3748846 0.017943958 -1.0100303
4.3749113 -0.0095444731 -1.0100303
4.3260479 -0.03662014 -0.99878269
4.3354754 -0.06394434 -1.0010322
4.4298587 -0.17675948 -1.0235273
4.5551939 -0.2104349 -1.052771
4.5440512 -0.23854093 -1.0505214
4.5521927 -0.26760942 -1.052771
4.5601707 -0.29644147 -1.0550205
4.5485234 -0.32404706 -1.052771
4.4585719 -0.85898894 -1.0482719
4.4530869 -0.88698584 -1.0482719
4.4378819 -0.91298437 -1.0460224
4.4320579 -0.94085026 -1.0460224
4.6148419 -1.2240336 -1.1022601
4.6352663 -1.2606767 -1.1090087
4.6647973 -1.3002406 -1.1180067
4.6940131 -1.340225 -1.1270047
4.7135563 -1.3778934 -1.1337533
4.7514806 -1.4214454 -1.1450008
4.7797241 -1.4626765 -1.1539989
3.8621726 -1.2619796 -0.93804586
3.8449247 -1.2831367 -0.93579638
5.0310388 -2.3754759 -1.2844706
5.0599375 -2.4281166 -1.2957181
2.9148352 -1.6548475 -0.77383161
2.9043617 -1.6731609 -0.77383161
2.9188795 -1.7063813 -0.78058016
2.916368 -1.7298484 -0.78282964
2.9389915 -1.7679754 -0.79182768
2.9279616 -1.7861829 -0.79182768
2.941539 -1.8199241 -0.79857624
2.9052851 -1.8228348 -0.79182768
2.9019957 -1.8462834 -0.79407722
2.8985257 -1.8697625 -0.7963267
2.9030297 -1.8986038 -0.80082572
2.8585596 -1.8952694 -0.79182768
2.8061602 -1.8860167 -0.78058016
2.770097 -1.8871533 -0.77383161
2.7662029 -1.9100574 -0.77608114
2.7962923 -2.0360563 -0.79857624
2.8541715 -2.1054301 -0.81882185
2.8564956 -2.1349883 -0.82332087
4.2607193 -3.668031 -1.2979676
4.2302442 -3.6883259 -1.2957181
4.2142901 -3.7212818 -1.2979676
4.1835623 -3.7411923 -1.2957181
4.1527514 -3.7608638 -1.2934686
4.1290393 -3.7868819 -1.2934686
4.0980248 -3.8061197 -1.291219
4.0669317 -3.8251176 -1.2889695
4.0428176 -3.8505952 -1.2889695
4.0115309 -3.8691566 -1.28672
3.9801705 -3.8874769 -1.2844706
3.9556663 -3.9124084 -1.2844706
3.9241216 -3.93029 -1.282221
3.8925085 -3.9479299 -1.2799715
3.8676696 -3.9722669 -1.2799715
3.83623 -3.989131 -1.277722
3.8113968 -4.0128646 -1.277722
3.786108 -4.0367327 -1.277722
3.7606699 -4.060442 -1.277722
3.7285075 -4.0768003 -1.2754724
3.6962881 -4.0929155 -1.2732229
3.6640139 -4.1087871 -1.2709734
3.6316862 -4.1244144 -1.268724
3.6057003 -4.1471515 -1.268724
3.5795717 -4.1697249 -1.268724
3.553302 -4.1921334 -1.268724
3.5269382 -4.2143383 -1.268724
3.4945512 -4.2285995 -1.2664744
3.4620779 -4.2426586 -1.2642249
3.4414649 -4.2719154 -1.2664744
3.4084909 -4.2858286 -1.2642249
3.3754783 -4.2994957 -1.2619754
3.3483984 -4.3206186 -1.2619754
3.3152649 -4.3338332 -1.2597259
3.288017 -4.3545418 -1.2597259
3.2551496 -4.3670187 -1.2574763
3.227982 -4.3871384 -1.2574763
3.1946282 -4.3994493 -1.2552269
3.1612473 -4.4115148 -1.2529774
3.1334665 -4.4312906 -1.2529774
3.1055622 -4.450891 -1.2529774
3.0775354 -4.4703159 -1.2529774
3.0439122 -4.481504 -1.2507279
3.0156941 -4.5005407 -1.2507279
2.9873569 -4.5194001 -1.2507279
2.9535801 -4.5299191 -1.2484783
2.9250598 -4.5483875 -1.2484783
2.8964238 -4.5666761 -1.2484783
2.8676746 -4.584784 -1.2484783
2.8336961 -4.5944185 -1.2462288
2.8047729 -4.6121321 -1.2462288
2.7757387 -4.6296639 -1.2462288
2.7416878 -4.6385951 -1.2439793
2.7177999 -4.6639123 -1.2462288
2.6790931 -4.6637931 -1.2417299
2.6497369 -4.6805344 -1.2417299
2.6202762 -4.6970906 -1.2417299
2.5860186 -4.7049227 -1.2394803
2.5564058 -4.7210779 -1.2394803
2.5266919 -4.7370472 -1.2394803
2.492347 -4.7442036 -1.2372308
2.4624891 -4.7597694 -1.2372308
2.4281116 -4.7664657 -1.2349813
2.3981152 -4.7816277 -1.2349813
2.3637643 -4.787838 -1.2327317
2.334053 -4.802392 -1.2327317
2.3042011 -4.8167863 -1.2327317
2.2697415 -4.8223529 -1.2304822
2.239397 -4.8365188 -1.2304822
2.2089643 -4.8504939 -1.2304822
2.1744618 -4.8553848 -1.2282327
2.1399851 -4.860034 -1.2259833
2.1094065 -4.8733835 -1.2259833
2.0749304 -4.8775749 -1.2237337
2.0442429 -4.8905158 -1.2237337
2.0134747 -4.9032636 -1.2237337
1.982627 -4.9158177 -1.2237337
1.951701 -4.9281778 -1.2237337
1.9172212 -4.931241 -1.2214842
1.8831569 -4.9339218 -1.2192347
1.8524971 -4.9455152 -1.2192347
1.8213872 -4.957057 -1.2192347
1.7902052 -4.9684033 -1.2192347
1.7589526 -4.9795532 -1.2192347
1.7244431 -4.9812994 -1.2169852
1.6899812 -4.9828086 -1.2147356
1.6586401 -4.9933286 -1.2147356
1.6272335 -5.0036516 -1.2147356
1.5928075 -5.0044923 -1.2124861
1.5613321 -5.014401 -1.2124861
1.5297951 -5.0241122 -1.2124861
1.4981976 -5.0336251 -1.2124861
1.4665409 -5.0429392 -1.2124861
1.4321644 -5.0426812 -1.2102367
1.3979042 -5.0421753 -1.2079872
1.366637 -5.0507398 -1.2079872
1.3352622 -5.0591245 -1.2079872
1.3034486 -5.0674143 -1.2079872
1.2715834 -5.0755043 -1.2079872
1.2396681 -5.0833936 -1.2079872
1.2077039 -5.0910821 -1.2079872
1.1735027 -5.0890756 -1.2057376
1.1436337 -5.1058564 -1.2079872
1.1073905 -5.0938988 -1.2034881
1.0773729 -5.1102901 -1.2057376
1.0432929 -5.1074119 -1.2034881
1.0130717 -5.123425 -1.2057376
0.98086041 -5.1296892 -1.2057376
0.94861042 -5.1357508 -1.2057376
0.91632295 -5.1416097 -1.2057376
0.88405555 -5.1472559 -1.2057376
0.85055739 -5.1430211 -1.2034881
0.11475977 -0.7217105 -0.16871329
0.12491927 -0.81873959 -0.19120839
0.12681797 -0.8677147 -0.20245595
0.12271197 -0.87814432 -0.20470546
0.11719203 -0.87889802 -0.20470546
0.11166747 -0.87961698 -0.20470546
0.10497214 -0.87062764 -0.20245595
0.10060533 -0.88095075 -0.20470546
0.094023488 -0.87187797 -0.20245595
0.08854349 -0.87245148 -0.20245595
0.083982885 -0.88269049 -0.20470546
0.077573217 -0.87349528 -0.20245595
0.26549548 -5.2061143 -1.2034881
0.23238276 -5.2076974 -1.2034881
0.2000306 -5.2187915 -1.2057376
0.16723618 -5.2199454 -1.2057376
0.13443515 -5.2208929 -1.2057376
0.10168583 -5.2216334 -1.2057376
0.069200926 -5.2124205 -1.2034881
0.036847536 -5.2127495 -1.2034881
0.0040942985 -5.2128782 -1.2034881
-0.02871602 -5.212801 -1.2034881
-0.061923608 -5.212512 -1.2034881
-0.095013477 -5.2120137 -1.2034881
-0.12730566 -5.2113252 -1.2034881
-0.15964846 -5.2104344 -1.2034881
-0.19238327 -5.2093287 -1.2034881
-0.22468834 -5.1982827 -1.2012386
-0.25734553 -5.1967683 -1.2012386
-0.28944948 -5.1853199 -1.1989892
-0.071896523 -1.1572692 -0.26769176
-0.083157994 -1.2151204 -0.28118882
-0.090791136 -1.214574 -0.28118882
-0.09684597 -1.1945559 -0.2766898
-0.10350127 -1.1842171 -0.27444029
-0.11275853 -1.2029457 -0.27893931
-0.11643348 -1.1634324 -0.26994127
-0.12475958 -1.1723682 -0.27219078
-0.13093019 -1.1618903 -0.26994127
-0.13698803 -1.1513798 -0.26769176
-0.14421962 -1.1504964 -0.26769176
-0.15144552 -1.1495675 -0.26769176
-0.1559988 -1.1292892 -0.26319274
-0.16309091 -1.1282867 -0.26319274
-0.17017689 -1.1272397 -0.26319274
-0.17725615 -1.1261482 -0.26319274
-0.18590388 -1.1346278 -0.26544225
-0.18975757 -1.1142265 -0.2609432
-0.19845085 -1.1226071 -0.26319274
-0.20374402 -1.1117541 -0.2609432
-0.21072532 -1.1104519 -0.2609432
-0.21957502 -1.1186672 -0.26319274
-0.22466269 -1.1077162 -0.2609432
-0.23361492 -1.1158197 -0.26319274
-0.236508 -1.0952815 -0.2586937
-0.24761793 -1.1127959 -0.26319274
-0.25678101 -1.1207159 -0.26544225
-0.26158184 -1.1095966 -0.26319274
-0.26625317 -1.0984616 -0.2609432
-0.27313775 -1.09677 -0.2609432
-0.28234103 -1.1044967 -0.26319274
-0.28920296 -1.1027199 -0.26319274
-0.29622197 -1.1008552 -0.26319274
-0.30579644 -1.1083452 -0.26544225
-0.31265765 -1.1064292 -0.26544225
-0.31951895 -1.1044673 -0.26544225
-0.33198527 -1.1211233 -0.26994127
-0.34467328 -1.1376655 -0.27444029
-0.35758206 -1.1540918 -0.27893931
-0.3677685 -1.1611112 -0.28118882
-0.38105759 -1.177318 -0.28568783
-0.38538867 -1.1656493 -0.28343832
-0.39582175 -1.1724366 -0.28568783
-0.39365658 -1.1422904 -0.27893931
-0.41375586 -1.1765621 -0.28793734
-0.42443037 -1.1831105 -0.29018685
-0.42850795 -1.1712699 -0.28793734
-0.4324536 -1.159425 -0.28568783
-2.0111952 -4.8303995 -1.2079872
-2.037704 -4.8086963 -1.2057376
-2.0678775 -4.7957983 -1.2057376
-2.0940552 -4.7737875 -1.2034881
-2.1240084 -4.7605362 -1.2034881
-2.1579037 -4.75597 -1.2057376
-2.1877434 -4.7423177 -1.2057376
-2.2216341 -4.7372999 -1.2079872
-2.2513554 -4.7232475 -1.2079872
-2.280988 -4.7090087 -1.2079872
-2.3105304 -4.6945839 -1.2079872
-2.3399816 -4.6799736 -1.2079872
-2.3693404 -4.6651788 -1.2079872
-2.4030724 -4.6588593 -1.2102367
-2.4322972 -4.6436687 -1.2102367
-2.461426 -4.6282945 -1.2102367
-2.4950869 -4.6213112 -1.2124861
-2.5193911 -4.5969987 -1.2102367
-2.5529604 -4.5895939 -1.2124861
-2.5817471 -4.5734625 -1.2124861
-2.6103821 -4.5571795 -1.2124861
-2.6483593 -4.5577669 -1.2169852
-2.6716495 -4.5328474 -1.2147356
-2.7000773 -4.5159717 -1.2147356
-2.7283986 -4.4989176 -1.2147356
-2.7617168 -4.489985 -1.2169852
-2.7795599 -4.4560099 -1.2124861
-2.8075027 -4.4384575 -1.2124861
-2.835335 -4.4207301 -1.2124861
-2.8630552 -4.4028277 -1.2124861
-2.8906622 -4.3847518 -1.2124861
-2.9181552 -4.3665028 -1.2124861
-2.9455805 -4.3480492 -1.2124861
-2.9732201 -4.329196 -1.2124861
-3.0006435 -4.3102336 -1.2124861
-3.032908 -4.2995219 -1.2147356
-3.0595355 -4.2806144 -1.2147356
-3.0920863 -4.2691979 -1.2169852
-3.1188493 -4.2496853 -1.2169852
-3.1454892 -4.2300053 -1.2169852
-3.1661415 -4.2023759 -1.2147356
-3.1924832 -4.1823997 -1.2147356
-3.218699 -4.1622581 -1.2147356
-3.2447875 -4.1419525 -1.2147356
-3.2707479 -4.1214833 -1.2147356
-3.3026841 -4.1084456 -1.2169852
-3.3222806 -4.0800576 -1.2147356
-3.3478506 -4.0591025 -1.2147356
-3.3732884 -4.0379872 -1.2147356
-3.3985932 -4.0167127 -1.2147356
-3.4174235 -3.9878809 -1.2124861
-3.4487991 -3.9736886 -1.2147356
-3.4736984 -3.951941 -1.2147356
-3.4919817 -3.9227593 -1.2124861
-3.5099933 -3.8935425 -1.2102367
-3.5406187 -3.878917 -1.2124861
-3.5646257 -3.8568666 -1.2124861
-3.5887887 -3.8343935 -1.2124861
-3.606107 -3.804697 -1.2102367
-3.6299415 -3.7819641 -1.2102367
-3.6536324 -3.7590821 -1.2102367
-3.6771791 -3.7360516 -1.2102367
-3.7005808 -3.7128735 -1.2102367
-3.730758 -3.6964066 -1.2124861
-3.7539093 -3.6728928 -1.2124861
-3.7769127 -3.6492338 -1.2124861
-3.7997668 -3.6254311 -1.2124861
-3.8224709 -3.6014848 -1.2124861
-3.8450241 -3.5773966 -1.2124861
-3.8674257 -3.5531671 -1.2124861
-3.8896744 -3.5287974 -1.2124861
-3.9117696 -3.5042882 -1.2124861
-3.9336724 -3.4796839 -1.2124861
-3.9551563 -3.4552448 -1.2124861
-3.991281 -3.4433591 -1.2169852
-4.0054197 -3.411895 -1.2147356
-4.0342355 -3.3929327 -1.2169852
-4.0629702 -3.3737426 -1.2192347
-4.0765524 -3.3419704 -1.2169852
-4.1050444 -3.3224206 -1.2192347
-4.1258745 -3.2965174 -1.2192347
-4.146791 -3.2701666 -1.2192347
-4.1675034 -3.2437298 -1.2192347
-4.1955285 -3.223417 -1.2214842
-4.2156987 -3.1969922 -1.2214842
-4.235703 -3.1704412 -1.2214842
-4.2555056 -3.1438115 -1.2214842
-4.2827759 -3.1231248 -1.2237337
-4.3020778 -3.0964825 -1.2237337
-4.3214483 -3.0693908 -1.2237337
-4.3406477 -3.0421791 -1.2237337
-4.3676906 -3.0203881 -1.2259833
-4.3865819 -2.9928856 -1.2259833
-4.4053001 -2.965265 -1.2259833
-4.4238763 -2.937479 -1.2259833
-4.4425001 -2.9092369 -1.2259833
-4.4690652 -2.8862605 -1.2282327
-4.49508 -2.8637512 -1.2304822
-4.5127678 -2.8357964 -1.2304822
-4.5304966 -2.8073859 -1.2304822
-4.5646753 -2.7890251 -1.2349813
-4.6071477 -2.775373 -1.2417299
-4.624495 -2.7463708 -1.2417299
-4.6248422 -2.7074149 -1.2372308
-4.6586409 -2.6880422 -1.2417299
-4.6754384 -2.6587181 -1.2417299
-4.6835513 -2.624526 -1.2394803
-4.7084789 -2.5997565 -1.2417299
-4.7247205 -2.570121 -1.2417299
-4.7321873 -2.5357821 -1.2394803
-4.7566438 -2.5105469 -1.2417299
-4.7809696 -2.4851046 -1.2439793
-4.7964897 -2.4550159 -1.2439793
-4.81182 -2.4248304 -1.2439793
-4.8182321 -2.390219 -1.2417299
-4.8419108 -2.3641732 -1.2439793
-4.8566689 -2.3337054 -1.2439793
-4.8800449 -2.3073089 -1.2462288
-4.8856111 -2.2724919 -1.2439793
-4.9086533 -2.2458038 -1.2462288
-4.9315529 -2.2189157 -1.2484783
-4.9453974 -2.1878862 -1.2484783
-4.9590468 -2.1567705 -1.2484783
-4.9814596 -2.1293993 -1.2507279
-4.9947405 -2.098058 -1.2507279
-5.0168314 -2.0703506 -1.2529774
-5.0297403 -2.0387883 -1.2529774
-5.0333986 -2.0035419 -1.2507279
-5.0549631 -1.9754233 -1.2529774
-5.0763726 -1.9471127 -1.2552269
-5.0885062 -1.9151785 -1.2552269
-5.10958 -1.8865438 -1.2574763
-5.1304941 -1.8577197 -1.2597259
-5.1328826 -1.8221875 -1.2574763
-5.1534333 -1.7931029 -1.2597259
-5.1645975 -1.7606876 -1.2597259
-5.1848006 -1.731289 -1.2619754
-5.1955762 -1.6986779 -1.2619754
-5.2154269 -1.6689695 -1.2642249
-5.2258101 -1.6361672 -1.2642249
-5.2453036 -1.6061546 -1.2664744
-5.2552919 -1.5731658 -1.2664744
-5.2650723 -1.5401149 -1.2664744
-5.2746453 -1.5070033 -1.2664744
-5.2933955 -1.47645 -1.268724
-5.3025675 -1.4431616 -1.268724
-5.5598478 0.69103622 -1.2934686
-5.5167499 0.72090733 -1.2844706
-5.4928045 0.75290781 -1.2799715
-5.5072551 0.79017425 -1.2844706
-5.4829097 0.82187128 -1.2799715
-19.999876 3.3115234 1.0624199
-19.848431 3.5439219 1.0566629
-19.717497 3.6499774 1.0509059
-14.947172 2.8641701 0.79759997
-14.840718 2.9405642 0.79288971
-14.753466 3.0197313 0.78922623
-14.636495 3.091727 0.78399259
-14.538721 3.1666236 0.77980572
-14.43084 3.2382352 0.77509552
-14.322639 3.3086095 0.77038527
-14.214126 3.3777602 0.76567501
-14.085912 3.4409316 0.75991809
-14.005898 3.5147872 0.75677794
-13.906174 3.5827832 0.75259101
-13.80615 3.6496732 0.74840415
-13.705839 3.715441 0.74421728
-13.614808 3.7829986 0.7405538
-13.513597 3.8477736 0.73636687
-13.42183 3.9137731 0.73270339
-13.330336 3.9768763 0.72903985
-13.238513 4.0392084 0.72537637
-13.146142 4.1014848 0.72171283
-13.07254 4.1688361 0.719096
-12.97013 4.2261367 0.71490914
-12.905418 4.2949367 0.7128157
-12.802536 4.3502321 0.70862883
-12.718339 4.4109564 0.70548868
-12.624475 4.4674573 0.70182514
-12.530403 4.5229602 0.69816166
-12.454881 4.5843511 0.69554484
-12.416479 4.6590114 0.69502151
-12.526875 4.7904353 0.70287186
-12.608268 4.9123502 0.70915222
-12.707541 5.0419388 0.71647924
-12.787087 5.1656675 0.72275954
-15.87464 7.7280025 0.9252997
-15.780884 7.8057208 0.92268288
-14.661058 8.4398432 0.88657111
-15.340716 8.9598913 0.93105662
-18.359379 13.365046 1.1901196
-18.611599 13.730433 1.2121007
-19.664127 15.284698 1.3052588
-19.803085 15.593284 1.3209596
-9.4869394 10.646964 0.74735743
-9.4132557 10.698867 0.7468341
-9.34585 10.757798 0.7468341
-9.2715683 10.80873 0.74631071
-9.203475 10.866769 0.74631071
-1.2870905 1.5791134 0.10676535
-1.2646227 1.5716084 0.10571863
-1.2484852 1.5717247 0.10519527
-1.2261248 1.5639281 0.10414855
-1.2100769 1.5637697 0.10362519
-1.2064269 1.579173 0.10414855
-1.1845417 1.5707103 0.10310183
-1.1804738 1.5862356 0.10362519
-1.1644859 1.5856364 0.10310183
-1.1546388 1.5928211 0.10310183
-1.1299518 1.6226122 0.10362519
-1.2045633 1.7531402 0.11147559
-1.2103339 1.7854725 0.11304566
-1.1879895 1.7764394 0.11199895
-1.182303 1.7922049 0.1125223
-9.2189713 19.986036 1.1534845
-6.8277078 16.70368 0.94571072
-6.3654661 15.856579 0.89546818
-6.0972624 15.46889 0.87139368
-5.8344293 15.078382 0.84731913
-5.6806092 14.955539 0.838422
-5.5699091 14.943843 0.83580518
-5.4540319 14.922745 0.83266503
-5.3388882 14.900693 0.82952487
-5.2319264 14.896255 0.82743144
-5.121974 14.881621 0.82481468
-5.0092297 14.856731 0.82167453
-4.9032555 14.849982 0.81958103
-3.6285193 14.615655 0.78922623
-3.5624168 14.744941 0.79498315
-3.4925399 14.864249 0.80021673
-3.4235342 14.992992 0.80597371
-3.3530397 15.121452 0.81173068
-3.2810733 15.249612 0.8174876
-3.2076197 15.377462 0.82324457
-3.1366518 15.524562 0.83004826
-3.0598619 15.651823 0.83580518
-2.9823365 15.788751 0.84208554
-2.9072897 15.944876 0.84941256
-2.8292031 16.080606 0.85569286
-2.7559633 16.255404 0.8640666
-2.6682444 16.361103 0.86877686
-2.597568 16.584774 0.87976742
-2.5170665 16.768871 0.88866454
-2.4303362 16.922915 0.89599156
-2.337538 17.036787 0.90122515
-2.2459857 17.169962 0.90750545
-2.1479287 17.263014 0.91169232
-2.0604887 17.454683 0.92111284
-1.9563242 17.516907 0.9237296
-1.8514495 17.57851 0.92634642
-0.21664509 3.9586356 0.20777375
-0.18742174 3.870147 0.2030635
-0.16267991 3.8612709 0.20254014
1.5402936 19.893076 1.0456724
1.6747494 19.992443 1.0514294
3.9781954 16.637522 0.89651489
4.0731196 16.573406 0.89442146
4.2065029 16.663677 0.90070182
4.2034049 16.221237 0.87819731
0.80562931 3.0304382 0.16433489
0.79839122 2.9289689 0.15910131
0.8194654 2.9335127 0.15962467
0.82689226 2.8899019 0.15753123
0.85345584 2.9133999 0.15910131
1.7871263 5.456933 0.30093175
1.8027539 5.3886452 0.2977916
2.0657446 6.048182 0.33495012
1.8834736 5.4032855 0.29988503
1.9173862 5.391345 0.29988503
1.9341966 5.3322525 0.29726821
1.9607334 5.3012619 0.29622149
1.9869572 5.2701492 0.29517478
2.0021231 5.2109513 0.29255798
2.0239043 5.1703711 0.29098791
2.3152435 5.8068848 0.32762307
2.2164428 5.4591241 0.30878213
2.2392554 5.4174032 0.30721205
2.1454518 5.0994678 0.28994119
2.1813805 5.095067 0.29046455
2.1895046 5.0262923 0.2873244
2.2174335 5.0031123 0.28680104
2.3839779 5.2018862 0.29988503
2.4121151 5.1778841 0.29936168
2.4365022 5.1443624 0.29831496
2.4690566 5.1288176 0.29831496
2.8254502 5.7772684 0.33704355
3.2655976 6.573462 0.38466927
4.0041952 7.9347 0.46579
4.0267692 7.8559966 0.46264985
2.5456524 4.8894367 0.28889447
2.5906725 4.8996477 0.29046455
2.6214066 4.8832731 0.29046455
2.5277975 4.6387162 0.2768572
2.5907276 4.6839128 0.28052071
2.7618654 4.9200773 0.29569814
2.8223817 4.9546905 0.29883832
2.8584545 4.9455051 0.29936168
3.7907546 5.7780113 0.36216483
4.1753941 6.2779336 0.39513648
4.6853199 6.7645693 0.43124828
4.7392054 6.7513447 0.43229499
4.8296185 6.6992803 0.43281835
4.8839803 6.684504 0.43386507
4.9980259 6.6621933 0.43648186
5.0095725 6.5909061 0.43386507
4.9655867 6.4485278 0.42653805
4.9630094 6.3620839 0.42287451
4.9966936 6.3229399 0.42235115
4.9988785 6.2446437 0.419211
5.012857 6.182085 0.41711757
5.0389247 6.1350327 0.41607085
5.0582123 6.0802202 0.41450077
5.0577068 6.0024981 0.41136062
5.0888391 5.9630051 0.41083726
5.0804939 5.8780265 0.40717372
4.8871121 5.5829945 0.38885614
4.9088454 5.5372324 0.38780943
4.9768963 5.5434346 0.39042622
5.2736306 5.8002186 0.41083726
5.4858418 5.9579768 0.42444459
5.2235141 5.6020231 0.40141678
4.8198209 5.1043963 0.36792177
4.8379941 5.0595765 0.36687505
4.8905287 5.0506015 0.36844513
4.9221659 5.019774 0.36844513
4.9465723 4.9816618 0.36792177
5.0839868 5.0561128 0.37577215
5.1227794 5.0310664 0.37629551
5.2044702 5.0474467 0.37995905
5.2505054 5.0284615 0.38100576
0.0072984602 0.0068160528 0.00052335957
0.05198684 0.04673272 0.0036635168
0.089614958 0.07955952 0.0062803146
0.075090632 0.065833166 0.0052335956
0.052855946 0.045747429 0.0036635168
0.060737785 0.051897895 0.0041868766
0.083961174 0.070833459 0.0057569551
0.076731429 0.063913204 0.0052335956
0.077131487 0.063429825 0.0052335956
0.085281357 0.069238335 0.0057569551
0.093506955 0.074946694 0.0062803146
0.046988007 0.037178848 0.0031401573
0.086571239 0.067618623 0.0057569551
0.071177229 0.05487819 0.0047102361
0.071520634 0.054429892 0.0047102361
0.087830365 0.065974876 0.0057569551
0.056154743 0.041632004 0.0036635168
0.11283042 0.082556702 0.0073270337
0.072865874 0.052615382 0.0047102361
0.06506224 0.04636135 0.0041868766
0.073521286 0.051695593 0.0047102361
0.098459527 0.068310171 0.0062803146
19.166859 11.259748 1.1649984
19.315004 11.184134 1.1697086
19.081329 10.889316 1.151391
15.670311 8.6835146 0.93890703
15.803447 8.6279516 0.94361728
15.725421 8.4575338 0.93576688
15.813549 8.3772602 0.93786031
15.228404 7.9451485 0.90017843
15.349084 7.885819 0.9043653
11.367132 5.3956885 0.65943307
10.921252 5.1002078 0.63169497
10.535648 4.8397322 0.60762042
10.183622 4.6007571 0.58563936
10.139318 4.5042472 0.58145249
10.185722 4.4484448 0.58249921
10.222647 4.388299 0.58302253
10.259219 4.3278637 0.58354592
10.30466 4.2709651 0.58459264
10.201803 4.1534171 0.57726556
10.348243 4.1374316 0.58406925
10.401921 4.0832772 0.58563936
2.805964 1.0208715 0.1564845
2.8217287 1.0065763 0.15700787
4.0426621 0.9990772 0.21824093
3.9809766 0.95696527 0.21457742
3.9188914 0.9158088 0.2109139
3.905014 0.88708562 0.20986718
3.9202013 0.8649615 0.21039054
3.9450886 0.84449387 0.21143726
3.9209828 0.81360281 0.20986718
3.9455986 0.79288548 0.2109139
3.9603052 0.76998496 0.21143726
3.9748795 0.74693084 0.21196061
3.98932 0.72372389 0.21248397
4.0036254 0.70036489 0.21300733
4.0276423 0.67851359 0.21405406
4.0318255 0.65319389 0.21405406
4.0457177 0.62938398 0.21457742
4.0693464 0.60689783 0.21562414
4.0829654 0.58272845 0.2161475
4.1063361 0.55976069 0.21719421
4.1196752 0.53523552 0.21771757
4.1328678 0.5105648 0.21824093
4.1558309 0.48691145 0.21928765
4.1687336 0.46188983 0.21981101
4.1914182 0.43776262 0.22085772
4.2040243 0.41239357 0.2213811
4.2164774 0.38688338 0.22190446
4.228775 0.36123291 0.22242782
4.2508717 0.33623058 0.22347453
4.27282 0.31096479 0.22452125
4.2846494 0.28484488 0.22504461
4.3062682 0.25949335 0.22609133
4.3177691 0.23327576 0.22661468
4.3390994 0.20709409 0.2276614
4.3602705 0.18065357 0.22870812
4.3812795 0.15395513 0.22975485
4.3921447 0.12663989 0.23027821
4.4028459 0.098881364 0.23080157
4.4033842 0.070975833 0.23080157
4.4436827 0.044087671 0.232895
4.4538569 0.016518889 0.23341836
4.4738455 -0.011517126 0.23446508
4.4836707 -0.039715212 0.23498844
4.513288 -0.068339609 0.23655851
4.5327377 -0.097123802 0.23760524
4.5520029 -0.12615509 0.23865196
4.5710816 -0.15543167 0.23969868
4.5899711 -0.18495356 0.2407454
4.6086693 -0.21471892 0.24179211
4.6271739 -0.24472652 0.24283883
11.258363 -1.0201329 0.59244299
11.162274 -1.082178 0.58773279
11.075787 -1.1440823 0.58354592
10.998892 -1.2060312 0.57988238
10.911739 -1.2659086 0.57569551
10.308829 -1.2616559 0.54429394
10.290794 -1.3251276 0.54377055
10.163532 -1.3735411 0.53749025
5.3394418 -0.75530982 0.28261417
5.0975509 -0.75342196 0.27005354
5.132195 -0.79152441 0.27214697
5.271688 -0.98347443 0.28104407
5.2948203 -1.0222571 0.28261417
5.3176718 -1.0613689 0.28418425
9.1759481 -2.0725174 0.49300471
9.0168409 -2.096211 0.4851543
5.5180039 -1.356117 0.2977916
5.4997144 -1.3882264 0.29726821
5.5586786 -1.4398037 0.30093175
9.1786003 -2.4383762 0.49771494
9.1245575 -2.4855003 0.4956215
9.0895233 -2.5374119 0.49457479
9.0061903 -2.5752544 0.49091128
8.9323282 -2.6149564 0.48777109
8.8678904 -2.6566985 0.4851543
8.3640738 -2.5631404 0.45846298
8.2239208 -2.5768261 0.45165929
5.9765062 -1.9971015 0.33023989
5.9449372 -2.0281646 0.32919315
5.8660603 -2.0424905 0.32552963
5.9807653 -2.1670725 0.33338004
6.1450119 -2.2703652 0.34332386
8.2520466 -3.1079049 0.46212649
8.1950636 -3.1453791 0.46003306
8.137989 -3.182127 0.45793959
8.0810051 -3.2177114 0.45584616
8.0145864 -3.2490907 0.45322937
6.4079618 -2.692014 0.36425826
6.4276505 -2.7479253 0.36635169
7.8296723 -3.4056568 0.44747242
7.7715902 -3.438622 0.44537899
7.649714 -3.4421811 0.43962201
7.4920211 -3.4271994 0.43177164
7.6154699 -3.5410433 0.44014537
7.5479279 -3.567486 0.43752858
7.4983592 -3.6018674 0.4359585
7.2512231 -3.5393987 0.42287451
7.210948 -3.5760157 0.42182779
7.0723963 -3.5628455 0.41502413
7.2276731 -3.6981883 0.4254913
7.1954327 -3.7389233 0.42496794
7.1630282 -3.7792821 0.42444459
7.1130648 -3.8094473 0.42287451
7.0804887 -3.8487921 0.42235115
7.1261158 -3.9317982 0.42653805
7.1884031 -4.0252867 0.43177164
7.4147592 -4.2134528 0.44694906
7.5178361 -4.3349042 0.45479944
7.602118 -4.4482718 0.46160313
7.6854057 -4.5626349 0.4684068
7.7510967 -4.6668267 0.47416374
7.8242335 -4.7773366 0.48044407
7.9044356 -4.8947511 0.48724774
7.9919238 -5.0186701 0.49457479
8.0107746 -5.1009679 0.49771494
8.0624628 -5.2053666 0.50294852
8.0295973 -5.2559214 0.50294852
8.803545 -5.8418651 0.55371439
9.1809702 -6.1757531 0.57988238
9.1337347 -6.2276912 0.57935905
9.0615635 -6.2622466 0.57726556
8.9974995 -6.3018713 0.57569551
8.9332952 -6.340939 0.57412541
8.8447409 -6.3618102 0.57098526
8.9988508 -6.557641 0.58354592
9.1587906 -6.7616997 0.59662992
9.2760572 -6.938746 0.60709709
9.3994141 -7.1235585 0.61808765
9.5287275 -7.3162727 0.62960154
9.6402187 -7.4986258 0.64006871
9.5850687 -7.5528693 0.63954538
9.6935196 -7.7375426 0.65001255
9.8543797 -7.967824 0.66414326
10.004994 -8.1940985 0.67775065
10.176205 -8.4417009 0.69292808
10.352479 -8.6980238 0.70862883
10.549384 -8.9755478 0.7258997
10.735519 -9.2494974 0.74264723
10.940547 -9.5465679 0.76096481
11.157221 -9.8597975 0.78032911
11.37038 -10.176117 0.79969341
11.602192 -10.515613 0.82062781
11.844889 -10.871919 0.84260887
12.098183 -11.245276 0.86563671
12.369056 -11.642768 0.89023459
12.657083 -12.064766 0.91640258
12.976206 -12.525506 0.94518733
13.297164 -12.997699 0.97449547
13.648172 -13.50953 1.0064204
14.014417 -14.047477 1.0399154
14.234251 -14.448265 1.0629432
13.948443 -14.336768 1.0482892
13.831671 -14.394112 1.0461957
13.735108 -14.472517 1.0456724
13.60976 -14.522099 1.0430555
2.5904405 -9.830471 0.53278005
2.5186872 -9.8078632 0.53068662
3.8046725 -19.281235 1.0299716
3.6385303 -19.069336 1.017411
2.9813402 -18.070581 0.95984143
2.7939336 -17.61533 0.93472016
2.6531518 -17.435083 0.92425299
2.5449922 -17.461292 0.92477632
2.4049103 -17.25934 0.91326243
2.2648356 -17.03653 0.90070182
2.1314185 -16.842371 0.88971126
0.084429793 -0.95495933 0.050242517
0.07842797 -0.95547098 0.050242517
0.076195084 -1.0057336 0.052859314
0.071274996 -1.026116 0.053906035
0.063655511 -1.0066051 0.052859314
0.05681641 -0.99701196 0.052335955
0.050968427 -1.0073272 0.052859314
0.045008104 -1.0176073 0.053382676
0.038234867 -1.0078908 0.052859314
0.032217234 -1.0180925 0.053382676
0.025060361 -0.9883256 0.051812597
0.018866384 -0.98846322 0.051812597
0.012741434 -0.98856115 0.051812597
0.0065999348 -0.98862123 0.051812597
0.00039206547 -0.99862945 0.052335955
-0.0059576952 -1.0085982 0.052859314
-0.012382854 -1.0085398 0.052859314
-0.018774208 -1.0084411 0.052859314
-0.025269965 -1.0182886 0.053382676
-0.031905167 -1.0280935 0.053906035
-0.037619002 -1.0079141 0.052859314
-0.043951139 -1.0076578 0.052859314
-0.050281543 -1.0073618 0.052859314
-0.057170454 -1.0169965 0.053382676
-0.064182401 -1.026584 0.053906035
-0.069945581 -1.0161978 0.053382676
-0.076329127 -1.0157382 0.053382676
-0.082709663 -1.0152386 0.053382676
-0.089086927 -1.0146989 0.053382676
-0.095460676 -1.0141191 0.053382676
-0.10183066 -1.0134993 0.053382676
-0.1081799 -1.0128412 0.053382676
-0.11557555 -1.0220746 0.053906035
-0.12310649 -1.0312527 0.054429393
-0.12958358 -1.0304589 0.054429393
-0.13605556 -1.0296243 0.054429393
-0.14115149 -1.0188574 0.053906035
-0.14755033 -1.0179504 0.053906035
-0.15543796 -1.026877 0.054429393
-0.16188692 -1.0258801 0.054429393
-0.16832948 -1.0248427 0.054429393
-0.17308497 -1.013921 0.053906035
-0.18293668 -1.0324798 0.054952752
-0.19122431 -1.041132 0.055476114
-0.19776212 -1.0399098 0.055476114
-0.20429213 -1.0386468 0.055476114
-0.2147917 -1.0569152 0.056522831
-0.2173277 -1.0359976 0.055476114
-0.22383274 -1.0346117 0.055476114
-0.23467478 -1.0526789 0.056522831
-0.24351841 -1.0609168 0.05704619
-0.2501795 -1.0593659 0.05704619
-0.26154321 -1.0771817 0.058092911
-0.2682884 -1.0755215 0.058092911
-0.27246997 -1.0641644 0.057569552
-0.27909288 -1.0624467 0.057569552
-0.29105294 -1.0799316 0.058616269
-0.29523167 -1.0684397 0.058092911
-0.3072845 -1.0858079 0.059139628
-0.31402397 -1.0838779 0.059139628
-0.32366711 -1.0914577 0.05966299
-0.32761925 -1.0798464 0.059139628
-0.3373569 -1.0873044 0.05966299
-0.3502202 -1.1042011 0.060709707
-3.2778699 -9.125865 0.50818211
-3.2939274 -8.9925661 0.50190181
-3.332896 -8.9249153 0.49928501
-3.3711452 -8.8571329 0.49666822
-3.3976977 -8.7613478 0.49248135
-3.4262376 -8.6751108 0.48881781
-3.4912419 -8.6814547 0.49038789
-3.5305836 -8.6223803 0.48829445
-3.8994577 -8.0422211 0.4684068
-3.9499114 -8.0175619 0.4684068
-5.5109024 -11.011015 0.64530236
-5.7926774 -11.394566 0.66990024
-5.9695282 -11.562033 0.68193752
-6.0559678 -11.55083 0.68350756
-6.1800413 -11.609518 0.68926454
-6.2576118 -11.579244 0.68978786
-6.5559764 -11.951206 0.71438581
-6.6066489 -11.866153 0.71176898
-7.0839047 -12.53735 0.75468445
-7.2517381 -12.648654 0.76410496
-7.4153194 -12.750232 0.77300209
-7.4791627 -12.678116 0.77143198
-7.5381618 -12.596596 0.76933855
-5.7910223 -9.2756748 0.57307869
-5.8224797 -9.1969175 0.57046193
-5.8747559 -9.1517487 0.56993854
-5.9321418 -9.1146564 0.56993854
-5.9617944 -9.0355272 0.56732178
-6.0128965 -8.9895897 0.56679839
-6.046989 -8.9184713 0.56470495
-4.6698279 -6.7023749 0.42810813
-4.6997461 -6.6569967 0.42706141
-4.7352009 -6.6195498 0.42653805
-4.7708378 -6.5815816 0.42601466
-4.8061852 -6.5434275 0.4254913
-4.8352795 -6.4970779 0.42444459
-4.8579693 -6.4426479 0.42287451
-4.8801665 -6.3881907 0.42130443
-4.9140959 -6.349504 0.42078108
-4.9477324 -6.3106441 0.42025772
-4.974864 -6.263792 0.419211
-5.0016022 -6.2168493 0.41816428
-5.1099596 -6.2704549 0.42392123
-5.2700419 -6.384553 0.43386507
-5.1371078 -6.1444564 0.41973436
-5.1562529 -6.0891948 0.41816428
-5.2334175 -6.102159 0.42130443
-5.3764334 -6.1897855 0.4296782
-5.4547939 -6.2008705 0.43281835
-5.7925758 -6.5020146 0.45636952
-5.8398972 -6.4730015 0.45689288
-5.8798909 -6.4366941 0.45689288
-5.9062023 -6.3853803 0.45584616
-5.9393792 -6.3408561 0.4553228
-5.97223 -6.2961679 0.45479944
-6.0047541 -6.251317 0.45427608
-6.0369501 -6.2063065 0.45375273
-6.4811893 -6.4976115 0.48096743
-6.7915621 -6.7237434 0.50085509
-7.1121626 -6.9532022 0.5212661
-7.435904 -7.1788874 0.54167712
-7.7844343 -7.4214401 0.56365824
-8.114481 -7.639349 0.58406925
-8.4841318 -7.8873906 0.60709709
-8.8572083 -8.1310768 0.63012493
-9.2558641 -8.3904953 0.65472281
-18.401955 -15.464348 1.2597264
-18.49107 -15.342044 1.2592031
-15.538508 -4.5386281 0.84836584
-16.18132 -4.6162424 0.88186085
-15.671275 -4.3644457 0.85255271
-15.852577 -4.3077941 0.86092645
-16.303995 -4.320931 0.88395429
-15.02518 -3.8825409 0.81330073
-14.913493 -3.7547464 0.80597371
-14.946809 -3.662044 0.8064971
-15.076634 -3.5924563 0.81225401
-15.205923 -3.5224507 0.81801099
-15.549263 -3.4991875 0.83528185
-15.327036 -3.3481438 0.82219785
-16.003744 -3.2858284 0.85621625
-15.4266 -3.0664415 0.82429129
-15.563242 -2.9920819 0.83057159
-15.689689 -2.9145522 0.83632857
-15.746764 -2.8243339 0.838422
-15.675444 -2.7111425 0.83371174
-15.58381 -2.5945613 0.82795483
-15.935073 -2.5502467 0.84574902
-19.451347 -0.27585572 1.0195044
-19.282938 -0.15197018 1.0106072
-19.103762 -0.028858647 1.0011868
-18.933794 0.091699816 0.99228972
-18.793045 0.20910142 0.9849627
-18.761412 0.3263506 0.9833926
-18.58931 0.43858707 0.97449547
-18.416534 0.54900759 0.9655984
-18.273005 0.65966195 0.95827132
-18.118839 0.76811165 0.95042098
-17.874268 0.87027955 0.93786031
-17.649063 0.97080249 0.92634642
-17.502975 1.0746437 0.9190194
-17.356325 1.1760997 0.91169232
-17.209278 1.273302 0.9043653
-17.061676 1.3690002 0.89703828
-16.923399 1.4649737 0.89023459
-16.784595 1.559273 0.8834309
-16.635342 1.6508912 0.87610388
-16.515398 1.7438507 0.87034696
-16.444571 1.8409147 0.86720675
-16.393009 1.9395132 0.86511332
-19.199202 2.5165424 1.0147942
-19.370983 2.6629598 1.024738
-5.4971132 0.80684203 -1.0799789
-5.4725285 0.83839375 -1.0761627
-5.4380913 0.86799943 -1.0704385
-5.422925 0.90007025 -1.0685303
-5.3978567 0.93055224 -1.0647142
-5.3628306 0.95973408 -1.0589899
-5.3373265 0.99017906 -1.0551738
-5.3117189 1.0199938 -1.0513575
-5.2859492 1.0495232 -1.0475414
-5.2600183 1.0787692 -1.0437251
-5.2243261 1.1056985 -1.0380009
-5.207685 1.1364105 -1.0360929
-5.190865 1.1669543 -1.0341847
-5.1547394 1.192908 -1.0284605
-5.1375933 1.2229979 -1.0265523
-5.1107373 1.250589 -1.0227362
-5.0837393 1.2778884 -1.0189201
-5.0565996 1.3049009 -1.0151038
-5.0388117 1.3341327 -1.0131958
-5.0113826 1.3606231 -1.0093796
