# .PCD v0.7 - Point Cloud Data file format
VERSION 0.7
FIELDS x y z
SIZE 4 4 4
TYPE F F F
COUNT 1 1 1
WIDTH 1909
HEIGHT 1
VIEWPOINT 0 0 0 1 0 0 0
POINTS 1909
DATA ascii
2.757 -1.83 12.342
0.0020000001 -1.774 12.431
-2.8180001 -1.784 12.666
-2.7590001 -1.751 12.48
0.02 -1.7640001 12.413
2.7690001 -1.83 12.344
7.6069999 -3.0569999 19.792999
7.6469998 -3.046 19.798
0.083999999 -1.756 12.407
-2.8080001 -1.809 12.952
-2.8699999 -1.76 12.658
-0.055 -1.752 12.434
7.5500002 -3.0320001 19.790001
2.8840001 -1.803 12.312
0.16 -1.74 12.404
-2.756 -1.807 13.052
-2.5910001 -1.8 13.06
0.33700001 -1.744 12.433
7.7740002 -3.0050001 19.695
7.4250002 -2.993 19.854
-0.237 -1.728 12.428
-3.056 -1.7539999 12.789
-2.658 -1.779 13.027
0.25999999 -1.728 12.428
2.9690001 -1.79 12.326
7.7480001 -2.9890001 19.746
7.4819999 -2.9779999 19.832001
2.6070001 -1.766 12.322
-0.161 -1.711 12.417
-2.977 -1.7309999 12.731
0.178 -1.711 12.417
7.6929998 -2.9619999 19.725
4.6589999 -1.823 12.243
2.678 -1.7589999 12.327
-0.079000004 -1.699 12.439
-2.865 -1.7 12.56
-2.724 -1.704 12.648
0.102 -1.697 12.427
2.836 -1.752 12.328
7.6620002 -2.934 19.788
7.5900002 -2.9200001 19.771
2.7590001 -1.747 12.348
-2.779 -1.679 12.518
-2.7690001 -1.676 12.553
0.026000001 -1.6849999 12.449
2.776 -1.739 12.346
7.6090002 -2.911 19.796
7.6560001 -2.8989999 19.798
2.826 -1.73 12.336
0.085000001 -1.674 12.428
-2.737 -1.681 12.653
-2.8329999 -1.656 12.524
-0.055 -1.666 12.422
2.707 -1.725 12.351
7.684 -2.8800001 19.749001
2.8989999 -1.725 12.352
0.167 -1.6670001 12.428
-2.747 -1.716 13.037
0.34299999 -1.661 12.447
3.0409999 -1.715 12.336
-0.23800001 -1.647 12.456
-3.0409999 -1.6619999 12.748
0.26100001 -1.647 12.453
2.98 -1.701 12.348
7.757 -2.846 19.768999
4.6440001 -1.757 12.31
2.6300001 -1.693 12.399
-0.155 -1.631 12.448
-2.964 -1.649 12.703
-2.6819999 -1.656 12.819
0.185 -1.631 12.447
7.7179999 -2.825 19.790001
2.684 -1.6720001 12.353
-0.079000004 -1.6210001 12.433
-2.8670001 -1.619 12.593
0.108 -1.618 12.467
2.848 -1.6720001 12.356
7.651 -2.796 19.76
7.5879998 -2.773 19.767
2.767 -1.665 12.358
-2.7690001 -1.594 12.578
0.026000001 -1.603 12.474
2.7739999 -1.655 12.34
7.6110001 -2.766 19.802999
2.8310001 -1.65 12.36
0.090999998 -1.598 12.491
-2.7130001 -1.584 12.567
-2.829 -1.572 12.528
-0.050000001 -1.589 12.478
2.7160001 -1.643 12.367
4.7080002 -1.7079999 12.342
7.7179999 -2.7420001 19.812
0.167 -1.5880001 12.475
-2.6340001 -1.5650001 12.532
-2.5420001 -1.603 12.844
0.34299999 -1.576 12.439
3.043 -1.632 12.344
7.8119998 -2.724 19.767
4.6149998 -1.683 12.326
2.562 -1.619 12.413
-0.23199999 -1.564 12.469
-3.0179999 -1.572 12.655
-2.573 -1.562 12.636
0.26699999 -1.561 12.445
2.9749999 -1.615 12.328
7.7480001 -2.694 19.724001
4.6350002 -1.66 12.27
2.625 -1.599 12.378
-0.156 -1.55 12.48
-2.931 -1.548 12.589
-2.6300001 -1.541 12.595
0.191 -1.548 12.462
2.9189999 -1.604 12.361
7.7059999 -2.674 19.759001
4.6630001 -1.643 12.254
2.6919999 -1.589 12.362
-0.072999999 -1.5420001 12.479
-2.8670001 -1.536 12.618
-2.6960001 -1.523 12.573
0.109 -1.5369999 12.496
2.8499999 -1.582 12.365
4.7459998 -1.6440001 12.258
4.7340002 -1.6390001 12.333
2.7709999 -1.576 12.379
0.014 -1.529 12.493
-2.7720001 -1.511 12.539
-2.756 -1.501 12.521
2.786 -1.567 12.366
4.7470002 -1.631 12.337
2.836 -1.5650001 12.353
-0.044 -1.5039999 12.477
2.7149999 -1.551 12.362
4.7059999 -1.6160001 12.337
4.8130002 -1.619 12.357
2.902 -1.551 12.362
-2.5420001 -1.52 12.874
0.34900001 -1.493 12.454
3.05 -1.549 12.346
4.612 -1.591 12.316
2.5599999 -1.533 12.4
-0.23199999 -1.482 12.489
-3.006 -1.483 12.629
0.26699999 -1.479 12.46
2.9849999 -1.529 12.369
4.842 -1.592 12.326
4.664 -1.58 12.347
2.632 -1.5190001 12.411
-0.15000001 -1.466 12.483
-2.6470001 -1.466 12.679
0.191 -1.466 12.48
2.924 -1.515 12.383
4.8130002 -1.579 12.342
4.6810002 -1.558 12.3
2.7 -1.502 12.401
-0.072999999 -1.459 12.489
-2.8629999 -1.449 12.602
-2.7030001 -1.444 12.631
0.114 -1.452 12.494
2.859 -1.499 12.378
4.7729998 -1.5599999 12.313
4.6890001 -1.5319999 12.215
2.7750001 -1.494 12.395
0.014 -1.444 12.489
-2.7809999 -1.431 12.58
-2.7620001 -1.4299999 12.575
0.032000002 -1.437 12.494
2.79 -1.485 12.385
4.7420001 -1.546 12.324
4.7589998 -1.536 12.306
2.8469999 -1.48 12.403
0.097000003 -1.429 12.497
-2.7060001 -1.421 12.561
-2.8369999 -1.4170001 12.594
2.7279999 -1.474 12.42
4.7150002 -1.526 12.342
4.8140001 -1.528 12.358
2.914 -1.47 12.391
0.17299999 -1.418 12.469
-2.6359999 -1.406 12.568
-2.4879999 -1.405 12.63
0.34900001 -1.41 12.463
3.0650001 -1.465 12.41
4.6300001 -1.5039999 12.349
2.635 -1.48 12.738
-0.227 -1.4 12.513
-2.9949999 -1.395 12.605
-2.5480001 -1.3839999 12.576
0.273 -1.397 12.484
3.0020001 -1.45 12.414
4.8579998 -1.506 12.367
4.6680002 -1.49 12.359
2.698 -1.467 12.694
-2.9200001 -1.375 12.565
-2.622 -1.369 12.585
2.931 -1.4349999 12.411
4.8319998 -1.4910001 12.374
4.717 -1.477 12.379
2.7149999 -1.423 12.442
-0.067000002 -1.376 12.503
-2.8559999 -1.37 12.595
-2.7019999 -1.3660001 12.627
0.115 -1.368 12.499
2.8670001 -1.419 12.413
4.7420001 -1.464 12.339
2.7880001 -1.406 12.427
0.02 -1.36 12.503
-2.779 -1.355 12.599
-2.76 -1.347 12.592
0.037999999 -1.351 12.487
2.8069999 -1.409 12.457
2.8540001 -1.399 12.433
0.097000003 -1.3430001 12.48
4.73 -1.447 12.382
2.921 -1.382 12.419
0.17900001 -1.331 12.442
-2.576 -1.3660001 13.076
0.35600001 -1.329 12.501
4.6669998 -1.424 12.45
2.687 -1.421 12.985
-2.6459999 -1.348 13.059
3.0090001 -1.369 12.444
4.6890001 -1.404 12.413
2.675 -1.362 12.585
-0.14399999 -1.302 12.46
0.197 -1.296 12.472
2.944 -1.346 12.442
4.835 -1.401 12.383
4.7290001 -1.396 12.411
2.717 -1.339 12.45
-0.067000002 -1.288 12.476
0.12 -1.28 12.472
2.8710001 -1.33 12.432
4.7649999 -1.3789999 12.397
0.02 -1.271 12.459
0.037999999 -1.262 12.445
2.813 -1.317 12.461
4.7750001 -1.373 12.409
4.7989998 -1.364 12.396
2.8629999 -1.308 12.448
0.102 -1.2589999 12.419
-0.037999999 -1.2539999 12.514
2.7449999 -1.303 12.473
4.7399998 -1.358 12.409
4.835 -1.349 12.397
0.178 -1.244 12.422
-2.5899999 -1.296 13.179
0.35699999 -1.245 12.51
3.086 -1.295 12.468
4.8670001 -1.331 12.301
4.6690001 -1.332 12.454
2.6800001 -1.33 12.954
-0.22 -1.224 12.447
0.27900001 -1.228 12.484
3.0120001 -1.278 12.456
4.8579998 -1.321 12.352
4.7049999 -1.323 12.439
2.7190001 -1.2970001 12.792
0.197 -1.21 12.464
2.951 -1.2640001 12.469
4.8319998 -1.308 12.374
2.7179999 -1.248 12.455
-0.061000001 -1.199 12.425
2.8829999 -1.248 12.457
4.7969999 -1.293 12.374
4.7589998 -1.286 12.381
2.799 -1.242 12.474
0.026000001 -1.1900001 12.496
2.8110001 -1.232 12.451
4.7729998 -1.279 12.389
4.803 -1.273 12.407
2.862 -1.223 12.442
0.102 -1.1799999 12.465
2.743 -1.217 12.46
4.7420001 -1.267 12.415
4.829 -1.256 12.383
2.9300001 -1.207 12.433
0.36199999 -1.158 12.482
3.0669999 -1.2029999 12.393
4.875 -1.249 12.321
4.6339998 -1.238 12.361
2.5799999 -1.1849999 12.443
-0.221 -1.153 12.507
0.27900001 -1.141 12.464
3.013 -1.192 12.437
4.8369999 -1.224 12.298
4.6690001 -1.221 12.345
2.6359999 -1.171 12.372
-0.138 -1.136 12.495
0.20200001 -1.125 12.455
2.937 -1.174 12.412
4.8140001 -1.212 12.329
4.7020001 -1.206 12.341
2.711 -1.158 12.396
-0.061000001 -1.119 12.478
0.126 -1.117 12.459
2.869 -1.158 12.397
4.789 -1.198 12.34
4.7420001 -1.1900001 12.338
2.7909999 -1.1440001 12.412
0.026000001 -1.1109999 12.474
-2.7539999 -1.101 12.538
0.044 -1.101 12.451
2.8010001 -1.143 12.407
4.757 -1.183 12.346
4.783 -1.177 12.354
2.8540001 -1.136 12.408
0.108 -1.095 12.463
-2.6989999 -1.09 12.586
-2.823 -1.084 12.608
-0.032000002 -1.0880001 12.469
2.7360001 -1.12 12.402
4.723 -1.169 12.35
4.8179998 -1.161 12.353
2.9119999 -1.1160001 12.357
0.185 -1.079 12.459
-2.635 -1.077 12.62
-2.47 -1.068 12.6
0.361 -1.0700001 12.446
3.069 -1.12 12.402
4.8800001 -1.159 12.334
4.631 -1.146 12.353
2.5739999 -1.098 12.413
-0.215 -1.066 12.486
-2.9909999 -1.063 12.638
-2.543 -1.053 12.607
0.28400001 -1.063 12.449
3.003 -1.096 12.394
4.849 -1.1440001 12.329
4.678 -1.132 12.368
2.6229999 -1.082 12.314
-0.138 -1.051 12.486
-2.911 -1.045 12.604
0.20299999 -1.049 12.468
2.938 -1.081 12.391
4.8239999 -1.122 12.338
4.7119999 -1.115 12.351
2.7160001 -1.075 12.417
-0.055 -1.034 12.476
-2.849 -1.038 12.619
-2.678 -1.027 12.57
0.126 -1.034 12.468
2.8729999 -1.068 12.414
4.789 -1.107 12.338
4.7459998 -1.099 12.334
2.7620001 -1.049 12.286
0.032000002 -1.027 12.474
-2.77 -1.022 12.61
-2.7509999 -1.0140001 12.608
0.048999999 -1.018 12.461
2.8039999 -1.05 12.392
4.7610002 -1.0930001 12.358
4.7839999 -1.084 12.342
2.839 -1.036 12.316
0.108 -1.01 12.466
-2.698 -1.006 12.608
-2.8239999 -0.99900001 12.615
-0.032000002 -1.0039999 12.486
2.7360001 -1.036 12.401
4.8179998 -1.0779999 12.355
2.927 -1.0369999 12.419
-2.628 -0.991 12.614
-2.4679999 -0.98199999 12.59
0.361 -0.99400002 12.448
3.079 -1.03 12.418
4.895 -1.0700001 12.356
4.6430001 -1.056 12.37
-0.215 -0.98299998 12.51
-2.984 -0.98500001 12.636
-2.5380001 -0.97299999 12.584
0.285 -0.98000002 12.472
3.01 -1.0140001 12.421
4.8569999 -1.054 12.349
4.678 -1.041 12.368
2.645 -0.99900001 12.417
-0.138 -0.96700001 12.498
-2.9170001 -0.96899998 12.628
-2.6040001 -0.958 12.587
0.208 -0.96499997 12.473
2.944 -0.99900001 12.418
4.704 -1.022 12.329
2.7 -0.986 12.347
-0.056000002 -0.95899999 12.492
-2.8399999 -0.95200002 12.605
0.126 -0.94999999 12.477
2.868 -0.98100001 12.391
8.0749998 -1.725 20.806
7.717 -1.638 20.052999
2.7869999 -0.97399998 12.395
0.032000002 -0.94300002 12.491
-2.763 -0.93599999 12.609
-2.75 -0.92799997 12.602
7.7080002 -1.622 20.006001
8.0579996 -1.6849999 20.785
0.109 -0.92699999 12.487
-2.701 -0.92199999 12.621
-2.8180001 -0.921 12.615
7.5830002 -1.5829999 19.827999
8.1479998 -1.666 20.865
0.191 -0.91299999 12.499
-2.622 -0.912 12.588
-2.4660001 -0.90499997 12.609
0.368 -0.912 12.487
8.2449999 -1.649 20.813
7.448 -1.5470001 19.841
-2.9809999 -0.898 12.621
-2.5369999 -0.88999999 12.607
8.1920004 -1.624 20.827999
7.4990001 -1.522 19.826
-0.132 -0.88300002 12.514
-2.911 -0.88300002 12.629
-2.6110001 -0.875 12.619
7.572 -1.499 19.846001
-0.056000002 -0.87699997 12.534
-2.845 -0.86799997 12.627
8.0799999 -1.572 20.819
7.6760001 -1.494 19.948
0.032000002 -0.86000001 12.511
-2.7650001 -0.85900003 12.616
-2.747 -0.85100001 12.613
0.048999999 -0.84799999 12.445
8.0609999 -1.5319999 20.792999
0.114 -0.84100002 12.461
-2.691 -0.84299999 12.606
-0.026000001 -0.83099997 12.422
7.5900002 -1.45 19.846001
8.1379995 -1.51 20.84
-2.5899999 -0.861 13.241
8.2449999 -1.495 20.813999
7.4460001 -1.4 19.834999
0.29100001 -0.81099999 12.48
8.2060003 -1.471 20.839001
7.5110002 -1.388 19.834
0.208 -0.79500002 12.463
8.1479998 -1.4450001 20.841
7.573 -1.364 19.85
0.132 -0.778 12.441
8.0769997 -1.418 20.811001
7.6799998 -1.347 19.957001
0.050000001 -0.76700002 12.515
8.0749998 -1.381 20.832001
7.5999999 -1.3049999 19.872
0.19 -0.74800003 12.442
0.36700001 -0.74000001 12.451
8.2449999 -1.341 20.812
7.4419999 -1.265 19.825001
0.28999999 -0.72399998 12.435
8.2019997 -1.316 20.827999
7.5139999 -1.242 19.841999
8.1499996 -1.2920001 20.847
7.5749998 -1.2180001 19.854
8.085 -1.265 20.83
7.664 -1.197 19.916
8.0530005 -1.223 20.773001
7.5999999 -1.158 19.871
8.1490002 -1.2029999 20.868
-2.5880001 -0.69099998 13.264
7.461 -1.1210001 19.875
0.29100001 -0.64300001 12.494
8.198 -1.161 20.818001
7.5209999 -1.096 19.861
8.151 -1.137 20.848
7.5780001 -1.071 19.862
8.0760002 -1.108 20.783001
7.6589999 -1.049 19.903
7.7030001 -1.04 19.966999
8.0380001 -1.067 20.736
-2.8929999 -0.60399997 12.976
7.6069999 -1.011 19.889
8.1389999 -1.0599999 20.844
-2.589 -0.60100001 13.268
7.4619999 -0.97399998 19.879
-2.6440001 -0.57999998 13.172
8.2159996 -1.022 20.864
7.5240002 -0.949 19.868
-3.0090001 -0.56800002 13.08
8.1590004 -0.99699998 20.870001
7.586 -0.92500001 19.884001
-2.9449999 -0.56099999 13.097
8.0679998 -0.96600002 20.763
7.6700001 -0.91500002 19.931999
-2.8629999 -0.54000002 13.175
7.6880002 -0.903 19.93
8.0109997 -0.92299998 20.666
-2.925 -0.52100003 13.12
7.6209998 -0.87699997 19.900999
8.1490002 -0.90700001 20.868
8.2360001 -0.89099997 20.790001
7.4699998 -0.82800001 19.899
-2.6370001 -0.498 13.135
8.1669998 -0.86299998 20.739
7.533 -0.815 19.893
8.0670004 -0.833 20.635
7.6030002 -0.79100001 19.903999
-2.9130001 -0.46799999 12.982
-2.7609999 -0.46200001 13.045
7.8150001 -0.787 20.112
7.6820002 -0.76899999 19.962
-2.8399999 -0.447 13.07
7.6900001 -0.75599998 19.933001
7.7709999 -0.74699998 20.046
-2.918 -0.43900001 13.09
7.618 -0.72899997 19.893
7.8299999 -0.69999999 19.764999
7.48 -0.69300002 19.902
-3.056 -0.412 12.993
7.5250001 -0.667 19.871
-3.0139999 -0.40000001 13.104
-2.707 -0.39300001 13.142
7.6079998 -0.64399999 19.917
-2.9430001 -0.384 13.118
-2.7720001 -0.38299999 13.097
7.6789999 -0.62 19.931999
-2.8559999 -0.375 13.086
-2.8599999 -0.36899999 13.164
7.684 -0.60799998 19.92
7.724 -0.59500003 19.902
-2.7950001 -0.36000001 13.12
-2.9100001 -0.34999999 13.08
7.6220002 -0.583 19.903999
7.7420001 -0.56800002 19.827
-2.721 -0.34299999 13.123
-2.589 -0.34 13.302
7.4840002 -0.546 19.910999
-3.0869999 -0.32699999 13.124
-2.6489999 -0.322 13.224
7.527 -0.51999998 19.877001
-3.03 -0.31999999 13.172
7.6859999 -0.50199997 19.636999
7.6059999 -0.49700001 19.912001
-2.944 -0.303 13.12
-2.7909999 -0.296 13.188
7.7220001 -0.484 19.872999
7.6739998 -0.472 19.917
-2.8080001 -0.27399999 12.923
7.691 -0.461 19.937
7.7379999 -0.44800001 19.937
-2.8110001 -0.27200001 13.197
-2.9159999 -0.26199999 13.105
7.6300001 -0.43599999 19.924999
7.7810001 -0.42300001 19.926001
-2.6949999 -0.252 12.998
-2.586 -0.25799999 13.284
7.849 -0.40799999 19.791
7.4860001 -0.39899999 19.916
-2.628 -0.23800001 13.12
7.803 -0.39700001 19.815001
7.5479999 -0.37400001 19.931999
-3.0190001 -0.23100001 13.151
-2.7049999 -0.222 13.134
7.8010001 -0.37400001 19.929001
7.6240001 -0.34999999 19.959
7.7490001 -0.34999999 19.941999
7.6939998 -0.338 19.969
-2.865 -0.198 13.128
-2.859 -0.198 13.156
7.6929998 -0.32499999 19.943001
7.737 -0.31299999 19.934999
-2.7880001 -0.19 13.117
-2.927 -0.182 13.156
7.6199999 -0.30000001 19.898001
-2.7409999 -0.175 13.218
7.8400002 -0.27399999 19.766001
7.467 -0.26300001 19.867001
-0.44400001 -0.32800001 27.306999
-3.0799999 -0.15700001 13.096
-2.645 -0.15000001 13.206
7.7919998 -0.25 19.788
7.5419998 -0.23899999 19.915001
-3.0220001 -0.142 13.167
7.7690001 -0.226 19.849001
7.6040001 -0.214 19.907
-2.9419999 -0.133 13.111
-2.7950001 -0.126 13.21
7.7519999 -0.20200001 19.948
7.6849999 -0.19 19.945999
-2.875 -0.117 13.175
-2.8610001 -0.109 13.196
7.698 -0.178 19.955999
7.7410002 -0.16599999 19.945
7.6220002 -0.153 19.903999
7.7550001 -0.14 19.860001
-2.7420001 -0.085000001 13.223
7.48 -0.116 19.900999
-0.44299999 -0.142 27.264999
-2.652 -0.068999998 13.242
7.8270001 -0.104 19.875999
7.5380001 -0.092 19.905001
-3.0250001 -0.059999999 13.179
-2.7160001 -0.052000001 13.19
7.7839999 -0.079000004 19.885
7.6100001 -0.067000002 19.922001
-2.947 -0.044 13.133
-2.783 -0.035999998 13.151
7.7399998 -0.055 19.917999
7.6900001 -0.043000001 19.959999
-2.8759999 -0.028000001 13.178
-2.8510001 -0.02 13.152
7.6989999 -0.029999999 19.957001
7.7360001 -0.017999999 19.931999
-2.803 -0.012 13.186
-2.9289999 -0.0040000002 13.164
7.6339998 -0.0060000001 19.936001
7.7600002 0.0060000001 19.874001
-2.734 -0.0040000002 13.186
-2.586 0.0040000002 13.287
7.869 0.017999999 19.841
7.4829998 0.029999999 19.908001
-3.0769999 0.012 13.083
-2.6489999 0.02 13.223
7.8010001 0.041999999 19.809
7.5430002 0.055 19.919001
7.7729998 0.067000002 19.858
7.6100001 0.079000004 19.922001
-2.9519999 0.044 13.159
-2.7809999 0.052000001 13.14
7.743 0.092 19.924
7.6890001 0.104 19.955
-2.869 0.052000001 13.145
7.7010002 0.116 19.962999
7.7319999 0.12800001 19.921
-2.925 0.077 13.15
7.6389999 0.141 19.948999
7.7600002 0.153 19.872999
-2.733 0.085000001 13.181
-2.575 0.093000002 13.23
7.8709998 0.16500001 19.844999
7.4920001 0.178 19.931999
-3.086 0.101 13.118
-2.6370001 0.109 13.166
7.8330002 0.19 19.891001
7.5510001 0.19 19.941
7.776 0.214 19.867001
7.6149998 0.215 19.936001
-2.9519999 0.125 13.156
-2.793 0.134 13.2
7.7399998 0.227 19.919001
-2.8740001 0.142 13.168
-2.8499999 0.149 13.144
7.7540002 0.264 19.978001
-2.8 0.15800001 13.171
-2.934 0.16599999 13.186
7.6479998 0.27700001 19.972
7.7729998 0.28799999 19.906
-2.74 0.175 13.211
-2.576 0.183 13.236
7.8769999 0.30000001 19.858999
7.493 0.31299999 19.934999
-0.44400001 0.39500001 27.32
-3.0969999 0.182 13.168
-2.6489999 0.191 13.224
7.8099999 0.324 19.834
7.5609999 0.338 19.966
-3.02 0.198 13.154
7.7789998 0.34900001 19.874001
7.6220002 0.36199999 19.952
-2.7909999 0.223 13.19
7.7410002 0.37400001 19.919001
7.7030001 0.38800001 19.993
-2.8770001 0.23100001 13.183
-2.862 0.23899999 13.172
7.7119999 0.40000001 19.990999
7.7420001 0.412 19.945999
7.6409998 0.42399999 19.954
7.7670002 0.435 19.889999
-2.7360001 0.25600001 13.193
-2.5739999 0.26499999 13.226
7.8530002 0.44499999 19.799
7.4990001 0.461 19.951
-3.086 0.271 13.12
-2.6489999 0.28099999 13.227
7.8099999 0.47 19.833
7.5650001 0.486 19.976999
-0.27500001 0.59500003 27.195999
-3.0209999 0.287 13.133
-2.7219999 0.29699999 13.217
7.7639999 0.495 19.834999
7.6209998 0.50999999 19.952
-2.9530001 0.30399999 13.162
-2.7909999 0.30500001 13.19
7.756 0.523 19.959
-2.8800001 0.31299999 13.198
7.7449999 0.55900002 19.954
-2.8039999 0.32800001 13.16
-2.9289999 0.336 13.165
7.6459999 0.57200003 19.966999
7.783 0.583 19.931
-2.7379999 0.34599999 13.203
-2.573 0.354 13.221
7.8309999 0.59100002 19.768
7.5009999 0.60900003 19.955999
-0.44499999 0.75 27.365
-2.642 0.37 13.192
7.8099999 0.61699998 19.832001
7.5650001 0.634 19.976999
-3.0120001 0.36700001 13.093
-2.7179999 0.37799999 13.196
7.776 0.64300001 19.865
7.6230001 0.65799999 19.957001
-2.9519999 0.38499999 13.158
-2.79 0.39399999 13.183
7.75 0.67000002 19.944
7.7160001 0.685 20.025999
-2.8759999 0.40200001 13.177
-2.8610001 0.41 13.168
7.737 0.70700002 19.958
-2.8110001 0.419 13.193
-2.925 0.42500001 13.148
7.6560001 0.72100002 19.993999
7.7690001 0.73000002 19.896
-2.737 0.435 13.2
-2.582 0.43599999 13.234
7.8670001 0.74000001 19.858999
7.506 0.745 19.969999
-3.1010001 0.44299999 13.184
-2.6530001 0.45199999 13.217
7.8010001 0.76300001 19.809999
7.5910001 0.77200001 20.045
-0.27500001 0.96399999 27.188
-3.023 0.45699999 13.142
-2.717 0.46700001 13.194
7.7600002 0.78899997 19.848
-0.109 1 27.26
-2.95 0.47400001 13.148
-2.789 0.48300001 13.181
7.7410002 0.81599998 19.921
7.7030001 0.81999999 20.018
-2.8800001 0.491 13.168
-2.8670001 0.5 13.193
7.7189999 0.83200002 20.009001
7.723 0.84100002 19.922001
-2.8099999 0.5 13.193
-2.934 0.50700003 13.16
7.6680002 0.85799998 20.025
7.7620001 0.86400002 19.878
-2.5829999 0.52600002 13.238
7.848 0.88499999 19.812
7.5149999 0.89499998 20.02
-0.45899999 1.124 27.41
-2.6530001 0.54100001 13.214
7.829 0.91299999 19.882
7.5780001 0.91900003 20.01
-0.278 1.161 27.497
-3.029 0.54799998 13.169
-2.724 0.55699998 13.196
7.7690001 0.92500001 19.872
7.6550002 0.94599998 20.063999
-2.9560001 0.55500001 13.149
-2.793 0.56400001 13.167
7.7160001 0.94800001 19.856001
7.6859999 0.96600002 19.972
-2.881 0.57200003 13.172
-2.8659999 0.58099997 13.192
7.7030001 0.97799999 19.966999
7.698 0.98500001 19.858
-2.934 0.59600002 13.159
7.6609998 1.006 20.031
7.7519999 1.0089999 19.851999
-2.585 0.616 13.251
7.8629999 1.022 19.848
7.5500002 1.048 20.112
-3.0880001 0.61799997 13.103
-2.6559999 0.62400001 13.229
7.8039999 1.044 19.819
7.605 1.071 20.082001
-3.027 0.62800002 13.159
7.763 1.071 19.857
7.6259999 1.09 19.988001
-2.9579999 0.64499998 13.156
-2.7969999 0.65399998 13.186
7.7410002 1.099 19.921
7.664 1.1109999 19.916
-2.8789999 0.66100001 13.166
7.6789999 1.123 19.907
7.7210002 1.136 19.917999
-2.8110001 0.67900002 13.197
7.5819998 1.143 19.825001
7.7600002 1.158 19.874001
-2.7460001 0.68800002 13.21
-2.586 0.69800001 13.254
7.8429999 1.166 19.799
7.5840001 1.202 20.202999
-0.46000001 1.482 27.466999
-2.655 0.713 13.222
7.823 1.194 19.865
7.5640001 1.2130001 19.974001
-3.0350001 0.71799999 13.169
-2.7290001 0.72899997 13.221
7.756 1.217 19.837999
7.5830002 1.2309999 19.875999
-0.109 1.5420001 27.330999
-2.9590001 0.73400003 13.159
-2.796 0.74299997 13.184
7.7080002 1.243 19.860001
7.6690001 1.2589999 19.929001
-2.882 0.75099999 13.177
-2.8670001 0.75099999 13.168
7.6360002 1.265 19.82
7.6079998 1.2640001 19.625
-2.8169999 0.75999999 13.193
-2.938 0.76800001 13.179
7.7270002 1.299 19.788
-2.5880001 0.787 13.234
7.8379998 1.311 19.785
-3.0999999 0.79000002 13.155
-2.6600001 0.80199999 13.219
-3.0320001 0.80699998 13.153
-2.7349999 0.81900001 13.217
7.744 1.362 19.808001
7.5209999 1.355 19.714001
-2.967 0.81599998 13.169
-2.7980001 0.82499999 13.191
7.7150002 1.391 19.877001
7.5840001 1.391 19.708
-2.8900001 0.833 13.186
-2.8699999 0.84100002 13.18
7.6500001 1.414 19.856001
-2.819 0.85000002 13.205
7.6360002 1.434 19.965
7.6539998 1.432 19.601
-2.743 0.866 13.2
-2.5880001 0.87699997 13.231
-3.1029999 0.87900001 13.139
7.7160001 1.469 19.618
-2.888 0.92199999 13.178
-2.878 0.93099999 13.189
-2.8239999 0.94 13.198
-2.944 0.94599998 13.176
-2.7520001 0.949 13.212
-2.5910001 0.95999998 13.249
-3.1029999 0.95999998 13.141
-2.6630001 0.97500002 13.236
-3.0309999 0.97500002 13.124
-2.7349999 0.99000001 13.22
-2.967 0.99400002 13.167
-2.8050001 1.0039999 13.194
-2.8759999 1.011 13.179
-2.819 1.0190001 13.173
-2.9449999 1.026 13.155
-2.5999999 1.05 13.26
-3.102 1.046 13.11
-2.668 1.064 13.226
-3.0439999 1.068 13.178
-2.7349999 1.077 13.189
-2.973 1.075 13.167
-2.809 1.085 13.185
-2.8729999 1.1 13.167
-2.8169999 1.108 13.166
-2.944 1.115 13.15
-2.7539999 1.126 13.19
-2.595 1.138 13.236
-2.664 1.152 13.209
-3.0409999 1.146 13.138
-2.7379999 1.16 13.203
-2.9660001 1.1619999 13.136
-2.812 1.176 13.198
-2.8770001 1.188 13.156
-2.9549999 1.206 13.169
-2.7590001 1.2180001 13.213
-2.599 1.219 13.223
-3.098 1.212 13.067
-2.9719999 1.251 13.134
-2.8169999 1.265 13.196
-2.885 1.281 13.19
-2.823 1.278 13.164
-2.95 1.285 13.148
-2.7690001 1.301 13.23
-2.6700001 1.323 13.204
-3.0050001 1.306 12.956
-2.7460001 1.34 13.214
-2.9860001 1.347 13.198
-2.823 1.349 13.221
-2.8859999 1.36 13.17
-2.766 1.3890001 13.219
-2.605 1.398 13.224
-3.115 1.3940001 13.111
-2.6789999 1.414 13.222
-3.0469999 1.405 13.138
-2.8139999 1.431 13.153
-2.9000001 1.439 13.146
-2.8740001 1.4400001 13.085
-2.9619999 1.466 13.173
-2.7679999 1.477 13.197
-3.112 1.474 13.098
-2.675 1.49 13.17
-3.0469999 1.4910001 13.112
-2.7460001 1.5039999 13.152
-2.971 1.5039999 13.078
-2.809 1.518 13.129
-2.885 1.535 13.136
-2.822 1.538 13.1
-2.9430001 1.534 13.064
-2.7639999 1.552 13.147
-2.6059999 1.566 13.198
-3.112 1.5599999 13.073
-2.678 1.581 13.184
-3.0320001 1.569 13.019
-2.7479999 1.595 13.163
-2.974 1.594 13.091
-2.8110001 1.604 13.109
-2.8940001 1.617 13.146
-2.829 1.62 13.103
-2.95 1.623 13.066
-2.7639999 1.642 13.151
-2.6110001 1.655 13.191
-2.687 1.6720001 13.198
-3.05 1.668 13.099
-2.7579999 1.686 13.179
-2.8139999 1.683 13.093
-2.891 1.701 13.104
-2.8399999 1.712 13.129
-2.9560001 1.712 13.066
-2.7650001 1.728 13.125
-2.6140001 1.747 13.208
-3.0350001 1.744 13.006
-2.7609999 1.765 13.166
-2.9960001 1.7690001 13.133
-2.8340001 1.781 13.158
-2.908 1.781 13.1
-2.8510001 1.808 13.18
-2.967 1.807 13.113
-2.7739999 1.818 13.136
-3.1070001 1.8150001 12.999
-2.6849999 1.837 13.157
-3.062 1.837 13.096
-2.766 1.858 13.189
-2.997 1.855 13.111
-2.8759999 1.865 13.008
-2.839 1.885 13.095
-2.9660001 1.892 13.083
-2.608 1.9119999 13.112
-3.1040001 1.89 12.962
-3.0639999 1.923 13.081
-2.773 1.948 13.194
-2.8440001 1.962 13.177
-2.8859999 1.936 12.946
-2.8840001 1.955 13.02
-2.96 1.964 13.029
-2.74 1.96 12.949
-2.618 1.9960001 13.132
-2.697 2.016 13.155
-2.845 2.0469999 13.151
-2.905 2.0320001 13.004
-2.914 2.059 13.124
-2.7880001 2.079 13.144
-2.5910001 2.0580001 12.965
-2.704 2.105 13.16
-2.7550001 2.1040001 13.048
-2.8469999 2.1329999 13.13
-2.615 2.1619999 13.057
-2.7030001 2.1889999 13.126
-2.596 2.2290001 12.933
-2.6960001 2.267 13.06
-0.486 -2.3340001 12.353
7.1859999 -4.052 19.764
3.1470001 -2.4089999 12.117
-2.4230001 -2.447 13.119
-3.27 -2.319 12.476
7.1399999 -4.039 19.816999
-2.352 -2.434 13.136
-2.9849999 -2.339 12.664
7.4050002 -4.0050001 19.650999
7.6500001 -3.9920001 19.591
0.211 -2.302 12.301
-2.737 -2.418 13.139
-3.0309999 -2.3080001 12.584
-0.24699999 -2.29 12.32
7.3520002 -3.9749999 19.684999
7.7080002 -3.9690001 19.597
0.29300001 -2.2980001 12.322
7.2969999 -3.951 19.687
7.757 -3.9590001 19.605
0.36700001 -2.2739999 12.276
-2.5829999 -2.3889999 13.113
-3.1860001 -2.303 12.682
-0.40400001 -2.2650001 12.347
7.2490001 -3.9360001 19.733
-2.503 -2.3789999 13.148
-3.2379999 -2.277 12.628
2.3 -2.306 12.204
7.1989999 -3.9130001 19.799999
0.53799999 -2.2650001 12.347
-2.418 -2.359 13.125
-3.2780001 -2.244 12.528
-0.55800003 -2.2179999 12.255
7.1339998 -3.8889999 19.802
0.61400002 -2.247 12.334
-2.3399999 -2.339 13.106
2.5899999 -2.2980001 12.237
7.3860002 -3.849 19.601
7.6680002 -3.852 19.614
0.21799999 -2.23 12.365
-2.7030001 -2.306 13.007
-3.05 -2.2409999 12.686
7.3639998 -3.8310001 19.691
2.9820001 -2.289 12.235
-2.6289999 -2.2969999 13.004
2.45 -2.2590001 12.234
7.3140001 -3.8150001 19.733
3.0469999 -2.279 12.218
-2.5610001 -2.286 13.032
-3.1860001 -2.221 12.704
-0.40000001 -2.188 12.388
2.3840001 -2.247 12.249
0.463 -2.191 12.358
-2.4820001 -2.277 13.071
-4.5110002 -2.1630001 12.376
-3.2520001 -2.2049999 12.703
-0.48100001 -2.1700001 12.369
2.3210001 -2.2379999 12.285
4.4330001 -2.316 12.176
0.54400003 -2.178 12.331
-2.405 -2.263 13.087
-4.5139999 -2.1719999 12.513
-0.55599999 -2.152 12.356
7.1469998 -3.744 19.813
0.62099999 -2.1689999 12.363
-2.313 -2.23 12.989
-4.4359999 -2.1389999 12.41
-2.9319999 -2.1370001 12.49
-0.16 -2.1500001 12.385
2.5969999 -2.2130001 12.271
7.434 -3.724 19.705
7.6890001 -3.717 19.667
2.918 -2.214 12.234
0.21799999 -2.1429999 12.344
-2.7 -2.22 13.02
-3.0090001 -2.138 12.542
7.381 -3.694 19.737
7.7360001 -3.6889999 19.645
0.30000001 -2.128 12.35
-3.0840001 -2.1289999 12.582
3.0599999 -2.198 12.272
0.382 -2.125 12.373
-2.5680001 -2.2090001 13.1
-3.1559999 -2.118 12.607
-0.39300001 -2.0969999 12.346
-2.4719999 -2.1849999 13.051
-4.5409999 -2.096 12.475
2.3199999 -2.1459999 12.279
7.2129998 -3.622 19.813999
3.1800001 -2.1619999 12.198
0.54500002 -2.098 12.354
-2.408 -2.177 13.101
-4.5040002 -2.085 12.503
-3.2950001 -2.0929999 12.64
2.256 -2.1359999 12.305
7.1570001 -3.602 19.837999
0.62599999 -2.0840001 12.358
-2.3 -2.1429999 12.947
-4.4770002 -2.076 12.543
-2.9449999 -2.0650001 12.569
-0.16 -2.0680001 12.397
7.4499998 -3.586 19.746
7.6859999 -3.5699999 19.658001
0.22400001 -2.0650001 12.379
2.5380001 -2.119 12.295
7.3930001 -3.549 19.745001
7.7360001 -3.543 19.646
0.30599999 -2.05 12.385
-2.6199999 -2.1229999 13.018
-3.086 -2.049 12.615
2.4719999 -2.099 12.312
7.336 -3.529 19.768
7.8010001 -3.527 19.691
3.0699999 -2.118 12.289
0.382 -2.043 12.389
-2.5420001 -2.1040001 12.999
2.3970001 -2.079 12.286
3.1329999 -2.098 12.261
0.47 -2.0280001 12.386
-2.4760001 -2.105 13.106
-3.2160001 -2.0179999 12.61
-0.472 -2.0120001 12.432
7.224 -3.4879999 19.816
0.55199999 -2.0190001 12.379
-2.3800001 -2.069 12.984
-4.4970002 -2 12.499
-3.279 -2.0009999 12.602
-0.54799998 -1.995 12.42
2.2509999 -2.04 12.278
7.1630001 -3.4590001 19.856001
0.62699997 -2.0020001 12.369
-2.3080001 -2.0680001 13.026
-4.474 -2 12.551
-2.9419999 -1.99 12.584
-0.155 -1.9859999 12.413
7.4510002 -3.4400001 19.750999
2.941 -2.052 12.304
0.23 -1.98 12.374
-2.6830001 -2.0469999 12.997
-2.997 -1.9680001 12.54
-0.23100001 -1.971 12.416
2.546 -2.0339999 12.333
4.5320001 -2.086 12.104
2.98 -2.0239999 12.182
-2.6300001 -2.0469999 13.098
-3.0880001 -1.969 12.647
2.474 -2.017 12.321
7.349 -3.388 19.801001
3.0780001 -2.0320001 12.319
-2.5650001 -2.039 13.147
2.3989999 -1.998 12.299
-2.471 -2.017 13.111
-0.46599999 -1.927 12.429
4.474 -2.0699999 12.273
3.21 -2.0050001 12.292
0.55900002 -1.932 12.41
-2.3889999 -2.0020001 13.069
-0.54799998 -1.9119999 12.428
2.2639999 -1.964 12.32
4.4159999 -2.039 12.224
3.28 -1.993 12.313
0.63300002 -1.919 12.377
-2.329 -2.003 13.181
-4.4260001 -1.899 12.448
-2.9319999 -1.902 12.568
2.6229999 -1.967 12.342
4.619 -2.04 12.229
7.7670002 -3.309 19.841999
2.931 -1.959 12.242
0.237 -1.903 12.42
-2.687 -1.967 13.046
-0.23100001 -1.8890001 12.429
2.552 -1.951 12.335
0.31200001 -1.883 12.387
-2.592 -1.9349999 12.942
2.48 -1.926 12.324
4.5570002 -2.01 12.278
3.073 -1.934 12.276
0.39500001 -1.877 12.4
-2.53 -1.928 13.002
-3.152 -1.87 12.664
-0.384 -1.858 12.428
2.4100001 -1.91 12.321
4.5240002 -1.9960001 12.285
-2.467 -1.929 13.12
-3.211 -1.858 12.636
-0.465 -1.841 12.418
2.3380001 -1.8940001 12.31
3.2090001 -1.913 12.287
0.55900002 -1.849 12.42
-2.392 -1.921 13.117
-4.461 -1.8279999 12.433
-3.256 -1.831 12.559
-0.53899997 -1.818 12.365
2.266 -1.881 12.33
7.1929998 -3.174 19.914
-2.316 -1.909 13.145
-2.9460001 -1.829 12.65
-0.149 -1.818 12.417
2.625 -1.877 12.351
7.4840002 -3.158 19.813999
2.947 -1.878 12.308
0.237 -1.817 12.408
-2.704 -1.89 13.13
-0.22499999 -1.802 12.413
2.5469999 -1.855 12.309
7.4310002 -3.1229999 19.820999
3.0109999 -1.867 12.282
0.31900001 -1.804 12.423
-3.075 -1.793 12.617
-0.30199999 -1.79 12.433
2.4749999 -1.839 12.301
7.8319998 -3.099 19.747999
0.39500001 -1.795 12.412
-2.54 -1.851 13.08
-3.1270001 -1.77 12.565
2.4100001 -1.827 12.321
4.4990001 -1.8940001 12.215
0.48300001 -1.78 12.421
-2.4590001 -1.8430001 13.081
-0.46000001 -1.7589999 12.432
2.345 -1.816 12.35
-2.405 -1.847 13.224
-0.537 -1.7460001 12.448
4.4250002 -1.869 12.25
3.27 -1.8099999 12.256
0.64200002 -1.76 12.436
-2.3050001 -1.8099999 13.078
-0.14300001 -1.734 12.414
7.4990001 -3.017 19.853001
7.7350001 -3 19.737
2.948 -1.7920001 12.288
-2.6730001 -1.785 13.011
-0.22 -1.721 12.432
7.4380002 -2.9909999 19.839001
7.7789998 -2.9749999 19.731001
3.0190001 -1.781 12.317
-2.5999999 -1.7690001 13.011
-3.0569999 -1.701 12.567
-0.30199999 -1.706 12.435
2.4890001 -1.761 12.339
4.5580001 -1.827 12.267
3.0869999 -1.768 12.332
0.40200001 -1.714 12.436
-2.533 -1.7690001 13.075
-0.37900001 -1.693 12.456
4.546 -1.823 12.345
3.1659999 -1.762 12.346
-2.4649999 -1.762 13.143
-3.1849999 -1.676 12.558
-0.45500001 -1.678 12.453
2.3469999 -1.722 12.328
4.4829998 -1.799 12.284
3.227 -1.745 12.335
-2.388 -1.749 13.162
-3.2460001 -1.659 12.543
-0.537 -1.6619999 12.452
4.4510002 -1.7869999 12.305
3.2950001 -1.739 12.348
0.64899999 -1.678 12.457
-2.28 -1.7079999 12.975
-2.9460001 -1.664 12.703
4.6479998 -1.777 12.29
7.7589998 -2.862 19.797001
2.957 -1.706 12.326
0.243 -1.654 12.453
-2.674 -1.701 13.042
-3.0209999 -1.65 12.717
2.569 -1.692 12.389
4.625 -1.768 12.336
7.7950001 -2.8310001 19.747999
0.32499999 -1.636 12.431
-2.589 -1.6849999 12.987
-3.066 -1.631 12.629
2.5 -1.677 12.393
7.8319998 -2.803 19.722
0.40200001 -1.632 12.454
-2.493 -1.654 12.869
-3.118 -1.609 12.574
2.4219999 -1.6569999 12.355
4.5300002 -1.723 12.285
7.881 -2.78 19.729
3.1630001 -1.669 12.334
-2.434 -1.656 13.011
-3.1949999 -1.599 12.623
-0.456 -1.596 12.474
2.349 -1.6390001 12.337
4.4879999 -1.709 12.295
3.2249999 -1.661 12.327
0.57300001 -1.601 12.458
-2.3599999 -1.64 13.009
-3.26 -1.5829999 12.619
-0.53200001 -1.581 12.48
4.4619999 -1.7 12.336
3.283 -1.642 12.304
-2.925 -1.567 12.613
-0.138 -1.573 12.477
2.6389999 -1.623 12.389
4.6440001 -1.684 12.279
7.75 -2.7130001 19.775
2.9630001 -1.622 12.326
-2.573 -1.563 12.582
-2.997 -1.563 12.642
-0.214 -1.558 12.48
4.585 -1.66 12.214
7.7930002 -2.684 19.740999
0.32499999 -1.552 12.433
-2.543 -1.573 12.789
-0.29699999 -1.545 12.499
2.5079999 -1.594 12.403
4.572 -1.655 12.289
7.8379998 -2.6589999 19.74
3.0969999 -1.595 12.348
0.40799999 -1.546 12.448
-3.1110001 -1.523 12.572
-0.373 -1.527 12.475
2.437 -1.579 12.399
4.5419998 -1.636 12.316
0.49599999 -1.531 12.444
-3.1819999 -1.51 12.593
2.358 -1.561 12.385
3.243 -1.575 12.371
0.57200003 -1.5140001 12.433
-2.323 -1.539 12.837
-3.2420001 -1.5 12.574
-0.52700001 -1.499 12.497
2.286 -1.545 12.373
4.4640002 -1.609 12.343
3.299 -1.563 12.34
0.65499997 -1.5089999 12.454
-2.2449999 -1.52 12.807
-4.4320002 -1.487 12.532
-2.9119999 -1.4859999 12.584
2.6459999 -1.54 12.393
4.8369999 -1.6 12.327
2.9719999 -1.536 12.362
0.25 -1.487 12.469
-2.9879999 -1.475 12.627
-0.215 -1.475 12.497
2.5799999 -1.527 12.414
4.6170001 -1.581 12.3
3.0350001 -1.528 12.36
0.331 -1.4680001 12.435
-3.0420001 -1.454 12.582
-0.292 -1.461 12.51
2.5120001 -1.513 12.427
4.5879998 -1.5700001 12.331
4.875 -1.563 12.278
2.7509999 -1.5089999 12.394
0.40799999 -1.4630001 12.453
-3.1129999 -1.438 12.579
-0.36899999 -1.447 12.514
2.437 -1.494 12.4
4.5570002 -1.558 12.359
3.1789999 -1.499 12.374
0.49599999 -1.446 12.445
-2.401 -1.471 12.867
-3.1849999 -1.434 12.606
-0.45100001 -1.429 12.499
4.5289998 -1.539 12.392
3.2490001 -1.494 12.394
0.57800001 -1.431 12.448
-2.309 -1.448 12.796
-4.4910002 -1.423 12.582
2.2969999 -1.457 12.404
4.4660001 -1.517 12.331
3.3110001 -1.477 12.385
0.65499997 -1.424 12.454
-4.4510002 -1.418 12.602
-2.908 -1.401 12.59
-0.132 -1.405 12.492
2.658 -1.462 12.449
4.6849999 -1.5140001 12.371
4.8460002 -1.511 12.35
0.25600001 -1.404 12.476
-2.569 -1.393 12.588
-2.9790001 -1.385 12.587
-0.20900001 -1.392 12.512
2.668 -1.484 12.837
4.638 -1.497 12.357
3.0539999 -1.442 12.41
0.333 -1.39 12.493
-2.5020001 -1.38 12.613
-3.043 -1.369 12.584
-0.28600001 -1.376 12.507
4.619 -1.489 12.414
3.1259999 -1.438 12.442
0.41600001 -1.3839999 12.51
-2.467 -1.392 12.797
-0.36899999 -1.362 12.516
3.1960001 -1.4220001 12.439
0.505 -1.3710001 12.528
-2.369 -1.369 12.728
-4.52 -1.359 12.561
-3.1830001 -1.35 12.621
4.717 -1.516 12.907
3.2590001 -1.4069999 12.434
0.58200002 -1.355 12.521
-2.322 -1.368 12.866
-4.4899998 -1.347 12.594
-0.52100003 -1.336 12.487
4.6929998 -1.498 12.958
3.3239999 -1.399 12.435
0.66399997 -1.347 12.518
-2.2609999 -1.363 12.968
-4.4510002 -1.334 12.619
-2.9100001 -1.316 12.598
-0.125 -1.3099999 12.392
2.688 -1.382 12.563
0.25600001 -1.3200001 12.487
-0.20900001 -1.3049999 12.49
2.697 -1.409 12.945
4.6880002 -1.42 12.489
3.063 -1.362 12.447
-0.285 -1.288 12.473
2.7179999 -1.443 13.414
4.698 -1.419 12.611
3.135 -1.35 12.477
0.417 -1.303 12.543
-2.5209999 -1.3380001 13.114
-3.3559999 -1.38 13.612
-0.77100003 -2.7279999 26.573999
4.6929998 -1.414 12.711
3.201 -1.3380001 12.435
0.505 -1.2869999 12.536
-2.4360001 -1.319 13.086
-3.4660001 -1.3789999 13.768
-0.44499999 -1.267 12.497
4.973 -2.7320001 25.988001
4.711 -1.419 12.891
3.2709999 -1.324 12.455
0.588 -1.27 12.525
-2.339 -1.294 12.995
-3.507 -1.351 13.651
4.697 -1.411 12.969
3.335 -1.309 12.455
0.66500002 -1.263 12.527
-2.2880001 -1.298 13.122
-0.126 -1.2359999 12.491
4.7049999 -1.344 12.424
4.8629999 -1.3329999 12.395
3.0020001 -1.2869999 12.462
0.26100001 -1.23 12.436
-0.20299999 -1.229 12.5
2.6819999 -1.314 12.874
4.6900001 -1.327 12.478
3.0680001 -1.272 12.468
0.33899999 -1.23 12.509
-2.6059999 -1.27 13.168
2.717 -1.352 13.409
4.9070001 -1.3049999 12.342
3.1429999 -1.266 12.487
-2.5239999 -1.25 13.127
-0.361 -1.192 12.44
-2.4360001 -1.233 13.119
2.3710001 -1.2180001 12.391
4.671 -1.3099999 12.764
3.2650001 -1.23 12.434
0.58600003 -1.1900001 12.499
-2.3570001 -1.223 13.097
-3.5039999 -1.268 13.665
2.3039999 -1.205 12.41
4.4949999 -1.2589999 12.411
3.3269999 -1.222 12.426
0.66799998 -1.174 12.484
-2.2820001 -1.21 13.126
2.6589999 -1.199 12.426
4.6880002 -1.248 12.379
2.9820001 -1.194 12.38
2.5880001 -1.183 12.425
4.638 -1.229 12.34
4.8779998 -1.229 12.343
3.062 -1.183 12.418
0.34299999 -1.1390001 12.445
-0.28 -1.1289999 12.503
2.516 -1.1670001 12.417
4.6069999 -1.2079999 12.367
4.9060001 -1.2130001 12.341
3.1129999 -1.1619999 12.365
0.41800001 -1.1210001 12.409
-2.517 -1.161 13.124
-0.35600001 -1.113 12.491
2.448 -1.145 12.425
4.5679998 -1.194 12.372
4.9359999 -1.197 12.328
3.1949999 -1.159 12.414
0.50700003 -1.107 12.428
-2.3800001 -1.1289999 12.85
-3.2869999 -1.141 13.081
-0.43900001 -1.098 12.499
2.3759999 -1.1289999 12.418
4.5279999 -1.178 12.373
4.961 -1.181 12.317
3.253 -1.142 12.388
0.588 -1.098 12.416
-2.266 -1.0930001 12.624
-3.4430001 -1.154 13.425
-0.51599997 -1.084 12.512
2.299 -1.1109999 12.383
4.4829998 -1.1619999 12.363
4.9889998 -1.1670001 12.331
3.3150001 -1.126 12.381
0.66500002 -1.084 12.432
-2.1860001 -1.073 12.574
-0.12 -1.073 12.48
2.6619999 -1.1059999 12.412
4.6880002 -1.155 12.364
4.8460002 -1.152 12.337
2.9779999 -1.101 12.364
0.26699999 -1.063 12.456
-2.563 -1.062 12.619
-0.197 -1.059 12.499
2.589 -1.089 12.399
4.6389999 -1.138 12.343
4.869 -1.136 12.322
3.0580001 -1.097 12.402
0.34400001 -1.056 12.462
-2.4909999 -1.046 12.615
-3.04 -1.046 12.623
-0.28 -1.044 12.503
2.513 -1.071 12.372
4.5999999 -1.123 12.347
4.8979998 -1.12 12.32
3.073 -1.0650001 12.206
0.42500001 -1.039 12.44
-2.4070001 -1.033 12.548
-3.108 -1.0319999 12.632
-0.35600001 -1.028 12.498
2.448 -1.058 12.398
4.5700002 -1.11 12.377
4.9349999 -1.105 12.325
3.1930001 -1.067 12.403
0.50700003 -1.022 12.424
-2.336 -1.022 12.612
-3.1730001 -1.016 12.63
-0.433 -1.013 12.502
2.3710001 -1.0420001 12.39
4.5209999 -1.085 12.354
4.96 -1.089 12.316
3.2539999 -1.058 12.393
0.58899999 -1.016 12.44
-2.26 -1.005 12.591
-3.237 -1.002 12.644
-0.51599997 -0.99800003 12.497
2.3 -1.027 12.388
4.4840002 -1.071 12.366
4.9889998 -1.076 12.331
3.299 -1.0369999 12.321
0.667 -1.002 12.459
-2.1700001 -0.98400003 12.515
-4.4559999 -1.003 12.668
-2.904 -0.98400003 12.623
-0.12 -0.98900002 12.491
2.6600001 -1.021 12.404
4.8540001 -1.062 12.355
2.9890001 -1.0190001 12.384
-2.553 -0.98199999 12.596
-2.9649999 -0.97500002 12.604
-0.197 -0.97500002 12.503
4.652 -1.049 12.377
4.8839998 -1.0470001 12.358
0.34400001 -0.972 12.462
-2.4820001 -0.96700001 12.601
-3.0339999 -0.96100003 12.619
-0.27399999 -0.95899999 12.494
2.523 -0.99199998 12.423
4.605 -1.0319999 12.36
3.1199999 -0.99699998 12.393
0.426 -0.95599997 12.454
-2.4100001 -0.95099998 12.594
-3.0999999 -0.94499999 12.621
-0.35699999 -0.94499999 12.519
2.454 -0.977 12.428
4.5549998 -1.015 12.337
8.0380001 -1.652 20.075001
3.184 -0.97799999 12.348
0.514 -0.94099998 12.463
-2.3310001 -0.935 12.586
-4.5339999 -0.94800001 12.652
-3.1659999 -0.93000001 12.626
-0.433 -0.92900002 12.503
2.3740001 -0.958 12.379
7.2880001 -1.615 19.915001
0.59200001 -0.93599999 12.496
-2.257 -0.921 12.605
-4.4790001 -0.92900002 12.615
-3.2349999 -0.92299998 12.638
7.2410002 -1.594 19.966999
-2.1819999 -0.91100001 12.585
-4.434 -0.91399997 12.622
-2.8989999 -0.90700001 12.63
-0.115 -0.90499997 12.5
7.5139999 -1.558 19.818001
8.1859999 -1.638 20.837
0.26800001 -0.90499997 12.493
-2.553 -0.89700001 12.599
-2.9530001 -0.88800001 12.58
-0.197 -0.889 12.486
7.4499998 -1.534 19.820999
8.2299995 -1.609 20.801001
0.35100001 -0.88999999 12.504
-2.4860001 -0.88300002 12.619
-3.036 -0.87599999 12.627
7.4029999 -1.511 19.844999
0.428 -0.875 12.515
-2.4289999 -0.87300003 12.697
-3.1040001 -0.861 12.638
-0.35100001 -0.86900002 12.532
7.3509998 -1.489 19.881001
0.51300001 -0.86199999 12.431
-2.3970001 -0.884 12.974
-4.52 -0.85900003 12.613
7.2919998 -1.4680001 19.927
0.59100002 -0.84899998 12.467
-2.3310001 -0.87099999 13.019
-3.237 -0.838 12.644
7.2540002 -1.449 20.004
0.67000002 -0.82999998 12.409
-2.27 -0.85900003 13.091
-0.115 -0.82300001 12.539
7.5159998 -1.424 19.822001
8.1850004 -1.484 20.836
0.273 -0.81900001 12.47
7.4520001 -1.387 19.826
8.2370005 -1.457 20.818001
0.35100001 -0.80599999 12.517
7.4050002 -1.365 19.851999
-2.5190001 -0.82599998 13.201
7.3520002 -1.342 19.886
-2.431 -0.80699998 13.162
7.309 -1.322 19.947001
-2.348 -0.78799999 13.114
7.2550001 -1.301 20.006001
-2.2620001 -0.76999998 13.084
7.5120001 -1.276 19.813
8.1879997 -1.33 20.843
0.273 -0.73400003 12.468
7.46 -1.253 19.823999
8.2440004 -1.304 20.834999
-2.602 -0.755 13.24
7.4109998 -1.2309999 19.868999
8.2810001 -1.276 20.804001
0.42500001 -0.69999999 12.278
-2.4949999 -0.72899997 13.075
7.348 -1.207 19.874001
8.2360001 -1.247 20.545
-2.425 -0.71799999 13.164
7.303 -1.186 19.93
-2.346 -0.69999999 13.136
2.273 -0.67400002 12.212
7.2529998 -1.165 20
-2.257 -0.68800002 13.055
7.5190001 -1.131 19.832001
8.2010002 -1.176 20.851999
7.4749999 -1.108 19.863001
8.2480001 -1.163 20.844999
-2.6059999 -0.66600001 13.259
7.4130001 -1.084 19.872
8.2790003 -1.135 20.799999
-2.5239999 -0.648 13.227
7.3610001 -1.062 19.91
-2.418 -0.63499999 13.126
7.3130002 -1.04 19.959
-2.3540001 -0.62099999 13.181
7.2740002 -1.0190001 20.034
-2.2839999 -0.60600001 13.207
7.5300002 -0.98500001 19.861
8.2030001 -1.035 20.856001
-3.0320001 -0.56999999 12.941
7.4759998 -0.96100003 19.867001
8.2489996 -1.0089999 20.847
-2.5999999 -0.57499999 13.233
7.4200001 -0.93800002 19.892
8.2919998 -0.98199999 20.834
-2.5150001 -0.56599998 13.213
7.3629999 -0.91399997 19.914
8.1630001 -0.935 20.363001
-2.4289999 -0.54799998 13.183
7.3150001 -0.89200002 19.964001
7.9879999 -0.88599998 19.833
-2.355 -0.53200001 13.188
-2.253 -0.51099998 13.064
-2.9879999 -0.50300002 13.072
7.5409999 -0.85100001 19.863001
8.1780005 -0.87800002 20.792999
-3.023 -0.48899999 12.905
7.4850001 -0.82700002 19.889999
8.1719999 -0.84600002 20.653
-2.599 -0.49399999 13.258
7.4200001 -0.80299997 19.889999
7.9949999 -0.79799998 20.084999
-2.517 -0.47600001 13.221
7.3730001 -0.76800001 19.941999
7.8769999 -0.75700003 19.650999
-2.4300001 -0.45899999 13.189
7.3249998 -0.745 19.990999
-2.3559999 -0.45100001 13.194
-2.2609999 -0.43200001 13.114
7.553 -0.70499998 19.895
-2.638 -0.41499999 13.077
-3.059 -0.40599999 13.057
7.4949999 -0.68099999 19.915001
7.7750001 -0.66000003 19.650999
-3.1229999 -0.38999999 13.042
7.4310002 -0.65700001 19.922001
-2.4990001 -0.384 13.126
7.3720002 -0.63300002 19.940001
-2.431 -0.37799999 13.196
7.3260002 -0.61000001 19.993
-2.349 -0.361 13.19
7.2810001 -0.58700001 20.051001
-2.2509999 -0.34200001 13.053
-2.994 -0.33500001 13.098
7.5599999 -0.55800003 19.915001
-2.655 -0.32800001 13.162
7.494 -0.53399998 19.913
7.8130002 -0.51700002 19.746
-2.6040001 -0.32300001 13.282
-3.1289999 -0.31 13.067
7.9060001 -0.49599999 19.862
-2.527 -0.30599999 13.273
-3.197 -0.294 13.068
7.3759999 -0.48500001 19.950001
7.8210001 -0.463 19.51
-2.427 -0.289 13.206
-3.233 -0.27500001 12.941
7.3319998 -0.46200001 20.01
7.9959998 -0.44600001 19.83
-2.352 -0.27200001 13.205
-3.323 -0.26100001 13.03
7.283 -0.43900001 20.056999
7.9429998 -0.42899999 19.608
-2.2639999 -0.255 13.13
-3.006 -0.255 13.151
7.5570002 -0.41100001 19.907
7.75 -0.39399999 19.704
-3.0409999 -0.236 13.006
-0.403 -0.493 27.129999
7.4959998 -0.38600001 19.92
-2.6040001 -0.233 13.284
-2.526 -0.21600001 13.27
-3.1719999 -0.20299999 12.965
-0.75199997 -0.428 27.254999
7.3790002 -0.338 19.957001
7.8930001 -0.333 19.690001
-2.431 -0.199 13.227
-0.921 -0.412 27.298
7.3270001 -0.31400001 19.997
7.9770002 -0.31099999 19.783001
-2.3410001 -0.19 13.142
-3.3210001 -0.18000001 13.02
-1.104 -0.37900001 27.371
7.2909999 -0.28999999 20.079
-2.276 -0.175 13.2
7.546 -0.27500001 19.877001
7.7649999 -0.26100001 19.742001
-2.6630001 -0.15800001 13.202
-3.073 -0.149 13.145
7.4749999 -0.25099999 19.864
7.8449998 -0.23800001 19.826
-2.5929999 -0.142 13.229
-3.1259999 -0.133 13.081
7.4239998 -0.227 19.903
7.908 -0.214 19.843
-2.527 -0.13500001 13.271
-3.2119999 -0.125 13.129
-0.75199997 -0.25999999 27.267
7.3730001 -0.20200001 19.943001
7.9320002 -0.189 19.787001
-2.4230001 -0.117 13.184
-3.266 -0.108 13.072
-0.92199999 -0.227 27.327
7.3239999 -0.178 19.987
-2.332 -0.1 13.094
-3.26 -0.090000004 12.782
-1.091 -0.19400001 27.374001
7.2919998 -0.154 20.080999
7.974 -0.139 19.683001
-2.2809999 -0.085000001 13.228
-3.006 -0.077 13.151
7.5599999 -0.12800001 19.915001
7.8039999 -0.116 19.841
-3.072 -0.068000004 13.141
7.487 -0.104 19.893999
7.8509998 -0.090999998 19.843
-3.1229999 -0.052000001 13.067
-0.57200003 -0.109 27.263
7.4260001 -0.079000004 19.909
-2.503 -0.044 13.145
-3.204 -0.035999998 13.097
7.3709998 -0.055 19.937
7.9390001 -0.041999999 19.806
-2.4330001 -0.028000001 13.238
-3.2839999 -0.02 13.144
-0.921 -0.041999999 27.309
7.335 -0.029999999 20.018999
7.973 -0.017999999 19.774
-2.3429999 -0.012 13.155
-3.348 -0.012 13.128
-1.091 -0.0080000004 27.381001
7.296 -0.0060000001 20.091999
8.0059996 0.0060000001 19.763
-2.2720001 -0.0040000002 13.178
-3.013 0.0040000002 13.182
7.5630002 0.017999999 19.922001
7.8070002 0.029999999 19.85
-2.658 0.012 13.18
-3.069 0.02 13.125
7.493 0.041999999 19.91
7.8330002 0.054000001 19.796
-2.596 0.028000001 13.243
-0.56999999 0.075000003 27.155001
7.4320002 0.067000002 19.924999
7.895 0.079000004 19.813
-2.5280001 0.045000002 13.277
7.3740001 0.092 19.944
7.9400001 0.103 19.808001
-2.434 0.061000001 13.247
-3.2690001 0.059999999 13.084
7.3410001 0.117 20.035
7.9699998 0.127 19.764999
-2.3599999 0.068999998 13.251
-3.3210001 0.075999998 13.023
7.3049998 0.142 20.117001
8.0089998 0.152 19.768999
-2.2809999 0.085000001 13.226
-3.0009999 0.093000002 13.128
7.5739999 0.16599999 19.950001
7.8049998 0.177 19.843
-2.6670001 0.101 13.222
-3.0669999 0.109 13.117
-0.40799999 0.228 27.454
7.5029998 0.178 19.938
7.8559999 0.20200001 19.853001
7.4369998 0.20200001 19.937
7.9190001 0.226 19.872
-3.197 0.132 13.066
7.3829999 0.227 19.969999
7.9250002 0.249 19.768999
-2.4349999 0.14300001 13.251
-3.2620001 0.148 13.055
-0.92199999 0.31099999 27.336
7.3340001 0.25299999 20.016001
8 0.27500001 19.841
-2.359 0.15899999 13.243
-1.089 0.345 27.327
7.3039999 0.27900001 20.115999
-2.28 0.175 13.221
-3.007 0.182 13.153
7.5770001 0.301 19.959999
7.8239999 0.31200001 19.893
-2.6659999 0.183 13.218
-3.073 0.19 13.142
-0.40700001 0.41299999 27.389999
7.5050001 0.32499999 19.943001
7.8579998 0.336 19.858999
-2.5869999 0.199 13.197
-3.1389999 0.206 13.109
-0.57300001 0.44600001 27.322001
7.4460001 0.34999999 19.962
-3.211 0.222 13.123
-0.75599998 0.46399999 27.398001
7.3930001 0.37599999 19.997
7.9489999 0.38499999 19.829
-2.4400001 0.233 13.278
-3.27 0.23800001 13.089
7.3429999 0.40099999 20.041
7.9580002 0.40700001 19.737
-2.362 0.249 13.259
-3.3239999 0.245 13.033
-1.104 0.53100002 27.365999
7.3130002 0.428 20.139999
8.0059996 0.43200001 19.764
-2.2679999 0.255 13.149
-3.0009999 0.26300001 13.126
7.5700002 0.44800001 19.940001
7.8060002 0.458 19.846001
-2.668 0.273 13.229
-3.072 0.27900001 13.138
-0.40599999 0.59799999 27.322001
7.507 0.47299999 19.948
-3.1500001 0.296 13.156
7.448 0.498 19.966
7.8969998 0.50700003 19.839001
-2.5380001 0.308 13.332
-3.2179999 0.30399999 13.152
7.3920002 0.52399999 19.993999
7.927 0.52999997 19.775
-2.4430001 0.315 13.293
-3.2850001 0.31999999 13.147
-0.92400002 0.68400002 27.398001
7.3429999 0.54900002 20.040001
7.9720001 0.55400002 19.768999
-2.362 0.331 13.261
-3.3329999 0.33399999 13.071
7.302 0.57599998 20.110001
-2.2880001 0.347 13.268
7.5830002 0.597 19.974001
7.8239999 0.60699999 19.891001
-2.6670001 0.36199999 13.224
-3.0610001 0.36700001 13.094
-0.40400001 0.764 27.238001
7.5089998 0.62099999 19.952999
7.8720002 0.63099998 19.895
-2.5899999 0.37 13.212
-0.588 0.80199999 27.389999
7.4520001 0.64600003 19.976
-2.5350001 0.38999999 13.315
-3.2060001 0.391 13.106
-0.75300002 0.83200002 27.278999
7.3959999 0.65899998 20.004
7.9530001 0.67900002 19.84
-2.4489999 0.405 13.29
-0.921 0.86699998 27.302
7.3509998 0.68599999 20.061001
7.9819999 0.70099998 19.794001
-2.3510001 0.419 13.201
-1.101 0.884 27.304001
7.3189998 0.71399999 20.156
8.0129995 0.72500002 19.781
-2.2839999 0.43599999 13.243
-0.237 0.912 27.153999
7.5910001 0.73299998 19.995001
7.8099999 0.75300002 19.858
-2.664 0.44299999 13.208
-3.0829999 0.44999999 13.158
-0.405 0.94999999 27.285
7.5229998 0.75800002 19.990999
-2.589 0.46000001 13.207
-3.138 0.46399999 13.105
-0.588 0.98699999 27.386
7.4679999 0.78399998 20.021
7.901 0.801 19.851
-2.5350001 0.47999999 13.315
-3.2079999 0.48100001 13.114
7.4130001 0.80900002 20.051001
-2.4349999 0.493 13.218
-3.279 0.48899999 13.124
7.369 0.83700001 20.110001
7.9619999 0.84600002 19.745001
-2.352 0.49900001 13.168
-1.105 1.073 27.408001
7.322 0.86400002 20.164
8.0120001 0.87199998 19.778
-2.266 0.514 13.143
-3.0050001 0.52200001 13.146
7.5910001 0.88200003 20.02
7.8049998 0.89899999 19.844
-2.6659999 0.53299999 13.216
-0.417 1.133 27.223
7.5359998 0.90700001 20.025999
7.849 0.92299998 19.837999
-3.1459999 0.55500001 13.139
-0.588 1.174 27.396
7.4759998 0.93300003 20.042999
7.9050002 0.949 19.861
-2.5380001 0.57099998 13.33
-3.201 0.56 13.086
