# .PCD v0.7 - Point Cloud Data file format
VERSION 0.7
FIELDS x y z
SIZE 4 4 4
TYPE F F F
COUNT 1 1 1
WIDTH 1731
HEIGHT 1
VIEWPOINT 0 0 0 1 0 0 0
POINTS 1731
DATA ascii
-10.89 6.7540002 66.983002
-18.320999 6.8080001 67.182999
-4.1430001 6.9190001 67.411003
11.365 7.1849999 68.089996
11.359 7.1810002 68.089996
20.018 7.7579999 71.112999
4.8449998 7.0370002 67.306
-10.592 6.8899999 67.133003
-18.643999 6.8509998 67.183998
-4.5939999 7.007 67.042
-4.5869999 6.9970002 67.042
10.931 7.257 67.998001
10.936 7.2610002 67.998001
20.461 7.8610001 71.139
-10.186 7 67.236
-19.066999 6.973 67.207001
-5.0139999 7.0539999 66.973999
-5.0190001 7.0619998 67.134003
10.494 7.2839999 67.959
10.475 7.2719998 67.959
20.806999 7.9530001 70.988998
-9.7910004 7.099 67.512001
-5.448 7.1199999 67.257004
-5.3959999 7.0510001 67.257004
10.102 7.3610001 67.839996
-9.3549995 7.1259999 67.351997
12.121 7.5120001 68.169998
12.101 7.4990001 68.169998
19.143999 7.9920001 70.612999
-8.3870001 5.2880001 49.596001
-8.3559999 5.2690001 49.596001
-17.964001 7.177 67.121002
-3.783 7.3410001 68.038002
11.733 7.5929999 68.014999
11.748 7.6030002 68.014999
19.552 8.0970001 70.641998
-8.0889997 5.3379998 49.609001
-18.319 7.2210002 67.128998
-4.1300001 7.2989998 67.608002
11.305 7.6259999 67.938004
11.302 7.625 67.938004
-18.674 7.3060002 67.151001
10.913 7.704 67.886002
10.904 7.698 67.886002
-18.961 7.3769999 67.169998
12.128 7.9770002 67.994003
12.107 7.9629998 67.994003
-8.3769999 5.6030002 49.582001
-3.786 7.8119998 68.206001
11.689 8.0450001 67.953003
11.716 8.0640001 67.953003
-8.0649996 5.6589999 49.592999
-8.0950003 5.6789999 49.592999
11.291 8.118 67.739998
11.297 8.1230001 67.739998
10.877 8.1610003 67.782997
10.865 8.1520004 67.782997
10.43 8.1940002 67.664001
10.422 8.1879997 67.664001
10.032 8.2480001 67.425003
10.043 8.257 67.425003
6.1129999 8.1960001 0
12.116 8.4709997 67.859001
12.107 8.4650002 67.859001
-8.382 5.9120002 49.528999
-3.8139999 8.2650003 68.177002
11.677 8.4960003 67.847
11.673 8.493 67.847
4.3590002 8.3070002 67.186996
-8.099 5.9710002 49.526001
-4.2090001 8.3039999 67.940002
11.237 8.5600004 67.708
11.259 8.5780001 67.708
4.8000002 8.3839998 67.186996
-4.6079998 8.3129997 0
10.843 8.5930004 67.660004
10.88 8.6219997 67.660004
5.2389998 8.46 0
-5.0650001 8.4160004 0
10.421 8.6700001 67.504997
10.44 8.6850004 67.504997
5.6500001 8.5419998 67.137001
-5.4809999 8.4989996 0
-5.4660001 8.4770002 67.163002
10.023 8.7659998 67.459
10.016 8.7609997 67.459
6.0869999 8.6160002 67.149002
6.0929999 8.6239996 67.149002
-9.4239998 8.5089998 67.209999
-3.3310001 8.4790001 67.240997
3.938 8.6599998 67.100998
-8.4200001 6.2589998 49.493999
-11.511 8.5570002 67.418999
-3.744 8.5679998 67.290001
4.3470001 8.7390003 67.133003
-11.09 8.6120005 67.418999
-4.1830001 8.6020002 67.499001
4.7620001 8.8280001 67.135002
-10.62 8.651 67.245003
-4.592 8.6829996 67.364998
-4.5929999 8.6829996 67.364998
5.2379999 8.9130001 67.072998
-10.142 8.7049999 67.245003
-4.9899998 8.743 67.209999
-5.0100002 8.7779999 67.384003
5.6560001 9.007 67.125999
-9.7360001 8.7639999 67.071999
-5.4460001 8.809 67.163002
-5.4419999 8.802 67.163002
6.0669999 9.0880003 67.150002
-9.3199997 8.8000002 67.209999
-17.740999 8.8719997 0
-3.326 8.9209995 66.892998
3.9059999 9.1140003 67.060997
-11.381 8.8900003 67.418999
-18.033001 8.9429998 67.004997
-3.7720001 9.0129995 66.957001
4.3169999 9.1960001 67.046997
-10.96 8.9639997 67.320999
-18.413 9 67.069
-4.1830001 9.0559998 67.170998
4.7639999 9.2880001 67.070999
-10.576 9.0419998 67.245003
-18.736 9.0699997 67.069
-4.6199999 9.1300001 67.207001
-4.6279998 9.1450005 67.207001
5.211 9.3760004 67.084999
-10.138 9.1269999 67.045998
-19.066999 9.1599998 67.072998
-5.027 9.2049999 66.918999
-5.0370002 9.2229996 66.918999
5.6279998 9.467 67.136002
-9.7290001 9.1689997 66.890999
-19.436001 9.2530003 67.123001
-5.4369998 9.2480001 67.018997
-5.4320002 9.2379999 67.018997
6.0640001 9.5389996 67.111
-9.3479996 9.2489996 66.931
-17.712 9.3120003 67.004997
-3.3599999 9.3800001 66.889
3.9089999 9.5760002 67.028999
-11.376 9.3400002 67.082001
-18.089001 9.3690004 67.038002
-3.809 9.4379997 66.936996
4.322 9.6619997 67.060997
-10.997 9.4219999 66.986
-18.424 9.4440002 67.041
-4.2160001 9.5120001 66.901001
-10.616 9.5030003 66.935997
-18.799 9.5410004 67.072998
-4.6230001 9.5869999 66.902
-4.6230001 9.5889997 66.902
-10.183 9.552 66.908997
-19.101999 9.6160002 67.044998
-5.0749998 9.6490002 66.842003
-5.0609999 9.6219997 66.842003
-9.7600002 9.6219997 66.845001
-19.427999 9.7040005 67.073997
-5.474 9.7089996 66.851997
-5.4819999 9.724 66.851997
-9.368 9.724 66.866997
-17.768 9.7379999 67.009003
-3.3759999 9.7880001 66.830002
-11.413 9.7980003 66.877998
-18.149 9.8389997 67.026001
-11.04 9.8450003 66.879997
-18.423 9.8809996 67.056
-10.626 9.9239998 66.871002
-10.172 9.9949999 66.871002
-3.895 11.323 67.268997
-4.3369999 11.399 67.268997
-4.7379999 11.451 0
-4.7360001 11.446 67.153999
-5.1739998 11.476 67.120003
-9.8920002 11.479 67.185997
-5.5900002 11.569 67.043999
-5.5879998 11.565 67.043999
-9.5089998 11.558 0
-3.503 11.704 67.223
-11.588 11.621 67.316002
-3.915 11.745 67.209
-11.169 11.697 67.140999
-4.3590002 11.827 67.202003
-10.789 11.78 67.195
-4.77 11.866 67.153999
-4.7719998 11.871 67.153999
-10.349 11.867 67.185997
-5.2280002 11.983 67.172997
-5.217 11.957 67.172997
-9.9390001 11.953 67.138
-5.632 12.045 67.056
-5.632 12.046 67.056
-9.5410004 12.013 67.040001
-18.030001 12.082 67.272003
-3.5369999 12.167 67.170998
-11.591 12.047 67.199997
-18.298 12.111 67.272003
-3.9560001 12.23 67.254997
-11.21 12.162 67.112999
-4.3930001 12.292 67.228996
-10.844 12.262 67.195999
-4.8200002 12.369 67.171997
-4.8239999 12.38 67.171997
-10.376 12.318 67.210999
-5.2750001 12.475 67.247002
-5.283 12.494 67.247002
-9.9659996 12.402 67.100998
-5.6820002 12.542 67.160004
-9.5909996 12.492 67.115997
-11.641 12.522 67.108002
-4.0139999 12.768 67.438004
-11.261 12.64 67.168999
-5.8709998 -4.8979998 68.116997
-8.066 -4.7150002 68.124001
-7.9650002 -4.5209999 0
-5.8930001 -4.494 68.116997
-7.6479998 -4.1869998 68.124001
-7.9510002 -4.0510001 68.124001
-5.8429999 -4.0180001 68.182999
4.191 -0.79000002 0
-8.8769999 -3.95 67.762001
-8.5279999 -3.8970001 68.065002
-8.0419998 -3.7820001 68.111
-7.1269999 -3.763 68.023003
-7.618 -3.7249999 68.196999
-7.191 -3.678 0
-7.1680002 -3.6670001 68.023003
6.276 -2.517 0
6.2540002 -2.5079999 50.076
-7.4660001 -3.2379999 68.085999
6.2059999 -2.425 50.076
6.217 -2.4289999 50.076
-8.8590002 -3.0350001 68.065002
7.1409998 -3.04 67.556999
6.6999998 -2.6530001 67.563004
-1.098 -0.324 67.737
-1.098 -0.324 8.415
7.138 -2.5780001 67.806999
-8.3629999 -2.5090001 67.797997
-7.9559999 -2.428 0
6.2870002 -1.841 50.088001
6.2740002 -1.837 50.102001
-0.93599999 -0.292 8.3509998
-0.92000002 -0.28999999 67.57
-7.4310002 -2.349 0
6.223 -1.743 50.102001
-0.88700002 -0.287 8.3509998
-0.88300002 -0.28600001 8.3509998
-7.8080001 -2.256 67.306
7.6760001 -2.3239999 0
6.5089998 -1.682 50.102001
6.5040002 -1.681 50.102001
-0.83600003 -0.27700001 8.4040003
-6.6939998 -2.223 67.642998
9.8590002 -2.306 68.261002
4.1269999 -0.428 12.437
6.6799998 -2.187 67.554001
-1.105 -0.26899999 8.415
-1.108 -0.26899999 8.415
-0.773 -0.26199999 8.4139996
-0.76899999 -0.26100001 8.4139996
9.3839998 -2.2079999 68.124001
9.4110003 -2.2149999 68.124001
7.132 -2.1570001 67.734001
-8.4099998 -2.0639999 67.587997
-0.82200003 -0.25099999 8.4139996
-0.81599998 -0.249 8.4139996
6.5799999 -1.559 50.113998
6.5929999 -1.562 50.113998
7.559 -2.076 67.996002
-7.9460001 -2.01 67.306
6.3119998 -1.501 50.102001
6.3010001 -1.498 50.102001
8.0559998 -1.9960001 67.996002
-7.6269999 -1.959 67.726997
-7.5310001 -1.9349999 67.694
-7.494 -1.908 67.694
-7.474 -1.903 67.694
8.1230001 -1.947 67.890999
6.2189999 -1.403 50.088001
6.2150002 -1.402 50.088001
-7.1290002 -1.855 67.787003
-7.868 -1.814 67.358002
7.7049999 -1.863 67.996002
6.506 -1.337 50.113998
6.5409999 -1.344 50.113998
-6.6729999 -1.7690001 67.597
4.2160001 -0.352 12.31
6.7049999 -1.735 67.755997
-8.8319998 -1.6900001 8.4639997
4.1620002 -0.336 12.576
-8.4130001 -1.648 67.633003
-8.4300003 -1.651 67.633003
-6.6479998 -1.6109999 67.642998
6.5479999 -1.2130001 50.040001
6.5910001 -1.221 50.040001
-0.87699997 -0.189 8.3940001
-7.04 -1.522 67.777
7.9899998 -1.521 67.890999
-0.87699997 -0.17200001 8.4329996
-0.87699997 -0.17200001 8.4329996
-7.855 -1.358 67.605003
-0.82999998 -0.168 8.4329996
-6.6999998 -1.358 67.642998
-5.7410002 -1.309 67.369003
4.1939998 -0.25799999 12.519
6.691 -1.273 67.728996
9.3830004 -1.283 68.197998
4.1459999 -0.242 12.499
7.086 -1.227 67.717003
-0.81900001 -0.142 8.4049997
-6.5840001 -1.145 67.683998
7.5430002 -1.151 67.847
7.5419998 -1.15 67.832001
-8.0010004 -1.1059999 67.704002
-0.87099999 -0.132 8.4329996
-0.86900002 -0.132 8.4329996
6.3039999 -0.81900001 50.152
6.3049998 -0.81900001 50.143002
8.0249996 -1.067 67.886002
-0.93699998 -0.127 8.3699999
-0.93599999 -0.127 8.4350004
-0.92299998 -0.127 8.3590002
6.2399998 -0.727 50.143002
6.2329998 -0.72600001 50.143002
-0.88499999 -0.122 8.3590002
-0.88200003 -0.121 8.3590002
-0.97399998 -0.116 8.4350004
-7.8410001 -0.93900001 67.704002
7.71 -0.94199997 67.832001
7.6690001 -0.93699998 67.832001
6.5409999 -0.66399997 50.143002
6.54 -0.66399997 50.143002
-0.83099997 -0.111 8.4049997
-0.829 -0.111 8.4049997
-20.337999 -0.89700001 67.656998
-19.778999 -0.86000001 67.695999
-0.71899998 -0.106 8.46
-0.71700001 -0.106 8.46
9.7939997 -0.903 68.179001
4.2119999 -0.16599999 12.555
-1.098 -0.101 8.4209995
-8.8070002 -0.81400001 67.730003
-20.014 -0.773 67.733002
-0.76700002 -0.094999999 8.46
-0.76700002 -0.094999999 8.46
9.4180002 -0.82300001 68.182999
9.3769999 -0.81900001 68.182999
4.1539998 -0.15000001 12.555
7.1420002 -0.77600002 67.755997
-1.045 -0.090000004 8.4359999
-1.038 -0.090000004 8.4359999
-20.25 -0.72899997 67.733002
-0.81999999 -0.085000001 8.4110003
-0.81800002 -0.085000001 8.4110003
6.6129999 -0.54100001 50.132999
6.6059999 -0.54000002 50.132999
7.5339999 -0.68900001 67.832001
7.5489998 -0.69099998 67.832001
-0.99299997 -0.085000001 8.4119997
-0.99000001 -0.085000001 8.4119997
-0.86699998 -0.079999998 8.4090004
-0.86799997 -0.079999998 8.4090004
6.3060002 -0.479 50.143002
6.3070002 -0.479 50.143002
8.0719995 -0.61000001 67.875
8.033 -0.60699999 67.875
-0.93199998 -0.074000001 8.4350004
-0.93099999 -0.074000001 8.4350004
-0.91799998 -0.068999998 8.4350004
-0.91799998 -0.068999998 8.4350004
8.1350002 -0.56599998 67.913002
8.1149998 -0.56400001 67.913002
6.2389998 -0.38600001 50.158001
6.243 -0.38699999 50.158001
-0.87900001 -0.064000003 8.4359999
-0.88 -0.064000003 8.4359999
-20.731001 -0.523 67.733002
-0.972 -0.059 8.4119997
-0.96600002 -0.059 8.4119997
7.7129998 -0.48100001 67.903
7.6890001 -0.47999999 67.903
6.5419998 -0.324 50.132999
6.5380001 -0.324 50.132999
-0.82999998 -0.054000001 8.4110003
-0.824 -0.054000001 8.4110003
-20.34 -0.43799999 67.733002
-0.71700001 -0.048999999 8.4449997
-0.71399999 -0.048999999 8.4449997
9.816 -0.40000001 68.305
9.8219995 -0.40000001 68.305
4.1989999 -0.081 12.564
6.7160001 -0.39700001 67.778
-1.09 -0.043000001 8.448
-1.09 -0.043000001 8.448
-19.882999 -0.35299999 67.646004
-0.76800001 -0.044 8.4180002
-0.76700002 -0.044 8.4180002
9.3950005 -0.35800001 68.196999
9.3920002 -0.35699999 68.196999
4.1599998 -0.064999998 12.533
7.1329999 -0.31400001 67.818001
7.1259999 -0.31299999 67.818001
-1.0420001 -0.037999999 8.4420004
-0.81599998 -0.033 8.4169998
-0.81800002 -0.033 8.4169998
6.6170001 -0.20100001 50.085999
6.6020002 -0.2 50.085999
7.5409999 -0.23 67.837997
7.5469999 -0.23 67.837997
-0.99000001 -0.028000001 8.4049997
-0.98900002 -0.028000001 8.4049997
-0.87099999 -0.023 8.3780003
-0.87 -0.023 8.3780003
6.3070002 -0.139 50.143002
6.3049998 -0.139 50.143002
8.0579996 -0.147 67.913002
8.0459995 -0.146 67.913002
-0.92900002 -0.017999999 8.3859997
-0.92299998 -0.017000001 8.3859997
-0.91900003 -0.012 8.3710003
-0.91500002 -0.012 8.3710003
8.1379995 -0.104 68.044998
8.1339998 -0.104 68.044998
6.2360001 -0.046 50.161999
8.4849997 -0.063000001 68.047997
-0.88 -0.0070000002 8.3800001
-0.88 -0.0070000002 8.3800001
-20.664 -0.061999999 67.778999
-0.972 -0.0020000001 8.3959999
-0.96799999 -0.0020000001 8.3959999
7.7059999 -0.02 67.896004
6.533 0.015 50.131001
6.5339999 0.015 50.131001
-0.83200002 -0.0020000001 8.3990002
-0.82700002 -0.0020000001 8.3990002
-20.226 -0.02 67.630997
-19.646 0.02 67.607002
-0.71600002 0.0020000001 8.4289999
-0.713 0.0020000001 8.4289999
9.8129997 0.063000001 68.161003
9.842 0.063000001 68.161003
4.2340002 0.011 12.578
6.691 0.061999999 67.771004
6.691 0.061999999 67.771004
-1.096 0.0070000002 8.3859997
-1.095 0.0070000002 8.3859997
-19.898001 0.103 67.607002
-0.764 0.012 8.3920002
-0.76599997 0.012 8.3920002
9.4119997 0.105 68.195
9.4110003 0.105 68.195
7.1370001 0.146 67.889
-1.04 0.017999999 8.4139996
-1.036 0.017999999 8.4139996
-20.214001 0.18700001 67.527
-0.81599998 0.023 8.3739996
-0.80900002 0.023 8.3739996
6.605 0.138 50.069
6.6069999 0.139 50.069
7.5430002 0.23 67.898003
7.5619998 0.23 67.898003
-0.98799998 0.028000001 8.3800001
-0.986 0.028000001 8.3800001
-2.638 0.034000002 8.6090002
-20.535 0.27000001 67.601997
-0.86799997 0.033 8.4119997
-0.866 0.033 8.4119997
6.296 0.2 50.153999
6.3060002 0.2 50.153999
8.0480003 0.31400001 68.009003
8.0380001 0.31400001 68.009003
-0.92699999 0.037999999 8.3620005
-0.92500001 0.037999999 8.3620005
-2.6630001 0.034000002 67.598999
-20.888 0.27000001 67.601997
-2.665 0.039000001 8.6090002
-20.791 0.31099999 67.601997
-0.917 0.037999999 8.3620005
8.1499996 0.35699999 68.047997
5.9790001 0.26199999 50.127998
6.2340002 0.29300001 50.127998
8.4709997 0.39899999 68.105003
-0.87599999 0.043000001 8.3780003
-2.6429999 0.045000002 8.6090002
-2.6819999 0.050000001 8.6090002
-0.96899998 0.048999999 8.3909998
-0.96700001 0.048 8.3909998
7.7340002 0.44100001 67.949997
7.697 0.43900001 67.949997
6.533 0.35499999 50.112999
6.5380001 0.35499999 50.112999
-0.82700002 0.054000001 8.4180002
-0.82499999 0.054000001 8.4180002
-2.592 0.055 8.6750002
-20.292 0.43700001 67.527
-19.655001 0.479 67.582001
-0.71600002 0.059 8.4099998
-0.71600002 0.059 8.4099998
9.8330002 0.52700001 68.237999
9.8470001 0.528 68.237999
6.6869998 0.52100003 67.767998
6.7090001 0.523 67.767998
-1.095 0.064000003 8.4359999
-1.092 0.064000003 8.4359999
-0.764 0.068999998 8.3739996
-0.75999999 0.068999998 8.3739996
9.3739996 0.56699997 68.193001
9.3850002 0.56699997 68.193001
7.1259999 0.60600001 67.961998
7.1110001 0.60500002 67.961998
-1.043 0.075000003 8.4020004
-1.041 0.075000003 8.4020004
-20.267 0.60500002 67.523003
-0.815 0.079999998 8.3789997
-0.81999999 0.079999998 8.3789997
6.6040001 0.47799999 50.098999
6.605 0.47799999 50.098999
7.5479999 0.69099998 67.969002
7.5599999 0.69199997 67.969002
-0.991 0.079999998 8.3629999
-0.98699999 0.079000004 8.3629999
-21.299 0.64700001 67.606003
-20.589001 0.68800002 67.606003
-0.86799997 0.085000001 8.3809996
-0.866 0.085000001 8.3809996
6.3080001 0.54100001 50.117001
6.309 0.54100001 50.117001
8.0489998 0.77600002 68.058998
8.0369997 0.77499998 68.058998
-0.93199998 0.090000004 8.3459997
-0.92900002 0.090000004 8.3459997
-20.919001 0.72899997 67.606003
-20.889999 0.77200001 67.609001
-0.92400002 0.096000001 8.3459997
-0.92299998 0.096000001 8.3459997
8.1300001 0.81699997 68.075996
8.1339998 0.81699997 68.075996
6.2319999 0.63300002 50.117001
6.2379999 0.634 50.117001
-0.884 0.101 8.3459997
-0.88200003 0.101 8.3459997
-20.576 0.81099999 67.541
-21.167 0.85399997 67.640999
-0.98299998 0.107 8.3649998
-0.98400003 0.107 8.3649998
7.7179999 0.90100002 67.982002
7.7150002 0.90100002 67.982002
6.5339999 0.69400001 50.089001
6.5370002 0.69499999 50.089001
-0.852 0.114 8.3730001
-0.85100001 0.114 8.3730001
-20.306 0.89600003 67.541
-19.59 0.89399999 67.595001
-0.75300002 0.122 8.4139996
-0.75 0.122 8.4139996
9.8009996 0.98799998 68.387001
9.8360004 0.991 68.387001
4.9099998 0.192 11.724
6.7129998 0.98400003 67.815002
-1.11 0.123 8.427
-1.109 0.123 8.427
-21.853001 0.93800002 67.725998
-19.910999 0.977 67.591003
-0.81199998 0.134 8.3719997
-6.1760001 1.021 67.403
9.4029999 1.0319999 68.258003
7.105 1.064 67.918999
7.1269999 1.067 67.918999
-1.0880001 0.132 8.4300003
-8.4029999 1.021 8.2639999
-21.6 1.023 67.640999
-20.257 1.063 67.591003
-0.86199999 0.139 8.3719997
-6.5700002 1.0599999 67.403
6.5949998 0.81699997 50.087002
6.6040001 0.81800002 50.087002
7.5669999 1.154 68.009003
7.566 1.154 68.009003
-1.033 0.142 8.3889999
-7.9699998 1.101 8.3739996
-20.565001 1.146 67.583
-0.89399999 0.146 8.3830004
-6.9720001 1.141 8.3590002
6.2969999 0.88 50.122002
6.3049998 0.88099998 50.122002
8.0410004 1.237 68.026001
8.0430002 1.237 68.026001
-7.4959998 1.1849999 8.3669996
-7.4879999 1.184 67.367996
-20.893 1.187 67.591003
-20.830999 1.228 67.579002
-7.3979998 1.226 67.367996
8.1330004 1.278 68.040001
8.158 1.2819999 68.040001
6.2280002 0.972 50.132
6.237 0.97399998 50.132
-7.0780001 1.268 67.356003
-7.066 1.265 67.356003
-20.608 1.228 67.579002
-21.188999 1.272 67.633003
-7.7839999 1.3049999 67.350998
-7.8039999 1.308 67.350998
7.7309999 1.365 68.011002
7.7249999 1.364 68.011002
6.5349998 1.034 50.105999
6.5300002 1.033 50.105999
-6.6550002 1.349 67.370003
-6.6620002 1.35 67.370003
-20.346001 1.313 67.589996
-19.605 1.352 67.560997
-5.7270002 1.347 67.384003
-5.7340002 1.349 67.384003
9.849 1.4579999 68.417
9.842 1.457 68.417
4.8759999 0.27700001 11.837
6.711 1.444 67.865997
6.711 1.444 67.865997
-8.7720003 1.3940001 67.353996
-8.7580004 1.391 67.353996
-21.871 1.398 67.694
-19.937 1.437 67.629997
-6.1430001 1.431 67.403
-6.158 1.434 67.403
9.3959999 1.495 68.240997
9.3859997 1.493 68.240997
7.1409998 1.53 67.831001
7.1399999 1.53 67.831001
-8.4359999 1.485 67.448997
-8.3610001 1.472 67.448997
-21.612 1.484 67.705002
-20.296 1.523 67.614998
-6.5700002 1.517 67.370003
-6.5619998 1.515 67.370003
6.5939999 1.156 50.069
6.6009998 1.1569999 50.069
7.566 1.6160001 68.000999
7.5630002 1.615 68.000999
-7.9679999 1.558 67.350998
-7.9530001 1.5549999 67.350998
-20.556999 1.563 67.602997
-7.0089998 1.599 67.356003
-7.0110002 1.599 67.356003
6.3010001 1.22 50.126999
6.302 1.22 50.126999
8.0489998 1.7 68.010002
8.0489998 1.7 68.010002
-7.493 1.642 67.367996
-20.945 1.605 67.594002
-20.888 1.647 67.594002
-7.4239998 1.641 67.367996
-7.4169998 1.6390001 67.367996
8.1639996 1.7460001 68.071999
8.151 1.743 68.071999
6.2220001 1.311 50.120998
8.4639997 1.784 68.115997
-7.0770001 1.683 67.389999
-20.622999 1.688 67.592003
-21.167 1.73 67.601997
-7.835 1.723 67.365997
-7.8390002 1.724 67.365997
7.7290001 1.827 68.056999
7.7179999 1.824 68.056999
6.5300002 1.373 50.076
6.5310001 1.373 50.076
-6.665 1.767 67.376999
-6.6560001 1.7640001 67.376999
-20.309 1.7690001 67.619003
-19.607 1.8099999 67.515999
-5.7280002 1.803 67.362999
-5.743 1.808 67.362999
6.8839998 1.344 48.103001
9.8389997 1.921 68.428001
6.7119999 1.905 67.922997
6.7199998 1.9069999 67.922997
-8.7939997 1.849 67.348
-8.7869997 1.848 67.348
-21.834999 1.855 67.713997
-19.996 1.9 67.572998
-6.1799998 1.8890001 67.394997
-6.1789999 1.8890001 67.394997
6.612 1.378 48.050999
9.4069996 1.961 68.285004
7.138 1.9910001 67.940002
-8.3559999 1.927 67.414001
-8.3730001 1.931 67.414001
-21.545 1.896 67.653
-20.282 1.939 67.599998
-6.585 1.97 67.346001
-6.5900002 1.971 67.346001
6.566 1.494 50.047001
6.3260002 1.439 50.063999
7.5570002 2.075 68.047997
7.5650001 2.0780001 68.047997
-7.9710002 1.975 67.357002
-7.9549999 1.971 67.357002
-20.576 2.023 67.589996
-7.0040002 2.013 67.367996
-7.013 2.0150001 67.367996
6.0310001 1.499 48.179001
6.2789998 1.5599999 50.102001
8.0530005 2.1630001 68.098999
8.0480003 2.1619999 68.098999
-7.5159998 2.0550001 67.366997
-7.5159998 2.0550001 67.366997
-20.962 2.0650001 67.601997
-20.919001 2.109 67.599998
-7.4219999 2.0969999 67.366997
-7.4089999 2.0940001 67.366997
8.1429996 2.204 68.115997
8.158 2.2079999 68.115997
5.9580002 1.58 48.040001
8.5 2.2550001 68.182999
-7.0999999 2.1370001 67.367996
-7.1020002 2.138 67.367996
-20.643 2.148 67.598
-21.157 2.187 67.629997
-7.8369999 2.181 67.349998
-7.8270001 2.178 67.349998
7.7379999 2.2909999 68.071999
7.7199998 2.286 68.071999
6.2610002 1.648 48.083
6.2579999 1.647 48.083
-6.6859999 2.22 67.360001
-6.665 2.2130001 67.360001
-20.329 2.2290001 67.613998
-19.587999 2.2249999 67.533997
-5.7639999 2.2609999 67.308998
-5.7729998 2.2650001 67.308998
6.927 1.679 68.356003
9.8599997 2.3900001 68.446999
4.197 0.45899999 12.415
6.7129998 2.365 67.942001
6.7179999 2.3670001 67.942001
-8.8109999 2.3110001 67.361
-8.7790003 2.302 67.361
-21.886999 2.277 67.616997
-19.931 2.3110001 67.609001
-6.1799998 2.346 67.341003
-6.1760001 2.3440001 67.341003
6.5890002 1.728 48.050999
9.4130001 2.4679999 68.447998
4.1539998 0.46799999 12.519
7.145 2.4549999 67.990997
7.1490002 2.4560001 67.990997
-8.4099998 2.3559999 67.379997
-8.368 2.3440001 67.379997
-21.548 2.355 67.646004
-20.268 2.3959999 67.621002
-6.5869999 2.385 67.338997
-6.5710001 2.3789999 67.338997
6.3169999 1.763 48.083
6.3369999 1.7690001 48.083
4.1170001 0.48500001 12.602
7.5749998 2.543 68.063004
7.5640001 2.539 68.063004
-7.9569998 2.428 67.367996
-7.96 2.4289999 67.367996
-21.298 2.4419999 67.639
-20.561001 2.48 67.616997
-7.0149999 2.473 67.363998
-7.006 2.47 67.363998
6.0229998 1.823 48.040001
5.9899998 1.813 48.040001
8.0620003 2.628 68.109001
8.0450001 2.6229999 68.109001
-7.5170002 2.513 67.351997
-20.944 2.5220001 67.639
-20.879 2.563 67.633003
-7.4289999 2.556 67.348
-7.4190001 2.553 67.348
8.1309996 2.6719999 68.167999
5.7319999 1.883 48.025002
5.9580002 1.913 48.025002
8.4429998 2.711 68.186996
-7.0970001 2.5929999 67.348999
-7.099 2.5940001 67.348999
-20.673 2.5650001 67.633003
-21.177 2.6059999 67.624001
-7.8449998 2.641 67.349998
-7.8319998 2.6359999 67.349998
7.7049999 2.753 68.086998
7.6929998 2.7490001 68.086998
4.1090002 0.54000002 12.602
6.2509999 1.971 48.134998
6.257 1.973 48.134998
-6.6869998 2.677 67.302002
-6.678 2.674 67.302002
-20.332001 2.6459999 67.598
-5.4369998 2.5639999 67.332001
-5.4190001 2.5550001 63.533001
6.914 2.0020001 48.103001
9.8470001 2.852 68.510002
4.1939998 0.54299998 12.519
6.7210002 2.8299999 67.938004
6.7319999 2.8340001 67.938004
-8.7950001 2.7219999 67.346001
-8.7740002 2.7160001 67.346001
-21.865999 2.734 67.585999
-19.938 2.77 67.568001
-5.8610001 2.619 63.715
-5.8520002 2.615 63.715
6.6259999 2.0639999 48.015999
9.401 2.9289999 68.441002
4.1570001 0.56099999 12.6
7.158 2.921 68.052002
7.1430001 2.9159999 68.052002
-8.3889999 2.8080001 67.338997
-8.375 2.803 67.338997
-21.573999 2.8169999 67.611
-20.264999 2.8540001 67.589996
-6.2540002 2.698 63.715
-6.2020001 2.675 63.715
6.336 2.096 48.083
6.3369999 2.096 48.083
4.1129999 0.57800001 12.613
7.539 2.9909999 68.080002
-7.9640002 2.8870001 67.364998
-7.9650002 2.8870001 67.364998
-21.263 2.8970001 67.621002
-20.583 2.8959999 67.623001
-7.0079999 2.928 67.315002
-6.6240001 2.767 67.349998
6.0310001 2.152 48.048
6.0289998 2.151 48.048
-7.5159998 2.9690001 67.341003
-7.5110002 2.967 67.341003
-20.952999 2.9400001 67.644997
-20.846001 2.9749999 67.644997
-7.421 2.9690001 67.341003
-7.428 2.9719999 67.341003
5.723 2.2060001 48.139999
5.7839999 2.23 48.139999
5.9650002 2.2420001 48.037998
5.9770002 2.2460001 48.037998
-6.7199998 2.848 63.629002
-7.0949998 3.007 67.332001
-20.66 3.023 67.626999
-21.177 3.0650001 67.599998
-7.8410001 3.0550001 67.358002
5.7319999 2.392 68.112999
5.7449999 2.398 50.881001
4.1090002 0.63300002 12.537
6.2509999 2.2980001 48.080002
6.2820001 2.309 48.080002
-6.3249998 2.925 63.624001
-6.6890001 3.0929999 67.272003
-20.311001 3.1010001 67.584999
-19.615 3.1389999 67.514999
-5.46 2.9679999 63.533001
-5.7719998 3.1370001 67.347
6.941 2.3380001 48.139999
6.9260001 2.3329999 48.139999
4.1869998 0.63499999 12.537
-8.7559996 3.165 67.334
-8.7860003 3.1760001 67.334
-21.867001 3.1889999 67.666
-19.944 3.1819999 67.539001
-5.8499999 3.046 63.695999
-5.8200002 3.03 63.695999
6.6139998 2.3859999 48.099998
6.645 2.398 48.099998
4.145 0.65200001 12.573
-8.3800001 3.2620001 67.379997
-8.3710003 3.2579999 67.379997
-21.577999 3.23 67.661003
-20.283001 3.2739999 67.550003
-6.23 3.119 63.624001
-6.198 3.1029999 63.624001
6.3270001 2.4189999 48.159
6.3309999 2.421 48.159
4.0780001 0.65700001 12.587
7.0999999 3.25 63.683998
-8.0030003 3.3050001 67.353996
-7.5289998 3.1099999 63.551998
-21.302999 3.3150001 67.627998
-20.582001 3.3540001 67.594002
-6.6059999 3.151 63.629002
-6.618 3.1570001 63.629002
6.0339999 2.48 48.063999
6.0349998 2.48 48.063999
-7.5149999 3.3840001 67.367996
-7.5079999 3.381 67.367996
-20.965 3.3959999 67.605003
-20.867001 3.437 67.601997
-6.9899998 3.227 63.547001
-6.9840002 3.224 63.547001
5.744 2.5420001 48.201
5.7519999 2.5450001 48.201
5.9650002 2.569 48.191002
5.96 2.566 48.191002
-6.7030001 3.273 63.547001
-6.6999998 3.2709999 63.547001
-20.635 3.477 67.581001
-21.195 3.5220001 67.594002
-7.8540001 3.5179999 67.375
-7.8169999 3.5009999 67.375
5.77 2.7550001 50.881001
5.7529998 2.7460001 50.881001
6.257 2.6259999 48.140999
6.2529998 2.6240001 48.140999
-6.3150001 3.352 63.573002
-6.3210001 3.355 63.573002
-20.357 3.52 67.558998
-5.447 3.392 63.556
-5.4460001 3.391 63.556
6.9060001 2.652 48.164001
6.9159999 2.6559999 48.164001
-20.236 3.336 63.294998
-19.931999 3.6370001 67.505997
-5.835 3.4690001 63.672001
-5.8390002 3.471 63.672001
6.6160002 2.7130001 48.157001
6.618 2.714 48.157001
6.6739998 3.586 63.683998
-7.9330001 3.4690001 63.551998
-21.559 3.6849999 67.643997
-20.302 3.73 67.514
-6.237 3.5150001 63.601002
-6.224 3.5079999 63.601002
6.3119998 2.7390001 48.178001
6.316 2.7409999 48.178001
7.085 3.6760001 63.683998
-7.539 3.5450001 63.551998
-20.642 3.823 67.569
-6.6479998 3.5880001 63.605999
-6.6440001 3.586 63.605999
6.0209999 2.8 48.176998
6.02 2.8 48.176998
-7.5219998 3.845 67.352997
-7.0689998 3.6129999 63.527
-20.924 3.846 67.57
-19.563999 3.6070001 67.5
-7.039 3.668 63.527
-7.04 3.668 63.527
5.7600002 2.8759999 48.234001
8.1499996 4.0700002 48.148998
8.4879999 4.1199999 68.361
8.4759998 4.1139998 68.361
-6.7270002 3.7 63.542999
-6.7319999 3.7030001 63.542999
-7.3889999 3.7260001 63.445
-7.3940001 3.7279999 63.445
6.494 3.0650001 48.176998
6.4949999 3.0650001 49.938999
-6.3410001 3.7809999 63.576
-6.3400002 3.78 63.576
-19.115999 3.7360001 63.455002
-5.4439998 3.8210001 63.569
-5.441 3.819 63.569
9.8430004 4.2589998 68.823997
9.849 4.2620001 68.686996
6.6040001 4.1599998 67.962997
-8.8219995 4.0500002 67.181
-20.530001 3.8150001 63.294998
-5.8559999 3.8559999 63.573002
-5.8569999 3.8559999 63.573002
7.1209998 4.3060002 68.022003
7.1199999 4.3060002 68.022003
-19.041 3.928 63.417999
-6.2519999 3.938 63.562
-6.257 3.941 63.562
6.5560002 3.184 49.938999
6.5580001 3.1849999 49.938999
7.5300002 4.3850002 68.022003
7.5139999 4.3759999 68.022003
-19.4 3.98 63.388
-6.6500001 4.0209999 63.563
-6.645 4.0180001 63.563
6.2719998 3.256 49.938999
8.5600004 4.4450002 68.365997
8.0419998 4.4860001 68.361
8.0419998 4.4860001 68.361
-7.0780001 4.0310001 63.306999
-7.0170002 3.9960001 63.306999
-19.684 4.0100002 63.388
-19.572001 4.0380001 63.388
-7.4489999 4.3369999 67.242996
-7.448 4.3369999 67.291
8.1309996 4.5229998 68.361
8.1400003 4.5289998 68.361
6.2020001 3.3499999 49.955002
8.4630003 4.5710001 68.365997
-7.131 4.3790002 67.291
-7.132 4.3800001 67.291
-19.370001 4.079 63.417999
-19.888 4.1199999 63.362
-7.862 4.3790002 67.242996
-7.8639998 4.381 67.273003
7.711 4.6069999 68.066002
7.704 4.6030002 68.066002
6.4860001 3.3989999 49.938999
6.4879999 3.401 49.938999
-6.7179999 4.421 63.548
-19.072001 4.1570001 63.417999
-5.8000002 4.4650002 63.542999
-5.802 4.4660001 67.303001
9.8240004 4.7160001 68.686996
9.8199997 4.7140002 68.686996
6.6900001 4.6750002 68.067001
6.691 4.6760001 68.067001
-8.8109999 4.5009999 67.146004
-8.8039999 4.4980001 67.181
-20.492001 4.2319999 63.292999
-19.808001 4.4749999 63.625999
-6.2049999 4.5419998 67.268997
-6.2140002 4.5479999 67.268997
9.3839998 4.7909999 68.596001
9.3839998 4.7909999 68.596001
7.1139998 4.763 68.052002
7.1040001 4.757 68.052002
-8.4069996 4.5890002 67.283997
-8.3999996 4.586 67.283997
-21.542 4.5489998 67.462997
-20.239 4.5840001 67.077003
-6.6230001 4.6279998 67.281998
6.5430002 3.527 49.963001
6.5370002 3.5239999 49.963001
7.5419998 4.8540001 68.066002
7.539 4.8530002 68.066002
-7.9850001 4.6680002 67.273003
-20.565001 4.6760001 67.369003
-7.0320001 4.7090001 67.293999
-7.0310001 4.7080002 67.293999
6.2199998 3.5799999 49.955002
8.5209999 4.9039998 68.374001
8.0139999 4.9320002 68.247002
8.026 4.9390001 68.247002
-7.5419998 4.71 67.291
-7.5349998 4.7059999 67.291
-20.950001 4.7179999 67.393997
-20.907 4.7649999 67.441002
-7.4450002 4.75 67.291
-7.4419999 4.7490001 67.291
8.092 4.9819999 68.324997
8.0909996 4.9819999 68.324997
8.4200001 5.0279999 68.309998
8.4189997 5.0279999 68.309998
-7.1290002 4.7919998 67.291
-7.1279998 4.7919998 67.291
-20.656 4.8070002 67.369003
-21.219 4.8540001 67.487
-7.8520002 4.8299999 67.273003
-7.849 4.8280001 67.273003
7.6599998 5.0570002 68.148003
7.658 5.0560002 68.148003
6.4580002 3.7349999 49.942001
6.4660001 3.74 49.942001
-6.7059999 4.868 67.281998
-6.717 4.8769999 67.281998
-20.356001 4.8460002 67.369003
-19.43 4.8309999 67.077003
-5.796 4.9180002 67.303001
9.802 5.1700001 68.655998
9.8030005 5.1700001 68.655998
6.6760001 5.1259999 67.991997
6.677 5.1259999 67.991997
-8.7980003 4.9510002 67.181
-8.8039999 4.954 67.181
-21.868 4.9320002 67.511002
-19.978001 4.9710002 67.077003
-6.1830001 4.98 67.230003
-6.2069998 4.9990001 67.230003
9.3660002 5.2449999 68.483002
9.3710003 5.2480001 68.483002
7.1020002 5.2160001 68.052002
7.1030002 5.217 68.052002
-8.4399996 5.0050001 67.244003
-8.4219999 4.9949999 67.244003
-21.594 5.0190001 67.511002
-20.292999 5.0539999 67.369003
-6.625 5.086 67.268997
-6.6240001 5.086 67.268997
6.533 3.891 49.897999
6.5359998 3.8929999 49.897999
7.5209999 5.302 68.095001
7.5209999 5.302 68.095001
-8.0109997 5.079 67.268997
-8.0039997 5.0739999 67.268997
-20.629 5.1409998 67.441002
-7.0549998 5.118 67.288002
-7.0609999 5.1220002 67.288002
6.2420001 3.9319999 49.944
8.5010004 5.355 68.25
7.9850001 5.395 68.222
7.9819999 5.3940001 68.222
-7.5310001 5.1589999 67.286003
-7.5300002 5.158 67.286003
-20.957001 5.177 67.487
-20.914 5.224 67.473
-7.467 5.1999998 67.291
-7.467 5.1999998 67.291
8.066 5.427 68.217003
8.0719995 5.4310002 68.217003
8.401 5.4790001 68.167999
8.3950005 5.474 68.167999
-7.1529999 5.243 67.293999
-7.1500001 5.2420001 67.293999
-20.664 5.217 67.473
-21.201 5.2659998 67.499001
-7.8790002 5.283 67.258003
-7.8779998 5.2820001 67.258003
7.6459999 5.5089998 68.112999
7.6459999 5.5089998 68.112999
6.4569998 4.073 49.897999
6.4640002 4.0770001 49.897999
-6.7379999 5.3239999 67.285004
-20.354 5.303 67.441002
-19.683001 5.3439999 67.041
-5.7820001 5.3610001 67.290001
-5.77 5.3499999 67.290001
9.7729998 5.618 68.514
9.7779999 5.6199999 68.514
20.976 4.5139999 0
6.625 5.5700002 67.945
6.6329999 5.5770001 67.945
-8.8219995 5.3600001 67.166
-21.912001 5.3930001 67.507004
-19.996 5.4250002 67.363998
-6.2290001 5.447 67.213997
-6.2290001 5.447 67.213997
9.3459997 5.697 68.417999
6.8740001 4.1900001 49.922001
7.0760002 5.6560001 67.911003
7.0900002 5.6680002 67.911003
-8.4160004 5.447 67.263
-8.4180002 5.448 67.263
-21.610001 5.473 67.507004
-20.278999 5.5079999 67.447998
-6.6550002 5.5 67.237999
-6.638 5.4860001 67.237999
6.5279999 4.2270002 49.905998
6.5289998 4.2280002 49.905998
7.4990001 5.7459998 68.009003
7.506 5.7509999 68.009003
-8.0059996 5.5310001 67.223
-7.9959998 5.5240002 67.223
-21.318001 5.5549998 67.483002
-20.601999 5.5510001 67.459999
-7.059 5.5760002 67.255997
-7.0479999 5.5669999 67.255997
8.4820004 5.8039999 68.132004
6.2719998 4.2909999 49.945
7.967 5.8439999 68.094002
7.9489999 5.8309999 68.094002
-7.5580001 5.6110001 67.232002
-20.968 5.5879998 67.483002
-20.923 5.6339998 67.483002
-7.4660001 5.6550002 67.234001
-7.4629998 5.6529999 67.234001
8.0389996 5.869 68.116997
8.0340004 5.8649998 68.116997
6.1440001 4.3439999 49.944
8.3699999 5.9190001 68.041
-7.1430001 5.691 67.228996
-7.1440001 5.6919999 67.228996
-20.657 5.6729999 67.473999
-21.218 5.7199998 67.483002
-7.8790002 5.697 67.199997
-7.8720002 5.6919999 67.199997
7.6069999 5.9390001 67.985001
7.6100001 5.9419999 67.985001
6.46 4.4130001 49.898998
6.4640002 4.4159999 49.898998
-6.7290001 5.7719998 67.253998
-6.7280002 5.7719998 67.253998
-20.355 5.7519999 67.450996
-19.657 5.7930002 67.309998
-5.809 5.8119998 67.186996
-5.8109999 5.8150001 67.186996
9.7130003 6.0630002 68.362
9.7110004 6.0619998 68.362
20.944 4.848 50.234001
6.6059999 6.0110002 67.796997
6.605 6.0110002 67.796997
-8.7950001 5.7979999 67.235001
-8.8109999 5.809 67.235001
-21.893 5.8460002 67.518997
-19.983 5.8790002 67.421997
-6.2189999 5.8530002 67.197998
-6.2210002 5.8540001 67.197998
6.8439999 4.526 50.000999
9.2819996 6.138 68.25
7.0320001 6.105 67.769997
7.0349998 6.1079998 67.769997
-8.4250002 5.9089999 67.200996
-8.408 5.8969998 67.200996
-21.575001 5.921 67.469002
-20.316 5.9250002 67.418999
-6.631 5.9349999 67.204002
-6.6300001 5.934 67.204002
6.5339999 4.5689998 49.889
6.526 4.5640001 49.889
7.4569998 6.198 67.836998
7.4520001 6.1929998 67.836998
-8.0229998 5.9759998 67.18
-8.0240002 5.9770002 67.18
-21.302999 5.967 67.449997
-20.608 6 67.433998
-7.0430002 6.0190001 67.186996
-7.039 6.0149999 67.186996
8.46 6.2490001 67.967003
6.237 4.6069999 49.944
7.9390001 6.283 67.944
7.9439998 6.2870002 67.944
-7.559 6.0669999 67.183998
-7.5380001 6.0500002 67.183998
-20.98 6.0479999 67.445
-20.899 6.085 67.431
-7.4510002 6.0570002 67.183998
-7.4489999 6.0549998 67.183998
8.0290003 6.3210001 67.900002
8.0290003 6.3200002 67.900002
6.1529999 4.6890001 49.970001
8.375 6.382 67.827003
-7.1149998 6.0809999 67.174004
-7.1199999 6.086 67.174004
-20.673 6.125 67.412003
-21.214001 6.1669998 67.438004
-7.8699999 6.1459999 67.144997
-7.8509998 6.131 67.144997
7.579 6.401 67.789001
7.579 6.402 67.789001
6.441 4.7550001 49.924999
6.4369998 4.7509999 49.924999
-6.7179999 6.177 67.151001
-6.7059999 6.165 67.151001
-20.362 6.21 67.392998
-19.674 6.204 67.376999
-5.7969999 6.2129998 67.111
-5.7950001 6.21 67.111
9.6789999 6.5009999 68.176003
9.6800003 6.5029998 68.176003
20.902 5.2150002 0
6.6199999 6.4829998 67.599998
6.605 6.4689999 67.599998
-8.8299999 6.2550001 67.154999
-21.916 6.2600002 67.470001
-19.972 6.2810001 67.399002
-6.217 6.3049998 67.133003
-6.2080002 6.296 67.133003
9.2559996 6.5809999 68.026001
6.776 4.8169999 49.911999
7.0310001 6.5630002 67.578003
7.0229998 6.5560002 67.578003
-8.4379997 6.3509998 67.115997
-8.427 6.3429999 67.115997
-21.625 6.342 67.468002
-20.311001 6.3709998 67.372002
-6.6570001 6.3850002 67.112
-6.6570001 6.3850002 67.112
6.513 4.9099998 49.867001
6.5050001 4.9029999 49.867001
7.4310002 6.6339998 67.644997
7.434 6.6360002 67.644997
-8.0279999 6.3940001 67.138
-8.0139999 6.3829999 67.138
-21.304001 6.415 67.417
-20.575001 6.447 67.386002
-7.0799999 6.4369998 67.089996
-7.0689998 6.427 67.089996
8.3999996 6.6859999 67.799004
6.2069998 4.941 49.93
7.888 6.7259998 67.721001
7.8899999 6.7280002 67.721001
-7.5760002 6.4689999 67.114998
-7.5700002 6.4640002 67.114998
-20.981001 6.4959998 67.389999
-20.914 6.5370002 67.363998
-7.4840002 6.513 67.114998
-7.4790001 6.5079999 67.114998
7.987 6.77 67.714996
7.9819999 6.7659998 67.714996
8.2919998 6.8010001 67.654999
8.302 6.809 67.654999
-7.1609998 6.5479999 67.073997
-7.1570001 6.5440001 67.073997
-20.677 6.573 67.342003
-21.223 6.585 67.388
-7.8920002 6.5929999 67.087997
7.566 6.848 67.630997
7.566 6.848 67.630997
6.4310002 5.085 49.898998
6.434 5.0869999 49.898998
-6.7519999 6.6329999 67.041
-6.7579999 6.6389999 67.041
-20.360001 6.6149998 67.322998
-19.663 6.6570001 67.300003
-5.8460002 6.6869998 67.029999
-5.8579998 6.7010002 67.029999
9.658 6.9879999 67.816002
9.665 6.994 67.816002
6.572 6.9250002 67.495003
6.5739999 6.927 67.495003
-8.8439999 6.678 67.037003
-21.978001 6.737 67.469002
-19.979 6.7389998 67.334
-6.302 6.8179998 67.027
-6.2909999 6.8060002 67.027
9.2130003 7.0079999 67.827003
6.796 5.1690001 49.844002
6.9809999 7.0029998 67.514999
6.98 7.0019999 67.514999
-8.4729996 6.7930002 67.07
-8.4899998 6.8070002 67.07
-21.695999 6.8119998 67.429001
-20.281 6.8169999 67.306999
-6.743 6.928 67.119003
-6.7399998 6.9250002 67.008003
6.5050001 5.2410002 49.881001
6.5050001 5.2420001 49.881001
7.402 7.0630002 67.563004
-8.1289997 6.908 67.023003
-8.1379995 6.9159999 67.023003
-21.349001 6.8759999 67.404999
-20.634001 6.9120002 67.318001
-7.1630001 6.973 66.991997
-7.1529999 6.9640002 66.991997
6.2129998 5.2839999 49.898998
-7.6739998 7.013 67.186996
-7.6690001 7.0089998 67.040001
-21.063999 6.98 67.342003
-20.93 6.9569998 67.342003
-7.572 7.0500002 67.007004
-7.572 7.0500002 67.007004
-7.2480001 7.0879998 67.086998
-20.674999 6.9879999 67.344002
-21.259001 7.0440001 67.382004
-7.9169998 7.0700002 67.186996
-7.9959998 7.1399999 67.308998
6.4349999 5.4260001 49.875999
6.434 5.4260001 49.875999
-6.829 7.1680002 67.119003
-19.660999 7.1009998 67.206001
-19.999001 7.191 67.236
6.7589998 5.4959998 49.763
6.7940001 5.5240002 49.763
-20.309999 7.2719998 67.25
6.4770002 5.5760002 49.859001
6.4749999 5.5739999 49.859001
-20.655001 7.323 67.307999
6.4159999 5.7690001 49.862
6.4060001 5.7600002 49.862
6.4889998 5.9250002 49.830002
6.4889998 5.9250002 49.830002
7.5040002 8.1890001 67.063004
8.6630001 8.2880001 49.797001
8.665 8.29 67.32
9.5620003 8.3369999 0
9.5550003 8.3310003 67.445999
6.5159998 8.2659998 0
9.1750002 8.415 67.384003
9.1809998 8.4209995 67.384003
6.948 8.3739996 67.273003
6.9330001 8.3549995 67.273003
8.7600002 8.4560003 67.32
8.7340002 8.4309998 67.32
7.348 8.441 67.231003
7.342 8.434 67.231003
8.3319998 8.5240002 67.32
8.335 8.5270004 67.32
7.8080001 8.5059996 67.231003
7.8239999 8.5229998 67.231003
7.927 8.5740004 67.237
7.9099998 8.5550003 67.237
8.2370005 8.6490002 67.296997
8.2309999 8.6420002 67.296997
-7.224 8.3249998 0
-8.0419998 8.4619999 0
7.4790001 8.6529999 67.231003
7.4689999 8.6409998 67.231003
8.6300001 8.7440004 67.32
8.6260004 8.7399998 67.32
-6.901 8.5150003 67.011002
-5.9450002 8.5190001 0
-5.9250002 8.4910002 67.086998
9.5760002 8.8079996 67.445999
9.5649996 8.7969999 67.445999
6.5409999 8.7559996 67.189003
6.5100002 8.7150002 67.189003
-9.0240002 8.5780001 0
-6.3400002 8.5749998 67.069
-6.3579998 8.6000004 67.069
9.1499996 8.8800001 67.421997
9.1470003 8.8760004 67.421997
6.9190001 8.7939997 67.217003
6.927 8.8039999 67.217003
-8.6070004 8.6190004 67.252998
-6.7360001 8.6370001 67.069
-6.6929998 8.5819998 67.069
8.7290001 8.9139996 67.373001
8.7250004 8.9090004 67.373001
7.3369999 8.8830004 67.257004
7.3460002 8.8940001 67.257004
-8.0930004 8.5959997 67.045998
-8.1049995 8.6090002 67.045998
-20.974001 8.8000002 67.255997
-7.151 8.6429996 66.910004
-7.145 8.6359997 66.910004
8.2910004 8.9709997 67.296997
8.3120003 8.993 67.296997
7.7940001 9.0240002 67.238998
-7.6570001 8.6850004 67.045998
-7.6560001 8.684 67.045998
-7.5669999 8.7329998 66.910004
7.8990002 9.0760002 67.275002
7.8829999 9.0579996 67.275002
8.2150002 9.1149998 67.275002
8.2180004 9.1190004 67.275002
-7.2470002 8.7690001 66.910004
-7.237 8.757 66.910004
-7.9590001 8.7939997 67.005997
-7.9679999 8.8050003 67.045998
7.4949999 9.1289997 67.223999
7.4850001 9.1160002 67.223999
8.6379995 9.21 67.328003
8.6190004 9.1890001 67.328003
-6.8260002 8.8369999 67.011002
-6.8200002 8.8299999 67.011002
-5.9130001 8.8809996 67.086998
6.4520001 9.132 67.167
6.4829998 9.177 67.167
-8.9060001 8.8780003 67.249001
-20.035999 8.948 67.092003
-6.3270001 8.9689999 67.010002
-6.3340001 8.9790001 67.010002
6.9070001 9.2749996 67.209
6.902 9.2679996 67.209
-8.5220003 8.9870005 67.260002
-8.5010004 8.9650002 67.260002
-20.386999 9.0459995 67.092003
-6.7189999 9.0270004 67.011002
-6.7259998 9.0360003 67.011002
7.3119998 9.3900003 67.278
-8.118 9.0430002 67.005997
-8.1129999 9.0380001 67.005997
-20.764999 9.1140003 67.096001
-7.1570001 9.1049995 66.878998
-7.1479998 9.0930004 66.878998
-7.6440001 9.1239996 66.978996
-7.6459999 9.1269999 66.978996
-7.559 9.177 66.890999
-7.5489998 9.165 66.890999
-7.2490001 9.2259998 66.908997
-7.2470002 9.2220001 66.908997
-20.753 9.2049999 67.255997
-7.9840002 9.2399998 66.853996
-7.993 9.25 66.853996
-6.8470001 9.3199997 66.850998
-20.364 9.2410002 67.092003
-19.788 9.3369999 67.092003
-5.928 9.3579998 66.987999
-5.9039998 9.3199997 66.987999
-8.9390001 9.3330002 67.137001
-20.063 9.3999996 67.124001
-6.3660002 9.434 66.988998
-6.3730001 9.4449997 66.988998
-8.526 9.4110003 66.947998
-8.5229998 9.408 66.947998
-20.409 9.4549999 67.096001
-6.756 9.4460001 66.846001
-6.7620001 9.4540005 66.846001
-8.1459999 9.5290003 66.823997
-8.1359997 9.5179996 66.823997
-7.197 9.5710001 66.872002
-7.171 9.5360003 66.872002
-7.6950002 9.6009998 66.861
-7.6929998 9.599 66.861
-7.6069999 9.651 66.873001
-7.6040001 9.6479998 66.873001
-7.2589998 9.651 66.906998
-7.29 9.6920004 66.906998
-7.9959998 9.7080002 66.831001
-8.0100002 9.724 66.831001
-6.8829999 9.7799997 66.824997
-6.8769999 9.7720003 66.824997
-19.819 9.7919998 67.117996
-5.9499998 9.7969999 66.884003
-5.9489999 9.7959995 66.884003
-8.9569998 9.7709999 66.849998
-8.2449999 11.31 0
-7.3140001 11.424 0
-7.2919998 11.39 67.112
-7.7969999 11.388 66.940002
-7.717 11.452 67.098999
-7.7189999 11.454 67.098999
-7.3979998 11.489 67.112
-7.3969998 11.488 67.112
-8.151 11.52 67.122002
-8.1619997 11.536 67.122002
-6.9829998 11.567 67.112
-6.9920001 11.583 67.112
-6.0609999 11.644 67.043999
-6.073 11.667 67.043999
-9.1210003 11.67 0
-6.4720001 11.683 67.154999
-6.473 11.687 67.154999
-8.6859999 11.723 67.097
-8.6750002 11.708 67.097
-6.9330001 11.797 67.137001
-6.9349999 11.8 67.137001
-8.2880001 11.783 67.122002
-7.3189998 11.838 67.112
-7.3210001 11.84 67.112
-7.8340001 11.851 67.098999
-7.823 11.834 67.098999
-7.7490001 11.908 67.080002
-7.711 11.849 67.080002
-7.428 11.942 67.121002
-7.4330001 11.951 67.121002
-8.158 11.986 67.056
-8.1450005 11.967 67.056
-7.0139999 12.022 67.137001
-7.0170002 12.026 67.137001
-6.0999999 12.113 67.055
-6.0910001 12.094 67.055
-9.1409998 12.111 67.158997
-6.5079999 12.146 67.117996
-6.493 12.12 67.117996
-8.6949997 12.106 67.084
-6.9660001 12.255 67.162003
-6.961 12.247 67.162003
-8.3389997 12.267 67.119003
-8.29 12.195 67.119003
-7.3769999 12.336 67.112999
-7.3709998 12.326 67.112999
-7.8790002 12.327 67.078003
-7.9060001 12.369 67.078003
-7.7750001 12.355 67.089996
-7.7849998 12.37 67.089996
-7.4629998 12.403 67.093002
-7.473 12.42 67.093002
-8.1820002 12.429 67.098999
-8.2040005 12.464 67.098999
-7.0910001 12.557 67.148003
-7.098 12.569 67.148003
-6.1849999 12.677 67.103996
-9.1269999 12.463 67.141998
-6.6020002 12.722 67.126999
-8.7399998 12.578 67.078003
-9.2460003 -4.7280002 67.762001
-5.526 -4.71 0
-4.664 -4.5770001 67.623001
-4.652 -4.5640001 68.111
-8.8290005 -4.3920002 67.764999
-9.165 -4.27 67.514999
-4.1490002 -4.0089998 67.639999
4.0949998 -0.77600002 12.502
4.171 -0.773 12.502
-9.165 -3.8110001 67.762001
4.1719999 -0.74800003 12.502
-4.1789999 -3.5780001 67.722
-8.7939997 -3.4660001 0
6.7470002 -3.5220001 67.563004
-9.2639999 -3.401 68.113998
-4.6160002 -3.2149999 68.155998
5.1009998 -3.2390001 67.711998
7.1669998 -3.135 67.806999
-8.7620001 -2.993 68.065002
6.7189999 -3.0369999 67.619003
6.3590002 -2.9779999 67.594002
4.1820002 -0.57499999 12.286
5.9359999 -2.9059999 67.594002
10.643 -2.9419999 0
5.5029998 -2.855 67.469002
-10.415 -2.7049999 68.120003
5.0929999 -2.7750001 67.528999
4.2649999 -0.52100003 12.189
-4.1170001 -2.6789999 67.827003
-1.0880001 -0.31900001 8.415
-1.09 -0.31999999 8.415
6.8060002 -2.6159999 67.563004
4.158 -0.50199997 12.381
-1.142 -0.31 8.415
-1.1390001 -0.30899999 8.415
4.217 -0.48699999 12.286
10.111 -2.5409999 68.349998
5.954 -2.4820001 67.639999
10.653 -2.4790001 68.390999
10.599 -2.4660001 68.390999
-4.9970002 -2.3989999 67.839996
4.2459998 -0.44800001 12.189
10.963 -2.4119999 68.247002
11.038 -2.428 68.247002
-10.362 -2.2739999 67.859001
5.0910001 -2.3150001 67.669998
4.2909999 -0.433 12.189
11.372 -2.3329999 68.247002
-8.3050003 -2.187 67.587997
7.2379999 -2.244 67.889999
7.2020001 -2.233 67.889999
9.2150002 -2.233 0
9.2810001 -2.2490001 68.124001
-0.78399998 -0.26699999 68.008003
-0.77999997 -0.26499999 8.4139996
-1.09 -0.26300001 8.4309998
-1.086 -0.26199999 8.4309998
6.79 -2.1500001 67.734001
9.6450005 -2.1530001 68.057999
-1.142 -0.252 8.4490004
6.381 -2.1099999 67.755997
-5.4190001 -2.0139999 67.555
-19.382999 -2.0220001 67.541
-9.5270004 -1.9809999 67.655998
5.9559999 -2.0239999 67.654999
4.2119999 -0.375 12.108
10.576 -1.998 68.348
-5.033 -1.954 67.727997
-19.049 -1.9400001 67.587997
-9.9960003 -1.908 67.764
5.5209999 -1.9450001 67.739998
4.2620001 -0.36700001 12.234
10.964 -1.909 68.237999
-4.5250001 -1.846 67.969002
-18.695 -1.853 67.536003
-10.4 -1.821 67.688004
5.0999999 -1.859 67.727997
4.2680001 -0.34799999 12.231
-4.125 -1.7690001 67.815002
-8.3339996 -1.735 67.466003
7.2150002 -1.777 67.910004
4.138 -0.33500001 12.576
-8.7390003 -1.649 67.633003
6.777 -1.688 67.785004
4.178 -0.32699999 12.576
-9.1269999 -1.608 67.731003
6.395 -1.654 67.771004
4.1950002 -0.30899999 12.286
-5.4169998 -1.557 67.555
-9.5240002 -1.521 67.655998
5.9580002 -1.5650001 67.736
4.2420001 -0.29300001 12.286
10.625 -1.5420001 68.369003
10.609 -1.54 68.369003
-19.052 -1.4809999 67.541
-9.9420004 -1.438 67.681999
5.5409999 -1.4809999 67.779999
10.958 -1.446 68.230003
-4.5349998 -1.393 67.737
-4.5760002 -1.405 67.737
-18.768999 -1.4 67.641998
-10.324 -1.355 67.622002
5.0960002 -1.398 67.677002
4.2509999 -0.257 11.881
11.391 -1.41 68.305
11.357 -1.406 68.305
-4.1620002 -1.365 67.886002
-8.3120003 -1.313 67.613998
4.1500001 -0.25099999 12.519
-0.77999997 -0.15800001 8.3529997
-0.77899998 -0.15800001 8.4169998
-8.7460003 -1.232 67.731003
6.7969999 -1.233 67.717003
4.197 -0.236 12.39
9.6569996 -1.234 68.182999
-0.73199999 -0.148 8.4020004
-0.72899997 -0.148 8.46
6.3759999 -1.1900001 67.775002
4.2319999 -0.219 12.357
10.151 -1.159 68.302002
10.192 -1.164 68.292
-0.68199998 -0.138 8.4300003
-0.67900002 -0.138 8.4809999
5.9660001 -1.107 67.768997
4.2010002 -0.2 12.269
10.608 -1.076 68.352997
-0.62 -0.127 8.4020004
-4.9510002 -1.0190001 67.865997
-9.9969997 -0.98500001 67.678001
5.5599999 -1.026 67.802002
4.2319999 -0.184 12.118
-4.5300002 -0.97600001 67.787003
5.092 -0.93800002 67.667999
4.2639999 -0.168 11.91
-4.1030002 -0.88999999 67.741997
-1.0369999 -0.106 8.4130001
-1.034 -0.106 8.4359999
7.2179999 -0.85699999 67.780998
4.1570001 -0.15899999 12.506
-0.77999997 -0.101 8.4169998
-6.244 -0.80900002 67.642998
-20.011999 -0.81199998 67.733002
-1.089 -0.096000001 8.448
-1.086 -0.096000001 8.448
6.8150001 -0.81699997 67.788002
4.1799998 -0.142 12.501
-0.72899997 -0.090000004 8.46
-0.727 -0.090000004 8.46
-19.778999 -0.73199999 67.646004
-1.137 -0.085000001 8.448
-1.1390001 -0.086000003 8.448
6.3709998 -0.73000002 67.764
4.2179999 -0.134 12.501
10.119 -0.69300002 68.292
10.084 -0.69099998 68.292
-0.68300003 -0.086000003 8.4809999
-0.68099999 -0.086000003 8.4809999
-19.280001 -0.68400002 67.636002
-1.182 -0.079999998 8.5190001
-1.187 -0.079999998 8.3929996
5.9790001 -0.64899999 67.799004
4.2360001 -0.117 12.238
10.596 -0.611 68.401001
10.593 -0.611 68.401001
-0.62400001 -0.075999998 8.4530001
-0.62099999 -0.075000003 8.4530001
-1.24 -0.07 8.4139996
-9.9460001 -0.56300002 67.700996
5.5310001 -0.56199998 67.723999
4.2420001 -0.101 12.195
11.022 -0.52700001 68.352997
10.998 -0.52600002 68.352997
-0.57800001 -0.066 8.6110001
-0.57599998 -0.066 8.6110001
-18.65 -0.51899999 67.446999
-10.317 -0.479 67.528
5.1110001 -0.48100001 67.693001
4.8270001 -0.090000004 11.514
4.2810001 -0.086000003 12.153
11.434 -0.44299999 68.441002
11.416 -0.44299999 68.441002
-0.52899998 -0.056000002 8.6110001
-4.1220002 -0.43599999 67.511002
-18.330999 -0.43700001 67.584
-1.034 -0.048999999 8.4359999
-1.033 -0.048999999 8.4359999
7.2340002 -0.398 67.850998
4.1570001 -0.072999999 12.577
6.8010001 -0.29100001 50.085999
9.2989998 -0.398 68.196999
-0.778 -0.043000001 8.4180002
